-28.000000 30.000000 4.659881E+01
-28.000000 28.000000 4.422471E+01
-28.000000 26.000000 4.565928E+01
-28.000000 24.000000 5.009614E+01
-28.000000 22.000000 5.080371E+01
-28.000000 20.000000 4.516427E+01
-28.000000 18.000000 3.415181E+01
-28.000000 16.000000 2.011232E+01
-28.000000 14.000000 7.538599E+00
-28.000000 12.000000 -2.544424E+00
-28.000000 10.000000 -9.063610E+00
-28.000000 8.000000 -2.135839E+01
-28.000000 6.000000 -3.751969E+01
-28.000000 4.000000 -4.851609E+01
-28.000000 2.000000 -4.106673E+01
-28.000000 0.000000 -1.600485E+01
-28.000000 -2.000000 1.685618E+01
-28.000000 -4.000000 3.528826E+01
-28.000000 -6.000000 2.661445E+01
-28.000000 -8.000000 1.632475E+00
-28.000000 -10.000000 -2.251840E+01
-28.000000 -12.000000 -2.648872E+01
-28.000000 -14.000000 -1.725550E+01
-28.000000 -16.000000 -3.422098E-01
-28.000000 -18.000000 1.592528E+01
-28.000000 -20.000000 2.706379E+01
-28.000000 -22.000000 3.191720E+01
-28.000000 -24.000000 3.453149E+01
-28.000000 -26.000000 3.958939E+01
-28.000000 -28.000000 4.413192E+01
-28.000000 -30.000000 4.708245E+01
-28.000000 -32.000000 4.726912E+01
-28.000000 -34.000000 4.537476E+01
-28.000000 -36.000000 4.615036E+01
-28.000000 -38.000000 4.856304E+01
-28.000000 -40.000000 5.135973E+01
-26.000000 40.000000 7.296294E+01
-26.000000 38.000000 7.618175E+01
-26.000000 36.000000 7.592650E+01
-26.000000 34.000000 6.911327E+01
-26.000000 32.000000 5.687902E+01
-26.000000 30.000000 4.893457E+01
-26.000000 28.000000 4.685878E+01
-26.000000 26.000000 4.815157E+01
-26.000000 24.000000 5.156112E+01
-26.000000 22.000000 4.806558E+01
-26.000000 20.000000 3.614017E+01
-26.000000 18.000000 2.086321E+01
-26.000000 16.000000 7.010640E+00
-26.000000 14.000000 -4.052915E+00
-26.000000 12.000000 -1.014481E+01
-26.000000 10.000000 -1.244855E+01
-26.000000 8.000000 -1.941916E+01
-26.000000 6.000000 -3.220562E+01
-26.000000 4.000000 -3.988419E+01
-26.000000 2.000000 -2.906164E+01
-26.000000 0.000000 -7.691851E-01
-26.000000 -2.000000 3.314500E+01
-26.000000 -4.000000 5.106743E+01
-26.000000 -6.000000 4.009396E+01
-26.000000 -8.000000 1.156149E+01
-26.000000 -10.000000 -1.585269E+01
-26.000000 -12.000000 -2.163541E+01
-26.000000 -14.000000 -1.378512E+01
-26.000000 -16.000000 9.638634E-01
-26.000000 -18.000000 1.503114E+01
-26.000000 -20.000000 2.371923E+01
-26.000000 -22.000000 2.528919E+01
-26.000000 -24.000000 2.619273E+01
-26.000000 -26.000000 3.131264E+01
-26.000000 -28.000000 3.811840E+01
-26.000000 -30.000000 4.157880E+01
-26.000000 -32.000000 4.256830E+01
-26.000000 -34.000000 4.099243E+01
-26.000000 -36.000000 4.304422E+01
-26.000000 -38.000000 4.720933E+01
-26.000000 -40.000000 5.076827E+01
-24.000000 40.000000 6.855499E+01
-24.000000 38.000000 7.269635E+01
-24.000000 36.000000 7.372092E+01
-24.000000 34.000000 6.725539E+01
-24.000000 32.000000 5.570674E+01
-24.000000 30.000000 4.881805E+01
-24.000000 28.000000 4.718087E+01
-24.000000 26.000000 5.009970E+01
-24.000000 24.000000 5.290927E+01
-24.000000 22.000000 4.241351E+01
-24.000000 20.000000 2.318589E+01
-24.000000 18.000000 5.263305E+00
-24.000000 16.000000 -5.948099E+00
-24.000000 14.000000 -1.331086E+01
-24.000000 12.000000 -1.452130E+01
-24.000000 10.000000 -1.285504E+01
-24.000000 8.000000 -1.494774E+01
-24.000000 6.000000 -2.283560E+01
-24.000000 4.000000 -2.571654E+01
-24.000000 2.000000 -1.457849E+01
-24.000000 0.000000 1.052565E+01
-24.000000 -2.000000 3.973482E+01
-24.000000 -4.000000 5.701064E+01
-24.000000 -6.000000 5.070559E+01
-24.000000 -8.000000 2.762911E+01
-24.000000 -10.000000 2.735212E+00
-24.000000 -12.000000 -8.934679E+00
-24.000000 -14.000000 -7.978766E+00
-24.000000 -16.000000 3.300381E-02
-24.000000 -18.000000 8.844692E+00
-24.000000 -20.000000 1.320217E+01
-24.000000 -22.000000 1.184909E+01
-24.000000 -24.000000 1.058860E+01
-24.000000 -26.000000 1.562616E+01
-24.000000 -28.000000 2.261881E+01
-24.000000 -30.000000 2.735432E+01
-24.000000 -32.000000 3.061306E+01
-24.000000 -34.000000 3.258554E+01
-24.000000 -36.000000 3.811622E+01
-24.000000 -38.000000 4.458601E+01
-24.000000 -40.000000 4.959083E+01
-22.000000 40.000000 6.304793E+01
-22.000000 38.000000 6.702438E+01
-22.000000 36.000000 6.822553E+01
-22.000000 34.000000 6.090250E+01
-22.000000 32.000000 4.891029E+01
-22.000000 30.000000 4.249783E+01
-22.000000 28.000000 4.225916E+01
-22.000000 26.000000 4.767784E+01
-22.000000 24.000000 5.138834E+01
-22.000000 22.000000 3.758072E+01
-22.000000 20.000000 1.574823E+01
-22.000000 18.000000 6.370831E-01
-22.000000 16.000000 -3.740133E+00
-22.000000 14.000000 -6.001031E+00
-22.000000 12.000000 -5.546108E+00
-22.000000 10.000000 -3.972090E+00
-22.000000 8.000000 -6.106177E+00
-22.000000 6.000000 -1.390994E+01
-22.000000 4.000000 -1.814348E+01
-22.000000 2.000000 -8.825906E+00
-22.000000 0.000000 1.168544E+01
-22.000000 -2.000000 3.547876E+01
-22.000000 -4.000000 5.215213E+01
-22.000000 -6.000000 5.318163E+01
-22.000000 -8.000000 3.932605E+01
-22.000000 -10.000000 1.880113E+01
-22.000000 -12.000000 1.722825E+00
-22.000000 -14.000000 -3.849589E+00
-22.000000 -16.000000 -9.266760E-01
-22.000000 -18.000000 3.397282E+00
-22.000000 -20.000000 3.468599E+00
-22.000000 -22.000000 -8.490210E-01
-22.000000 -24.000000 -4.563054E+00
-22.000000 -26.000000 -2.589376E+00
-22.000000 -28.000000 3.892695E+00
-22.000000 -30.000000 9.477219E+00
-22.000000 -32.000000 1.547266E+01
-22.000000 -34.000000 2.184726E+01
-22.000000 -36.000000 3.045458E+01
-22.000000 -38.000000 3.917208E+01
-22.000000 -40.000000 4.690806E+01
-20.000000 40.000000 5.807753E+01
-20.000000 38.000000 6.122246E+01
-20.000000 36.000000 6.079969E+01
-20.000000 34.000000 5.127349E+01
-20.000000 32.000000 3.665191E+01
-20.000000 30.000000 2.956396E+01
-20.000000 28.000000 3.289553E+01
-20.000000 26.000000 4.206147E+01
-20.000000 24.000000 4.639310E+01
-20.000000 22.000000 3.255216E+01
-20.000000 20.000000 1.319634E+01
-20.000000 18.000000 5.382139E+00
-20.000000 16.000000 1.071995E+01
-20.000000 14.000000 1.614890E+01
-20.000000 12.000000 1.715597E+01
-20.000000 10.000000 1.395790E+01
-20.000000 8.000000 6.268420E+00
-20.000000 6.000000 -4.965904E+00
-20.000000 4.000000 -1.231662E+01
-20.000000 2.000000 -7.995730E+00
-20.000000 0.000000 5.168528E+00
-20.000000 -2.000000 2.212311E+01
-20.000000 -4.000000 3.533611E+01
-20.000000 -6.000000 4.095205E+01
-20.000000 -8.000000 3.605164E+01
-20.000000 -10.000000 2.257495E+01
-20.000000 -12.000000 7.380413E+00
-20.000000 -14.000000 5.052919E-01
-20.000000 -16.000000 1.377307E+00
-20.000000 -18.000000 2.613821E+00
-20.000000 -20.000000 -8.991381E-01
-20.000000 -22.000000 -8.622854E+00
-20.000000 -24.000000 -1.596411E+01
-20.000000 -26.000000 -1.716324E+01
-20.000000 -28.000000 -1.198814E+01
-20.000000 -30.000000 -6.788328E+00
-20.000000 -32.000000 1.274105E+00
-20.000000 -34.000000 1.137590E+01
-20.000000 -36.000000 2.238035E+01
-20.000000 -38.000000 3.324124E+01
-20.000000 -40.000000 4.349623E+01
-18.000000 40.000000 5.277414E+01
-18.000000 38.000000 5.517509E+01
-18.000000 36.000000 5.331085E+01
-18.000000 34.000000 4.044252E+01
-18.000000 32.000000 2.221999E+01
-18.000000 30.000000 1.408268E+01
-18.000000 28.000000 2.133265E+01
-18.000000 26.000000 3.534448E+01
-18.000000 24.000000 4.009972E+01
-18.000000 22.000000 2.598915E+01
-18.000000 20.000000 9.538031E+00
-18.000000 18.000000 1.094716E+01
-18.000000 16.000000 2.863761E+01
-18.000000 14.000000 4.431152E+01
-18.000000 12.000000 4.763078E+01
-18.000000 10.000000 4.001915E+01
-18.000000 8.000000 2.424261E+01
-18.000000 6.000000 6.631034E+00
-18.000000 4.000000 -5.344491E+00
-18.000000 2.000000 -8.927608E+00
-18.000000 0.000000 -4.445098E+00
-18.000000 -2.000000 4.984965E+00
-18.000000 -4.000000 1.174973E+01
-18.000000 -6.000000 1.627705E+01
-18.000000 -8.000000 1.615480E+01
-18.000000 -10.000000 1.154150E+01
-18.000000 -12.000000 6.344865E+00
-18.000000 -14.000000 5.153093E+00
-18.000000 -16.000000 7.026145E+00
-18.000000 -18.000000 6.533936E+00
-18.000000 -20.000000 4.308732E-01
-18.000000 -22.000000 -9.996979E+00
-18.000000 -24.000000 -2.032839E+01
-18.000000 -26.000000 -2.434646E+01
-18.000000 -28.000000 -2.163326E+01
-18.000000 -30.000000 -1.755851E+01
-18.000000 -32.000000 -8.803363E+00
-18.000000 -34.000000 3.148989E+00
-18.000000 -36.000000 1.571618E+01
-18.000000 -38.000000 2.750847E+01
-18.000000 -40.000000 3.864757E+01
-16.000000 40.000000 4.686605E+01
-16.000000 38.000000 4.840927E+01
-16.000000 36.000000 4.573939E+01
-16.000000 34.000000 3.084931E+01
-16.000000 32.000000 1.074504E+01
-16.000000 30.000000 2.629169E+00
-16.000000 28.000000 1.180048E+01
-16.000000 26.000000 2.772778E+01
-16.000000 24.000000 3.146834E+01
-16.000000 22.000000 1.616240E+01
-16.000000 20.000000 1.499599E+00
-16.000000 18.000000 1.055757E+01
-16.000000 16.000000 4.083165E+01
-16.000000 14.000000 6.890546E+01
-16.000000 12.000000 7.907940E+01
-16.000000 10.000000 7.237496E+01
-16.000000 8.000000 4.918486E+01
-16.000000 6.000000 2.122209E+01
-16.000000 4.000000 -1.360718E+00
-16.000000 2.000000 -1.177889E+01
-16.000000 0.000000 -1.146724E+01
-16.000000 -2.000000 -7.688792E+00
-16.000000 -4.000000 -8.203139E+00
-16.000000 -6.000000 -8.222075E+00
-16.000000 -8.000000 -6.958530E+00
-16.000000 -10.000000 -6.497357E+00
-16.000000 -12.000000 -2.238023E+00
-16.000000 -14.000000 4.861041E+00
-16.000000 -16.000000 1.073478E+01
-16.000000 -18.000000 1.017720E+01
-16.000000 -20.000000 3.408188E+00
-16.000000 -22.000000 -7.867227E+00
-16.000000 -24.000000 -1.942413E+01
-16.000000 -26.000000 -2.458178E+01
-16.000000 -28.000000 -2.379521E+01
-16.000000 -30.000000 -2.126058E+01
-16.000000 -32.000000 -1.288614E+01
-16.000000 -34.000000 -8.965120E-01
-16.000000 -36.000000 1.166435E+01
-16.000000 -38.000000 2.264008E+01
-16.000000 -40.000000 3.305397E+01
-14.000000 40.000000 4.075294E+01
-14.000000 38.000000 4.152983E+01
-14.000000 36.000000 3.846304E+01
-14.000000 34.000000 2.434953E+01
-14.000000 32.000000 5.143440E+00
-14.000000 30.000000 -1.307449E+00
-14.000000 28.000000 7.687326E+00
-14.000000 26.000000 2.074233E+01
-14.000000 24.000000 2.054516E+01
-14.000000 22.000000 4.034737E+00
-14.000000 20.000000 -8.977343E+00
-14.000000 18.000000 5.067406E+00
-14.000000 16.000000 4.410777E+01
-14.000000 14.000000 8.528492E+01
-14.000000 12.000000 1.092519E+02
-14.000000 10.000000 1.090595E+02
-14.000000 8.000000 7.742805E+01
-14.000000 6.000000 3.363099E+01
-14.000000 4.000000 -4.401203E+00
-14.000000 2.000000 -2.051835E+01
-14.000000 0.000000 -1.888330E+01
-14.000000 -2.000000 -1.316264E+01
-14.000000 -4.000000 -1.509122E+01
-14.000000 -6.000000 -1.986737E+01
-14.000000 -8.000000 -2.129860E+01
-14.000000 -10.000000 -2.160089E+01
-14.000000 -12.000000 -1.453259E+01
-14.000000 -14.000000 -3.396178E+00
-14.000000 -16.000000 6.329227E+00
-14.000000 -18.000000 8.069644E+00
-14.000000 -20.000000 3.881050E+00
-14.000000 -22.000000 -5.100395E+00
-14.000000 -24.000000 -1.547847E+01
-14.000000 -26.000000 -1.973944E+01
-14.000000 -28.000000 -1.921463E+01
-14.000000 -30.000000 -1.833133E+01
-14.000000 -32.000000 -1.127751E+01
-14.000000 -34.000000 -8.624220E-01
-14.000000 -36.000000 9.802567E+00
-14.000000 -38.000000 1.924595E+01
-14.000000 -40.000000 2.857965E+01
-12.000000 40.000000 3.461576E+01
-12.000000 38.000000 3.536663E+01
-12.000000 36.000000 3.365555E+01
-12.000000 34.000000 2.195240E+01
-12.000000 32.000000 4.221703E+00
-12.000000 30.000000 -9.391327E-01
-12.000000 28.000000 7.198048E+00
-12.000000 26.000000 1.714241E+01
-12.000000 24.000000 1.307688E+01
-12.000000 22.000000 -5.596775E+00
-12.000000 20.000000 -1.872775E+01
-12.000000 18.000000 -1.326864E+00
-12.000000 16.000000 4.347199E+01
-12.000000 14.000000 9.601165E+01
-12.000000 12.000000 1.353951E+02
-12.000000 10.000000 1.452813E+02
-12.000000 8.000000 1.053821E+02
-12.000000 6.000000 4.393027E+01
-12.000000 4.000000 -1.193056E+01
-12.000000 2.000000 -3.403023E+01
-12.000000 0.000000 -2.923416E+01
-12.000000 -2.000000 -1.642230E+01
-12.000000 -4.000000 -1.358034E+01
-12.000000 -6.000000 -2.020630E+01
-12.000000 -8.000000 -2.504153E+01
-12.000000 -10.000000 -2.881778E+01
-12.000000 -12.000000 -2.605941E+01
-12.000000 -14.000000 -1.780878E+01
-12.000000 -16.000000 -6.917078E+00
-12.000000 -18.000000 -3.151512E-01
-12.000000 -20.000000 7.448339E-01
-12.000000 -22.000000 -3.712762E+00
-12.000000 -24.000000 -1.038128E+01
-12.000000 -26.000000 -1.230890E+01
-12.000000 -28.000000 -1.041545E+01
-12.000000 -30.000000 -9.275424E+00
-12.000000 -32.000000 -5.009435E+00
-12.000000 -34.000000 1.490561E+00
-12.000000 -36.000000 9.138518E+00
-12.000000 -38.000000 1.778031E+01
-12.000000 -40.000000 2.668106E+01
-10.000000 40.000000 2.927180E+01
-10.000000 38.000000 3.077272E+01
-10.000000 36.000000 3.133844E+01
-10.000000 34.000000 2.303865E+01
-10.000000 32.000000 6.928677E+00
-10.000000 30.000000 1.440174E+00
-10.000000 28.000000 7.317627E+00
-10.000000 26.000000 1.516374E+01
-10.000000 24.000000 1.072688E+01
-10.000000 22.000000 -7.855938E+00
-10.000000 20.000000 -2.124639E+01
-10.000000 18.000000 -3.627296E+00
-10.000000 16.000000 4.299495E+01
-10.000000 14.000000 1.020625E+02
-10.000000 12.000000 1.525164E+02
-10.000000 10.000000 1.732397E+02
-10.000000 8.000000 1.305537E+02
-10.000000 6.000000 5.766983E+01
-10.000000 4.000000 -1.515209E+01
-10.000000 2.000000 -4.442031E+01
-10.000000 0.000000 -3.967534E+01
-10.000000 -2.000000 -2.344811E+01
-10.000000 -4.000000 -1.692828E+01
-10.000000 -6.000000 -2.180110E+01
-10.000000 -8.000000 -2.509847E+01
-10.000000 -10.000000 -3.052202E+01
-10.000000 -12.000000 -3.426855E+01
-10.000000 -14.000000 -3.137034E+01
-10.000000 -16.000000 -2.108433E+01
-10.000000 -18.000000 -1.006079E+01
-10.000000 -20.000000 -3.522845E+00
-10.000000 -22.000000 -4.154561E+00
-10.000000 -24.000000 -7.159779E+00
-10.000000 -26.000000 -5.320233E+00
-10.000000 -28.000000 -1.242151E-01
-10.000000 -30.000000 2.857728E+00
-10.000000 -32.000000 4.029569E+00
-10.000000 -34.000000 5.416967E+00
-10.000000 -36.000000 9.548454E+00
-10.000000 -38.000000 1.851085E+01
-10.000000 -40.000000 2.815133E+01
-8.000000 40.000000 2.544748E+01
-8.000000 38.000000 2.858831E+01
-8.000000 36.000000 3.116372E+01
-8.000000 34.000000 2.636427E+01
-8.000000 32.000000 1.229191E+01
-8.000000 30.000000 4.923607E+00
-8.000000 28.000000 6.655302E+00
-8.000000 26.000000 1.234488E+01
-8.000000 24.000000 1.063219E+01
-8.000000 22.000000 -3.492956E+00
-8.000000 20.000000 -1.517768E+01
-8.000000 18.000000 -1.857437E+00
-8.000000 16.000000 4.091456E+01
-8.000000 14.000000 1.006760E+02
-8.000000 12.000000 1.565539E+02
-8.000000 10.000000 1.850319E+02
-8.000000 8.000000 1.471245E+02
-8.000000 6.000000 7.269366E+01
-8.000000 4.000000 -7.941953E+00
-8.000000 2.000000 -4.576251E+01
-8.000000 0.000000 -4.741708E+01
-8.000000 -2.000000 -3.302274E+01
-8.000000 -4.000000 -2.453646E+01
-8.000000 -6.000000 -2.529439E+01
-8.000000 -8.000000 -2.510537E+01
-8.000000 -10.000000 -2.969144E+01
-8.000000 -12.000000 -3.650965E+01
-8.000000 -14.000000 -3.733934E+01
-8.000000 -16.000000 -2.887857E+01
-8.000000 -18.000000 -1.655497E+01
-8.000000 -20.000000 -7.160060E+00
-8.000000 -22.000000 -5.875597E+00
-8.000000 -24.000000 -6.568594E+00
-8.000000 -26.000000 -8.736572E-01
-8.000000 -28.000000 8.029133E+00
-8.000000 -30.000000 1.306477E+01
-8.000000 -32.000000 1.290095E+01
-8.000000 -34.000000 1.111656E+01
-8.000000 -36.000000 1.277457E+01
-8.000000 -38.000000 2.222494E+01
-8.000000 -40.000000 3.271216E+01
-6.000000 40.000000 2.353735E+01
-6.000000 38.000000 2.880466E+01
-6.000000 36.000000 3.374230E+01
-6.000000 34.000000 3.098484E+01
-6.000000 32.000000 1.723240E+01
-6.000000 30.000000 6.920008E+00
-6.000000 28.000000 4.390686E+00
-6.000000 26.000000 8.548750E+00
-6.000000 24.000000 1.053646E+01
-6.000000 22.000000 1.040741E+00
-6.000000 20.000000 -1.044040E+01
-6.000000 18.000000 -2.886246E+00
-6.000000 16.000000 3.325750E+01
-6.000000 14.000000 8.978656E+01
-6.000000 12.000000 1.471041E+02
-6.000000 10.000000 1.816496E+02
-6.000000 8.000000 1.528180E+02
-6.000000 6.000000 8.458501E+01
-6.000000 4.000000 6.302416E+00
-6.000000 2.000000 -3.664633E+01
-6.000000 0.000000 -4.641943E+01
-6.000000 -2.000000 -3.775218E+01
-6.000000 -4.000000 -3.069261E+01
-6.000000 -6.000000 -2.870551E+01
-6.000000 -8.000000 -2.687397E+01
-6.000000 -10.000000 -2.864354E+01
-6.000000 -12.000000 -3.214933E+01
-6.000000 -14.000000 -3.238271E+01
-6.000000 -16.000000 -2.605204E+01
-6.000000 -18.000000 -1.631588E+01
-6.000000 -20.000000 -9.174118E+00
-6.000000 -22.000000 -8.408239E+00
-6.000000 -24.000000 -7.370967E+00
-6.000000 -26.000000 8.095980E-02
-6.000000 -28.000000 1.057396E+01
-6.000000 -30.000000 1.780178E+01
-6.000000 -32.000000 1.918835E+01
-6.000000 -34.000000 1.832775E+01
-6.000000 -36.000000 2.057781E+01
-6.000000 -38.000000 2.954157E+01
-6.000000 -40.000000 3.941843E+01
-4.000000 40.000000 2.427048E+01
-4.000000 38.000000 3.160339E+01
-4.000000 36.000000 3.773176E+01
-4.000000 34.000000 3.460733E+01
-4.000000 32.000000 1.897967E+01
-4.000000 30.000000 5.863623E+00
-4.000000 28.000000 8.240490E-01
-4.000000 26.000000 3.880850E+00
-4.000000 24.000000 7.024302E+00
-4.000000 22.000000 -1.102308E+00
-4.000000 20.000000 -1.482685E+01
-4.000000 18.000000 -1.226385E+01
-4.000000 16.000000 1.879832E+01
-4.000000 14.000000 7.129648E+01
-4.000000 12.000000 1.271393E+02
-4.000000 10.000000 1.645978E+02
-4.000000 8.000000 1.456142E+02
-4.000000 6.000000 8.920304E+01
-4.000000 4.000000 1.966011E+01
-4.000000 2.000000 -2.096330E+01
-4.000000 0.000000 -3.310649E+01
-4.000000 -2.000000 -2.960969E+01
-4.000000 -4.000000 -2.890770E+01
-4.000000 -6.000000 -3.028820E+01
-4.000000 -8.000000 -2.805812E+01
-4.000000 -10.000000 -2.659391E+01
-4.000000 -12.000000 -2.397407E+01
-4.000000 -14.000000 -2.051439E+01
-4.000000 -16.000000 -1.424450E+01
-4.000000 -18.000000 -8.768685E+00
-4.000000 -20.000000 -7.275744E+00
-4.000000 -22.000000 -1.040287E+01
-4.000000 -24.000000 -1.024379E+01
-4.000000 -26.000000 -2.715351E+00
-4.000000 -28.000000 8.017851E+00
-4.000000 -30.000000 1.760612E+01
-4.000000 -32.000000 2.270741E+01
-4.000000 -34.000000 2.578727E+01
-4.000000 -36.000000 3.093855E+01
-4.000000 -38.000000 3.925810E+01
-4.000000 -40.000000 4.755762E+01
-2.000000 40.000000 2.671510E+01
-2.000000 38.000000 3.638537E+01
-2.000000 36.000000 4.186322E+01
-2.000000 34.000000 3.562682E+01
-2.000000 32.000000 1.674919E+01
-2.000000 30.000000 1.779331E+00
-2.000000 28.000000 -3.225601E+00
-2.000000 26.000000 -3.096027E-01
-2.000000 24.000000 1.368961E-01
-2.000000 22.000000 -1.070077E+01
-2.000000 20.000000 -2.631863E+01
-2.000000 18.000000 -2.693158E+01
-2.000000 16.000000 3.732100E-01
-2.000000 14.000000 4.811397E+01
-2.000000 12.000000 9.992333E+01
-2.000000 10.000000 1.350281E+02
-2.000000 8.000000 1.233964E+02
-2.000000 6.000000 7.900473E+01
-2.000000 4.000000 2.340438E+01
-2.000000 2.000000 -8.191278E+00
-2.000000 0.000000 -1.478782E+01
-2.000000 -2.000000 -9.763495E+00
-2.000000 -4.000000 -1.170246E+01
-2.000000 -6.000000 -1.942453E+01
-2.000000 -8.000000 -2.242799E+01
-2.000000 -10.000000 -2.235980E+01
-2.000000 -12.000000 -1.554492E+01
-2.000000 -14.000000 -7.207901E+00
-2.000000 -16.000000 8.299742E-01
-2.000000 -18.000000 2.838498E+00
-2.000000 -20.000000 -1.786428E+00
-2.000000 -22.000000 -1.081114E+01
-2.000000 -24.000000 -1.433376E+01
-2.000000 -26.000000 -8.030537E+00
-2.000000 -28.000000 2.716384E+00
-2.000000 -30.000000 1.454571E+01
-2.000000 -32.000000 2.401184E+01
-2.000000 -34.000000 3.191150E+01
-2.000000 -36.000000 4.053151E+01
-2.000000 -38.000000 4.898606E+01
-2.000000 -40.000000 5.595332E+01
0.000000 40.000000 2.841957E+01
0.000000 38.000000 4.022806E+01
0.000000 36.000000 4.509832E+01
0.000000 34.000000 3.441655E+01
0.000000 32.000000 1.208693E+01
0.000000 30.000000 -3.946217E+00
0.000000 28.000000 -7.650555E+00
0.000000 26.000000 -3.664627E+00
0.000000 24.000000 -5.951073E+00
0.000000 22.000000 -2.023242E+01
0.000000 20.000000 -3.745767E+01
0.000000 18.000000 -4.023717E+01
0.000000 16.000000 -1.711313E+01
0.000000 14.000000 2.498834E+01
0.000000 12.000000 7.068740E+01
0.000000 10.000000 1.018008E+02
0.000000 8.000000 9.625841E+01
0.000000 6.000000 6.041407E+01
0.000000 4.000000 1.653352E+01
0.000000 2.000000 -5.752964E+00
0.000000 0.000000 -3.884838E+00
0.000000 -2.000000 8.369054E+00
0.000000 -4.000000 1.114216E+01
0.000000 -6.000000 1.643009E-01
0.000000 -8.000000 -1.067102E+01
0.000000 -10.000000 -1.554892E+01
0.000000 -12.000000 -8.794310E+00
0.000000 -14.000000 3.158153E+00
0.000000 -16.000000 1.328848E+01
0.000000 -18.000000 1.424098E+01
0.000000 -20.000000 5.451685E+00
0.000000 -22.000000 -8.560210E+00
0.000000 -24.000000 -1.695114E+01
0.000000 -26.000000 -1.386603E+01
0.000000 -28.000000 -2.917212E+00
0.000000 -30.000000 1.032272E+01
0.000000 -32.000000 2.329359E+01
0.000000 -34.000000 3.538799E+01
0.000000 -36.000000 4.763122E+01
0.000000 -38.000000 5.644287E+01
0.000000 -40.000000 6.262943E+01
2.000000 40.000000 2.858890E+01
2.000000 38.000000 3.998937E+01
2.000000 36.000000 4.377913E+01
2.000000 34.000000 3.111276E+01
2.000000 32.000000 8.124413E+00
2.000000 30.000000 -7.222534E+00
2.000000 28.000000 -1.025906E+01
2.000000 26.000000 -6.075230E+00
2.000000 24.000000 -9.477116E+00
2.000000 22.000000 -2.340989E+01
2.000000 20.000000 -3.944709E+01
2.000000 18.000000 -4.438782E+01
2.000000 16.000000 -2.802187E+01
2.000000 14.000000 6.489080E+00
2.000000 12.000000 4.532356E+01
2.000000 10.000000 7.536825E+01
2.000000 8.000000 7.851363E+01
2.000000 6.000000 4.991755E+01
2.000000 4.000000 8.153349E+00
2.000000 2.000000 -1.392136E+01
2.000000 0.000000 -1.007774E+01
2.000000 -2.000000 8.882852E+00
2.000000 -4.000000 2.026731E+01
2.000000 -6.000000 1.288533E+01
2.000000 -8.000000 2.437198E-02
2.000000 -10.000000 -7.859567E+00
2.000000 -12.000000 -3.758576E+00
2.000000 -14.000000 8.566785E+00
2.000000 -16.000000 2.012808E+01
2.000000 -18.000000 2.250661E+01
2.000000 -20.000000 1.377018E+01
2.000000 -22.000000 -3.101014E+00
2.000000 -24.000000 -1.658994E+01
2.000000 -26.000000 -1.762732E+01
2.000000 -28.000000 -6.655265E+00
2.000000 -30.000000 6.069379E+00
2.000000 -32.000000 1.989911E+01
2.000000 -34.000000 3.459288E+01
2.000000 -36.000000 5.012000E+01
2.000000 -38.000000 5.999921E+01
2.000000 -40.000000 6.640279E+01
4.000000 40.000000 2.707409E+01
4.000000 38.000000 3.548269E+01
4.000000 36.000000 3.728171E+01
4.000000 34.000000 2.640426E+01
4.000000 32.000000 6.722626E+00
4.000000 30.000000 -5.715963E+00
4.000000 28.000000 -8.505825E+00
4.000000 26.000000 -5.494711E+00
4.000000 24.000000 -9.328489E+00
4.000000 22.000000 -1.849695E+01
4.000000 20.000000 -2.767477E+01
4.000000 18.000000 -3.401702E+01
4.000000 16.000000 -2.902534E+01
4.000000 14.000000 -7.178437E+00
4.000000 12.000000 2.761175E+01
4.000000 10.000000 6.369137E+01
4.000000 8.000000 7.752687E+01
4.000000 6.000000 5.505519E+01
4.000000 4.000000 7.088609E+00
4.000000 2.000000 -2.906019E+01
4.000000 0.000000 -3.523767E+01
4.000000 -2.000000 -1.402999E+01
4.000000 -4.000000 8.283317E+00
4.000000 -6.000000 1.297191E+01
4.000000 -8.000000 5.352796E+00
4.000000 -10.000000 -2.670353E+00
4.000000 -12.000000 -2.213472E+00
4.000000 -14.000000 8.213337E+00
4.000000 -16.000000 2.043436E+01
4.000000 -18.000000 2.613690E+01
4.000000 -20.000000 2.134213E+01
4.000000 -22.000000 5.082696E+00
4.000000 -24.000000 -1.129404E+01
4.000000 -26.000000 -1.628357E+01
4.000000 -28.000000 -7.738679E+00
4.000000 -30.000000 1.169486E+00
4.000000 -32.000000 1.227006E+01
4.000000 -34.000000 2.738862E+01
4.000000 -36.000000 4.576843E+01
4.000000 -38.000000 5.875207E+01
4.000000 -40.000000 6.748294E+01
6.000000 40.000000 2.324334E+01
6.000000 38.000000 2.936730E+01
6.000000 36.000000 3.020779E+01
6.000000 34.000000 2.218833E+01
6.000000 32.000000 6.808627E+00
6.000000 30.000000 -2.153679E+00
6.000000 28.000000 -3.768955E+00
6.000000 26.000000 -4.669800E-01
6.000000 24.000000 -3.691139E+00
6.000000 22.000000 -7.876710E+00
6.000000 20.000000 -4.683114E+00
6.000000 18.000000 -1.010630E+01
6.000000 16.000000 -1.699121E+01
6.000000 14.000000 -7.194134E+00
6.000000 12.000000 2.405823E+01
6.000000 10.000000 6.732308E+01
6.000000 8.000000 9.185813E+01
6.000000 6.000000 7.352258E+01
6.000000 4.000000 1.505770E+01
6.000000 2.000000 -4.207432E+01
6.000000 0.000000 -6.678126E+01
6.000000 -2.000000 -5.119652E+01
6.000000 -4.000000 -2.151450E+01
6.000000 -6.000000 -2.203344E+00
6.000000 -8.000000 1.964638E-01
6.000000 -10.000000 -4.094260E+00
6.000000 -12.000000 -6.546713E+00
6.000000 -14.000000 8.308032E-01
6.000000 -16.000000 1.330146E+01
6.000000 -18.000000 2.308155E+01
6.000000 -20.000000 2.334300E+01
6.000000 -22.000000 1.162591E+01
6.000000 -24.000000 -2.998854E+00
6.000000 -26.000000 -9.729934E+00
6.000000 -28.000000 -6.948941E+00
6.000000 -30.000000 -4.806498E+00
6.000000 -32.000000 4.289540E-01
6.000000 -34.000000 1.350445E+01
6.000000 -36.000000 3.460065E+01
6.000000 -38.000000 5.306157E+01
6.000000 -40.000000 6.694892E+01
8.000000 40.000000 1.734936E+01
8.000000 38.000000 2.401642E+01
8.000000 36.000000 2.607314E+01
8.000000 34.000000 2.056469E+01
8.000000 32.000000 7.457351E+00
8.000000 30.000000 7.691269E-01
8.000000 28.000000 1.510635E+00
8.000000 26.000000 7.148443E+00
8.000000 24.000000 6.950325E+00
8.000000 22.000000 6.730870E+00
8.000000 20.000000 1.908214E+01
8.000000 18.000000 1.812468E+01
8.000000 16.000000 9.111534E+00
8.000000 14.000000 1.550000E+01
8.000000 12.000000 4.336725E+01
8.000000 10.000000 8.753935E+01
8.000000 8.000000 1.168753E+02
8.000000 6.000000 9.982303E+01
8.000000 4.000000 3.098484E+01
8.000000 2.000000 -4.465998E+01
8.000000 0.000000 -9.034448E+01
8.000000 -2.000000 -8.869707E+01
8.000000 -4.000000 -6.012639E+01
8.000000 -6.000000 -3.121202E+01
8.000000 -8.000000 -1.840163E+01
8.000000 -10.000000 -1.684136E+01
8.000000 -12.000000 -2.034529E+01
8.000000 -14.000000 -1.546347E+01
8.000000 -16.000000 -2.265007E+00
8.000000 -18.000000 1.073062E+01
8.000000 -20.000000 1.569171E+01
8.000000 -22.000000 9.965666E+00
8.000000 -24.000000 -6.254005E-02
8.000000 -26.000000 -4.695758E+00
8.000000 -28.000000 -5.902826E+00
8.000000 -30.000000 -1.110342E+01
8.000000 -32.000000 -1.278097E+01
8.000000 -34.000000 -2.818697E+00
8.000000 -36.000000 2.079896E+01
8.000000 -38.000000 4.566527E+01
8.000000 -40.000000 6.587043E+01
10.000000 40.000000 1.025465E+01
10.000000 38.000000 2.046561E+01
10.000000 36.000000 2.647452E+01
10.000000 34.000000 2.279273E+01
10.000000 32.000000 8.659317E+00
10.000000 30.000000 1.972993E+00
10.000000 28.000000 6.256845E+00
10.000000 26.000000 1.636385E+01
10.000000 24.000000 2.142360E+01
10.000000 22.000000 2.313543E+01
10.000000 20.000000 3.107332E+01
10.000000 18.000000 3.600934E+01
10.000000 16.000000 3.918262E+01
10.000000 14.000000 5.431259E+01
10.000000 12.000000 8.615522E+01
10.000000 10.000000 1.307801E+02
10.000000 8.000000 1.543420E+02
10.000000 6.000000 1.330271E+02
10.000000 4.000000 5.604303E+01
10.000000 2.000000 -3.687471E+01
10.000000 0.000000 -1.046256E+02
10.000000 -2.000000 -1.215310E+02
10.000000 -4.000000 -1.002130E+02
10.000000 -6.000000 -6.549971E+01
10.000000 -8.000000 -4.508554E+01
10.000000 -10.000000 -4.051404E+01
10.000000 -12.000000 -4.450772E+01
10.000000 -14.000000 -4.095307E+01
10.000000 -16.000000 -2.729175E+01
10.000000 -18.000000 -1.260606E+01
10.000000 -20.000000 -3.119860E+00
10.000000 -22.000000 -2.292792E+00
10.000000 -24.000000 -6.647869E+00
10.000000 -26.000000 -7.484729E+00
10.000000 -28.000000 -8.701550E+00
10.000000 -30.000000 -1.767398E+01
10.000000 -32.000000 -2.288066E+01
10.000000 -34.000000 -1.430700E+01
10.000000 -36.000000 1.128264E+01
10.000000 -38.000000 4.015801E+01
10.000000 -40.000000 6.448620E+01
12.000000 40.000000 3.700179E+00
12.000000 38.000000 1.856924E+01
12.000000 36.000000 3.005889E+01
12.000000 34.000000 2.788170E+01
12.000000 32.000000 1.140156E+01
12.000000 30.000000 3.169670E+00
12.000000 28.000000 1.064308E+01
12.000000 26.000000 2.638330E+01
12.000000 24.000000 3.534970E+01
12.000000 22.000000 3.345586E+01
12.000000 20.000000 3.216165E+01
12.000000 18.000000 4.032430E+01
12.000000 16.000000 5.811414E+01
12.000000 14.000000 8.715204E+01
12.000000 12.000000 1.281955E+02
12.000000 10.000000 1.788311E+02
12.000000 8.000000 1.972868E+02
12.000000 6.000000 1.720555E+02
12.000000 4.000000 8.806744E+01
12.000000 2.000000 -1.956352E+01
12.000000 0.000000 -1.060702E+02
12.000000 -2.000000 -1.412951E+02
12.000000 -4.000000 -1.319255E+02
12.000000 -6.000000 -9.808383E+01
12.000000 -8.000000 -7.507892E+01
12.000000 -10.000000 -6.981162E+01
12.000000 -12.000000 -7.257889E+01
12.000000 -14.000000 -6.838799E+01
12.000000 -16.000000 -5.504020E+01
12.000000 -18.000000 -4.026502E+01
12.000000 -20.000000 -2.799179E+01
12.000000 -22.000000 -2.144893E+01
12.000000 -24.000000 -2.026933E+01
12.000000 -26.000000 -1.937298E+01
12.000000 -28.000000 -1.945504E+01
12.000000 -30.000000 -2.536425E+01
12.000000 -32.000000 -2.732815E+01
12.000000 -34.000000 -1.675778E+01
12.000000 -36.000000 9.541912E+00
12.000000 -38.000000 3.817903E+01
12.000000 -40.000000 6.322851E+01
14.000000 40.000000 -1.626150E-01
14.000000 38.000000 1.770063E+01
14.000000 36.000000 3.247379E+01
14.000000 34.000000 3.299884E+01
14.000000 32.000000 1.700200E+01
14.000000 30.000000 8.285866E+00
14.000000 28.000000 1.621317E+01
14.000000 26.000000 3.311504E+01
14.000000 24.000000 4.307397E+01
14.000000 22.000000 3.513120E+01
14.000000 20.000000 2.484087E+01
14.000000 18.000000 2.971010E+01
14.000000 16.000000 5.442182E+01
14.000000 14.000000 9.376878E+01
14.000000 12.000000 1.448457E+02
14.000000 10.000000 2.051728E+02
14.000000 8.000000 2.283416E+02
14.000000 6.000000 2.071345E+02
14.000000 4.000000 1.211782E+02
14.000000 2.000000 7.187960E+00
14.000000 0.000000 -8.973355E+01
14.000000 -2.000000 -1.398691E+02
14.000000 -4.000000 -1.465978E+02
14.000000 -6.000000 -1.235765E+02
14.000000 -8.000000 -1.034583E+02
14.000000 -10.000000 -9.782256E+01
14.000000 -12.000000 -9.661350E+01
14.000000 -14.000000 -8.884251E+01
14.000000 -16.000000 -7.426950E+01
14.000000 -18.000000 -6.043452E+01
14.000000 -20.000000 -4.795569E+01
14.000000 -22.000000 -3.900673E+01
14.000000 -24.000000 -3.591359E+01
14.000000 -26.000000 -3.545323E+01
14.000000 -28.000000 -3.348057E+01
14.000000 -30.000000 -3.270919E+01
14.000000 -32.000000 -2.742415E+01
14.000000 -34.000000 -1.336793E+01
14.000000 -36.000000 1.235105E+01
14.000000 -38.000000 3.878175E+01
14.000000 -40.000000 6.309978E+01
16.000000 40.000000 -2.087752E+00
16.000000 38.000000 1.729092E+01
16.000000 36.000000 3.322995E+01
16.000000 34.000000 3.711641E+01
16.000000 32.000000 2.391307E+01
16.000000 30.000000 1.584834E+01
16.000000 28.000000 2.208444E+01
16.000000 26.000000 3.548914E+01
16.000000 24.000000 4.224404E+01
16.000000 22.000000 2.797609E+01
16.000000 20.000000 8.954972E+00
16.000000 18.000000 5.503565E+00
16.000000 16.000000 2.876815E+01
16.000000 14.000000 7.252292E+01
16.000000 12.000000 1.320844E+02
16.000000 10.000000 1.997440E+02
16.000000 8.000000 2.337366E+02
16.000000 6.000000 2.239669E+02
16.000000 4.000000 1.495489E+02
16.000000 2.000000 4.238344E+01
16.000000 0.000000 -5.575789E+01
16.000000 -2.000000 -1.178866E+02
16.000000 -4.000000 -1.427844E+02
16.000000 -6.000000 -1.377564E+02
16.000000 -8.000000 -1.258934E+02
16.000000 -10.000000 -1.197675E+02
16.000000 -12.000000 -1.113190E+02
16.000000 -14.000000 -9.669500E+01
16.000000 -16.000000 -7.866136E+01
16.000000 -18.000000 -6.520272E+01
16.000000 -20.000000 -5.489194E+01
16.000000 -22.000000 -4.847711E+01
16.000000 -24.000000 -4.788306E+01
16.000000 -26.000000 -4.801819E+01
16.000000 -28.000000 -4.291527E+01
16.000000 -30.000000 -3.642462E+01
16.000000 -32.000000 -2.522369E+01
16.000000 -34.000000 -8.670221E+00
16.000000 -36.000000 1.609871E+01
16.000000 -38.000000 4.032135E+01
16.000000 -40.000000 6.328152E+01
18.000000 40.000000 -4.279802E+00
18.000000 38.000000 1.630546E+01
18.000000 36.000000 3.383954E+01
18.000000 34.000000 4.007870E+01
18.000000 32.000000 2.826469E+01
18.000000 30.000000 1.959948E+01
18.000000 28.000000 2.347550E+01
18.000000 26.000000 3.322743E+01
18.000000 24.000000 3.501527E+01
18.000000 22.000000 1.530431E+01
18.000000 20.000000 -1.181554E+01
18.000000 18.000000 -2.289437E+01
18.000000 16.000000 -3.113382E+00
18.000000 14.000000 3.949535E+01
18.000000 12.000000 1.006866E+02
18.000000 10.000000 1.706191E+02
18.000000 8.000000 2.149792E+02
18.000000 6.000000 2.188891E+02
18.000000 4.000000 1.639173E+02
18.000000 2.000000 7.413598E+01
18.000000 0.000000 -1.600024E+01
18.000000 -2.000000 -8.505580E+01
18.000000 -4.000000 -1.270545E+02
18.000000 -6.000000 -1.429092E+02
18.000000 -8.000000 -1.413278E+02
18.000000 -10.000000 -1.339415E+02
18.000000 -12.000000 -1.162638E+02
18.000000 -14.000000 -9.277272E+01
18.000000 -16.000000 -6.880908E+01
18.000000 -18.000000 -5.238693E+01
18.000000 -20.000000 -4.530844E+01
18.000000 -22.000000 -4.654466E+01
18.000000 -24.000000 -5.145649E+01
18.000000 -26.000000 -5.130360E+01
18.000000 -28.000000 -4.317869E+01
18.000000 -30.000000 -3.411259E+01
18.000000 -32.000000 -2.164315E+01
18.000000 -34.000000 -5.137879E+00
18.000000 -36.000000 1.882660E+01
18.000000 -38.000000 4.119967E+01
18.000000 -40.000000 6.200287E+01
20.000000 40.000000 -6.979241E+00
20.000000 38.000000 1.365186E+01
20.000000 36.000000 3.216522E+01
20.000000 34.000000 3.958717E+01
20.000000 32.000000 2.789640E+01
20.000000 30.000000 1.757012E+01
20.000000 28.000000 1.825018E+01
20.000000 26.000000 2.439947E+01
20.000000 24.000000 2.200920E+01
20.000000 22.000000 8.212662E-01
20.000000 20.000000 -2.819802E+01
20.000000 18.000000 -4.143837E+01
20.000000 16.000000 -2.436500E+01
20.000000 14.000000 1.347286E+01
20.000000 12.000000 6.871182E+01
20.000000 10.000000 1.334057E+02
20.000000 8.000000 1.810380E+02
20.000000 6.000000 1.949930E+02
20.000000 4.000000 1.579095E+02
20.000000 2.000000 8.842498E+01
20.000000 0.000000 1.145535E+01
20.000000 -2.000000 -5.786864E+01
20.000000 -4.000000 -1.110412E+02
20.000000 -6.000000 -1.426905E+02
20.000000 -8.000000 -1.484313E+02
20.000000 -10.000000 -1.401390E+02
20.000000 -12.000000 -1.147636E+02
20.000000 -14.000000 -8.194314E+01
20.000000 -16.000000 -4.948393E+01
20.000000 -18.000000 -2.780695E+01
20.000000 -20.000000 -2.316718E+01
20.000000 -22.000000 -3.273011E+01
20.000000 -24.000000 -4.506689E+01
20.000000 -26.000000 -4.534287E+01
20.000000 -28.000000 -3.471209E+01
20.000000 -30.000000 -2.621775E+01
20.000000 -32.000000 -1.637669E+01
20.000000 -34.000000 -2.722984E+00
20.000000 -36.000000 1.932747E+01
20.000000 -38.000000 4.029747E+01
20.000000 -40.000000 5.895517E+01
22.000000 40.000000 -1.103247E+01
22.000000 38.000000 8.873755E+00
22.000000 36.000000 2.788364E+01
22.000000 34.000000 3.527895E+01
22.000000 32.000000 2.257196E+01
22.000000 30.000000 1.017418E+01
22.000000 28.000000 8.211615E+00
22.000000 26.000000 1.214554E+01
22.000000 24.000000 8.111790E+00
22.000000 22.000000 -1.070792E+01
22.000000 20.000000 -3.442699E+01
22.000000 18.000000 -4.366904E+01
22.000000 16.000000 -2.925904E+01
22.000000 14.000000 1.474066E+00
22.000000 12.000000 4.589146E+01
22.000000 10.000000 9.857302E+01
22.000000 8.000000 1.411221E+02
22.000000 6.000000 1.581581E+02
22.000000 4.000000 1.339395E+02
22.000000 2.000000 7.794328E+01
22.000000 0.000000 1.130573E+01
22.000000 -2.000000 -5.198257E+01
22.000000 -4.000000 -1.033468E+02
22.000000 -6.000000 -1.366451E+02
22.000000 -8.000000 -1.461471E+02
22.000000 -10.000000 -1.392945E+02
22.000000 -12.000000 -1.094195E+02
22.000000 -14.000000 -6.816111E+01
22.000000 -16.000000 -2.710806E+01
22.000000 -18.000000 -6.397133E-01
22.000000 -20.000000 2.678663E+00
22.000000 -22.000000 -1.176702E+01
22.000000 -24.000000 -2.954240E+01
22.000000 -26.000000 -3.248849E+01
22.000000 -28.000000 -2.252583E+01
22.000000 -30.000000 -1.634285E+01
22.000000 -32.000000 -9.975280E+00
22.000000 -34.000000 -1.013279E-01
22.000000 -36.000000 1.853939E+01
22.000000 -38.000000 3.753589E+01
22.000000 -40.000000 5.403671E+01
24.000000 40.000000 -1.743535E+01
24.000000 38.000000 1.722768E+00
24.000000 36.000000 2.168902E+01
24.000000 34.000000 2.854949E+01
24.000000 32.000000 1.405294E+01
24.000000 30.000000 -5.825615E-02
24.000000 28.000000 -2.228065E+00
24.000000 26.000000 3.334213E+00
24.000000 24.000000 2.051630E+00
24.000000 22.000000 -1.244068E+01
24.000000 20.000000 -2.984099E+01
24.000000 18.000000 -3.379657E+01
24.000000 16.000000 -2.257939E+01
24.000000 14.000000 -1.528645E+00
24.000000 12.000000 2.712727E+01
24.000000 10.000000 6.344514E+01
24.000000 8.000000 9.768439E+01
24.000000 6.000000 1.124847E+02
24.000000 4.000000 9.513071E+01
24.000000 2.000000 4.822963E+01
24.000000 0.000000 -9.527245E+00
24.000000 -2.000000 -6.334644E+01
24.000000 -4.000000 -1.049826E+02
24.000000 -6.000000 -1.305544E+02
24.000000 -8.000000 -1.392440E+02
24.000000 -10.000000 -1.331252E+02
24.000000 -12.000000 -1.019638E+02
24.000000 -14.000000 -5.542333E+01
24.000000 -16.000000 -8.304482E+00
24.000000 -18.000000 2.093244E+01
24.000000 -20.000000 2.386298E+01
24.000000 -22.000000 8.734695E+00
24.000000 -24.000000 -9.599798E+00
24.000000 -26.000000 -1.674461E+01
24.000000 -28.000000 -1.216633E+01
24.000000 -30.000000 -8.497786E+00
24.000000 -32.000000 -4.147156E+00
24.000000 -34.000000 3.208498E+00
24.000000 -36.000000 1.773287E+01
24.000000 -38.000000 3.332057E+01
24.000000 -40.000000 4.744860E+01
26.000000 40.000000 -2.539553E+01
26.000000 38.000000 -7.274405E+00
26.000000 36.000000 1.212911E+01
26.000000 34.000000 1.897290E+01
26.000000 32.000000 5.208721E+00
26.000000 30.000000 -7.957790E+00
26.000000 28.000000 -8.438442E+00
26.000000 26.000000 7.096920E-01
26.000000 24.000000 5.837009E+00
26.000000 22.000000 -3.339954E+00
26.000000 20.000000 -1.660105E+01
26.000000 18.000000 -1.974751E+01
26.000000 16.000000 -1.389327E+01
26.000000 14.000000 -3.824608E+00
26.000000 12.000000 9.551893E+00
26.000000 10.000000 3.060232E+01
26.000000 8.000000 5.593518E+01
26.000000 6.000000 6.382656E+01
26.000000 4.000000 4.801760E+01
26.000000 2.000000 1.070532E+01
26.000000 0.000000 -3.635621E+01
26.000000 -2.000000 -7.933279E+01
26.000000 -4.000000 -1.107473E+02
26.000000 -6.000000 -1.278894E+02
26.000000 -8.000000 -1.329306E+02
26.000000 -10.000000 -1.262659E+02
26.000000 -12.000000 -9.695924E+01
26.000000 -14.000000 -4.947446E+01
26.000000 -16.000000 5.444622E-01
26.000000 -18.000000 3.172546E+01
26.000000 -20.000000 3.558391E+01
26.000000 -22.000000 2.167891E+01
26.000000 -24.000000 4.755863E+00
26.000000 -26.000000 -5.875887E+00
26.000000 -28.000000 -6.680367E+00
26.000000 -30.000000 -5.229450E+00
26.000000 -32.000000 -1.231909E+00
26.000000 -34.000000 5.285994E+00
26.000000 -36.000000 1.646930E+01
26.000000 -38.000000 2.871879E+01
26.000000 -40.000000 4.098885E+01
28.000000 40.000000 -3.477754E+01
28.000000 38.000000 -1.719490E+01
28.000000 36.000000 1.037281E+00
28.000000 34.000000 7.997709E+00
28.000000 32.000000 -2.868006E+00
28.000000 30.000000 -1.327185E+01
28.000000 28.000000 -1.186652E+01
28.000000 26.000000 9.973640E-01
28.000000 24.000000 1.325285E+01
28.000000 22.000000 7.969534E+00
28.000000 20.000000 -3.042332E+00
28.000000 18.000000 -8.630777E+00
28.000000 16.000000 -8.459803E+00
28.000000 14.000000 -5.677500E+00
28.000000 12.000000 3.189983E+00
28.000000 10.000000 1.899286E+01
28.000000 8.000000 3.355509E+01
28.000000 6.000000 2.652218E+01
28.000000 4.000000 5.569548E+00
28.000000 2.000000 -2.392535E+01
28.000000 0.000000 -6.071086E+01
28.000000 -2.000000 -9.258920E+01
28.000000 -4.000000 -1.150108E+02
28.000000 -6.000000 -1.257998E+02
28.000000 -8.000000 -1.290457E+02
28.000000 -10.000000 -1.240264E+02
28.000000 -12.000000 -1.001447E+02
28.000000 -14.000000 -5.656443E+01
28.000000 -16.000000 -7.351105E+00
28.000000 -18.000000 2.617568E+01
28.000000 -20.000000 3.418236E+01
28.000000 -22.000000 2.381663E+01
28.000000 -24.000000 7.544359E+00
28.000000 -26.000000 -6.110981E+00
28.000000 -28.000000 -9.845530E+00
28.000000 -30.000000 -9.033703E+00
28.000000 -32.000000 -3.425062E+00
28.000000 -34.000000 4.499519E+00
28.000000 -36.000000 1.481905E+01
28.000000 -38.000000 2.530424E+01
28.000000 -40.000000 3.637982E+01
30.000000 40.000000 -4.477826E+01
30.000000 38.000000 -2.763477E+01
30.000000 36.000000 -9.465739E+00
30.000000 34.000000 -2.499830E+00
30.000000 32.000000 -1.080411E+01
30.000000 30.000000 -1.919906E+01
30.000000 28.000000 -1.749316E+01
30.000000 26.000000 -2.086821E+00
30.000000 24.000000 1.448164E+01
30.000000 22.000000 9.480869E+00
30.000000 20.000000 -5.052223E-01
30.000000 18.000000 -3.598434E+00
30.000000 16.000000 -1.178780E+00
30.000000 14.000000 3.025465E+00
30.000000 12.000000 1.653656E+01
30.000000 10.000000 3.811848E+01
30.000000 8.000000 4.520135E+01
30.000000 6.000000 2.288557E+01
30.000000 4.000000 -1.244669E+01
30.000000 2.000000 -4.276946E+01
30.000000 0.000000 -7.326063E+01
30.000000 -2.000000 -9.785625E+01
30.000000 -4.000000 -1.166038E+02
30.000000 -6.000000 -1.272683E+02
30.000000 -8.000000 -1.320548E+02
30.000000 -10.000000 -1.313105E+02
30.000000 -12.000000 -1.145112E+02
30.000000 -14.000000 -7.939822E+01
30.000000 -16.000000 -3.380199E+01
30.000000 -18.000000 2.888943E+00
30.000000 -20.000000 1.882752E+01
30.000000 -22.000000 1.458505E+01
30.000000 -24.000000 -1.941883E+00
30.000000 -26.000000 -1.745026E+01
30.000000 -28.000000 -2.221874E+01
30.000000 -30.000000 -2.004935E+01
30.000000 -32.000000 -1.055267E+01
30.000000 -34.000000 1.268141E+00
30.000000 -36.000000 1.302394E+01
30.000000 -38.000000 2.306157E+01
30.000000 -40.000000 3.360038E+01
32.000000 40.000000 -5.283319E+01
32.000000 38.000000 -3.760043E+01
32.000000 36.000000 -2.052664E+01
32.000000 34.000000 -1.269136E+01
32.000000 32.000000 -1.841522E+01
32.000000 30.000000 -2.527615E+01
32.000000 28.000000 -2.484542E+01
32.000000 26.000000 -1.287682E+01
32.000000 24.000000 -7.975597E-01
32.000000 22.000000 -5.949251E+00
32.000000 20.000000 -1.236406E+01
32.000000 18.000000 -5.662600E+00
32.000000 16.000000 1.000129E+01
32.000000 14.000000 2.740047E+01
32.000000 12.000000 5.138429E+01
32.000000 10.000000 8.050933E+01
32.000000 8.000000 8.117105E+01
32.000000 6.000000 4.927685E+01
32.000000 4.000000 -3.934786E+00
32.000000 2.000000 -4.325228E+01
32.000000 0.000000 -7.071976E+01
32.000000 -2.000000 -9.063866E+01
32.000000 -4.000000 -1.093168E+02
32.000000 -6.000000 -1.252138E+02
32.000000 -8.000000 -1.355693E+02
32.000000 -10.000000 -1.431083E+02
32.000000 -12.000000 -1.351658E+02
32.000000 -14.000000 -1.105094E+02
32.000000 -16.000000 -6.852716E+01
32.000000 -18.000000 -2.935953E+01
32.000000 -20.000000 -5.753454E+00
32.000000 -22.000000 -3.775419E+00
32.000000 -24.000000 -1.953202E+01
32.000000 -26.000000 -3.466467E+01
32.000000 -28.000000 -3.917859E+01
32.000000 -30.000000 -3.506751E+01
32.000000 -32.000000 -2.080700E+01
32.000000 -34.000000 -3.949533E+00
32.000000 -36.000000 9.600599E+00
32.000000 -38.000000 1.986551E+01
32.000000 -40.000000 3.093731E+01
34.000000 40.000000 -5.865285E+01
34.000000 38.000000 -4.596929E+01
34.000000 36.000000 -3.007156E+01
34.000000 34.000000 -2.068617E+01
34.000000 32.000000 -2.371164E+01
34.000000 30.000000 -2.904292E+01
34.000000 28.000000 -3.084940E+01
34.000000 26.000000 -2.774262E+01
34.000000 24.000000 -2.754689E+01
34.000000 22.000000 -3.356379E+01
34.000000 20.000000 -3.484506E+01
34.000000 18.000000 -1.502199E+01
34.000000 16.000000 1.925441E+01
34.000000 14.000000 5.701148E+01
34.000000 12.000000 9.239632E+01
34.000000 10.000000 1.207112E+02
34.000000 8.000000 1.089631E+02
34.000000 6.000000 6.959477E+01
34.000000 4.000000 1.059875E+01
34.000000 2.000000 -3.359022E+01
34.000000 0.000000 -5.779247E+01
34.000000 -2.000000 -6.827765E+01
34.000000 -4.000000 -8.034198E+01
34.000000 -6.000000 -1.005033E+02
34.000000 -8.000000 -1.228138E+02
34.000000 -10.000000 -1.448104E+02
34.000000 -12.000000 -1.479369E+02
34.000000 -14.000000 -1.318314E+02
34.000000 -16.000000 -9.483420E+01
34.000000 -18.000000 -5.676329E+01
34.000000 -20.000000 -3.048185E+01
34.000000 -22.000000 -2.485045E+01
34.000000 -24.000000 -3.778114E+01
34.000000 -26.000000 -5.072362E+01
34.000000 -28.000000 -5.430688E+01
34.000000 -30.000000 -4.945604E+01
34.000000 -32.000000 -3.297935E+01
34.000000 -34.000000 -1.282637E+01
34.000000 -36.000000 2.838461E+00
34.000000 -38.000000 1.420647E+01
34.000000 -40.000000 2.639593E+01
36.000000 40.000000 -6.350226E+01
36.000000 38.000000 -5.203492E+01
36.000000 36.000000 -3.506460E+01
36.000000 34.000000 -2.332742E+01
36.000000 32.000000 -2.350727E+01
36.000000 30.000000 -2.768307E+01
36.000000 28.000000 -3.259792E+01
36.000000 26.000000 -3.820192E+01
36.000000 24.000000 -4.886209E+01
36.000000 22.000000 -5.935864E+01
36.000000 20.000000 -6.012024E+01
36.000000 18.000000 -3.077158E+01
36.000000 16.000000 1.823059E+01
36.000000 14.000000 6.999391E+01
36.000000 12.000000 1.093770E+02
36.000000 10.000000 1.323887E+02
36.000000 8.000000 1.110482E+02
36.000000 6.000000 6.842038E+01
36.000000 4.000000 1.363368E+01
36.000000 2.000000 -2.439849E+01
36.000000 0.000000 -3.827739E+01
36.000000 -2.000000 -3.489481E+01
36.000000 -4.000000 -3.626606E+01
36.000000 -6.000000 -5.741695E+01
36.000000 -8.000000 -9.087835E+01
36.000000 -10.000000 -1.265851E+02
36.000000 -12.000000 -1.407996E+02
36.000000 -14.000000 -1.310180E+02
36.000000 -16.000000 -1.001984E+02
36.000000 -18.000000 -6.736032E+01
36.000000 -20.000000 -4.546116E+01
36.000000 -22.000000 -4.064114E+01
36.000000 -24.000000 -5.005408E+01
36.000000 -26.000000 -5.983735E+01
36.000000 -28.000000 -6.282876E+01
36.000000 -30.000000 -5.946980E+01
36.000000 -32.000000 -4.536954E+01
36.000000 -34.000000 -2.585946E+01
36.000000 -36.000000 -7.741732E+00
36.000000 -38.000000 5.988361E+00
36.000000 -40.000000 1.966654E+01
38.000000 40.000000 -6.716950E+01
38.000000 38.000000 -5.533286E+01
38.000000 36.000000 -3.656668E+01
38.000000 34.000000 -2.034886E+01
38.000000 32.000000 -1.628591E+01
38.000000 30.000000 -1.901999E+01
38.000000 28.000000 -2.615741E+01
38.000000 26.000000 -3.608060E+01
38.000000 24.000000 -5.334060E+01
38.000000 22.000000 -6.971633E+01
38.000000 20.000000 -7.487702E+01
38.000000 18.000000 -4.784875E+01
38.000000 16.000000 1.573353E+00
38.000000 14.000000 5.250488E+01
38.000000 12.000000 8.717457E+01
38.000000 10.000000 1.042542E+02
38.000000 8.000000 8.447429E+01
38.000000 6.000000 4.765901E+01
38.000000 4.000000 3.480389E+00
38.000000 2.000000 -2.096738E+01
38.000000 0.000000 -1.991324E+01
38.000000 -2.000000 -2.500124E+00
38.000000 -4.000000 6.762514E+00
38.000000 -6.000000 -1.085678E+01
38.000000 -8.000000 -4.769977E+01
38.000000 -10.000000 -8.962080E+01
38.000000 -12.000000 -1.127750E+02
38.000000 -14.000000 -1.091377E+02
38.000000 -16.000000 -8.476090E+01
38.000000 -18.000000 -6.081340E+01
38.000000 -20.000000 -4.761936E+01
38.000000 -22.000000 -4.710396E+01
38.000000 -24.000000 -5.578019E+01
38.000000 -26.000000 -6.215928E+01
38.000000 -28.000000 -6.510512E+01
38.000000 -30.000000 -6.444292E+01
38.000000 -32.000000 -5.469669E+01
38.000000 -34.000000 -3.808181E+01
38.000000 -36.000000 -1.956145E+01
38.000000 -38.000000 -3.437115E+00
38.000000 -40.000000 1.221418E+01
40.000000 40.000000 -6.894417E+01
40.000000 38.000000 -5.635936E+01
40.000000 36.000000 -3.594614E+01
40.000000 34.000000 -1.414090E+01
40.000000 32.000000 -5.171888E+00
40.000000 30.000000 -5.557393E+00
40.000000 28.000000 -1.176827E+01
40.000000 26.000000 -2.016606E+01
40.000000 24.000000 -3.857846E+01
40.000000 22.000000 -6.014196E+01
40.000000 20.000000 -7.227305E+01
40.000000 18.000000 -5.770216E+01
40.000000 16.000000 -2.351285E+01
40.000000 14.000000 1.141515E+01
40.000000 12.000000 3.638850E+01
40.000000 10.000000 4.957658E+01
40.000000 8.000000 4.121129E+01
40.000000 6.000000 1.744555E+01
40.000000 4.000000 -1.250133E+01
40.000000 2.000000 -2.553264E+01
40.000000 0.000000 -1.412661E+01
40.000000 -2.000000 1.324510E+01
40.000000 -4.000000 3.344445E+01
40.000000 -6.000000 2.597882E+01
40.000000 -8.000000 -5.837633E+00
40.000000 -10.000000 -4.423340E+01
40.000000 -12.000000 -7.141928E+01
