-18.000000 14.000000 -4.110549E+01
-18.000000 12.000000 -4.172148E+01
-18.000000 10.000000 -3.692077E+01
-18.000000 8.000000 -2.386838E+01
-18.000000 6.000000 -6.668255E+00
-18.000000 4.000000 6.167805E+00
-18.000000 2.000000 1.145794E+01
-18.000000 0.000000 1.710047E+01
-18.000000 -2.000000 2.401056E+01
-18.000000 -4.000000 2.866294E+01
-18.000000 -6.000000 2.745184E+01
-18.000000 -8.000000 1.826378E+01
-18.000000 -10.000000 1.149224E+01
-18.000000 -12.000000 1.120687E+01
-18.000000 -14.000000 1.186583E+01
-18.000000 -16.000000 9.943952E+00
-18.000000 -18.000000 6.466202E+00
-18.000000 -20.000000 2.256259E+00
-18.000000 -22.000000 -2.495323E+00
-18.000000 -24.000000 -6.407077E+00
-18.000000 -26.000000 -7.370323E+00
-18.000000 -28.000000 -2.916208E+00
-18.000000 -30.000000 8.618308E+00
-18.000000 -32.000000 1.757376E+01
-18.000000 -34.000000 1.752569E+01
-18.000000 -36.000000 4.916895E+00
-18.000000 -38.000000 -9.680962E+00
-18.000000 -40.000000 -2.777329E+01
-16.000000 40.000000 -3.580197E+01
-16.000000 38.000000 -5.492194E+01
-16.000000 36.000000 -6.954572E+01
-16.000000 34.000000 -8.022074E+01
-16.000000 32.000000 -7.664571E+01
-16.000000 30.000000 -5.972169E+01
-16.000000 28.000000 -4.302665E+01
-16.000000 26.000000 -3.682106E+01
-16.000000 24.000000 -4.266251E+01
-16.000000 22.000000 -4.505218E+01
-16.000000 20.000000 -4.273479E+01
-16.000000 18.000000 -4.143717E+01
-16.000000 16.000000 -4.822999E+01
-16.000000 14.000000 -6.710542E+01
-16.000000 12.000000 -8.567738E+01
-16.000000 10.000000 -8.985606E+01
-16.000000 8.000000 -6.853878E+01
-16.000000 6.000000 -3.914256E+01
-16.000000 4.000000 -1.666489E+01
-16.000000 2.000000 -8.554803E+00
-16.000000 0.000000 -3.259026E+00
-16.000000 -2.000000 4.674621E+00
-16.000000 -4.000000 1.460468E+01
-16.000000 -6.000000 2.056981E+01
-16.000000 -8.000000 1.687329E+01
-16.000000 -10.000000 1.404246E+01
-16.000000 -12.000000 1.625798E+01
-16.000000 -14.000000 1.979495E+01
-16.000000 -16.000000 2.166890E+01
-16.000000 -18.000000 2.182961E+01
-16.000000 -20.000000 2.110343E+01
-16.000000 -22.000000 2.065212E+01
-16.000000 -24.000000 2.017871E+01
-16.000000 -26.000000 1.878746E+01
-16.000000 -28.000000 1.802730E+01
-16.000000 -30.000000 2.005197E+01
-16.000000 -32.000000 1.928319E+01
-16.000000 -34.000000 1.332481E+01
-16.000000 -36.000000 -1.218237E+00
-16.000000 -38.000000 -1.487471E+01
-16.000000 -40.000000 -3.232816E+01
-14.000000 40.000000 -3.783910E+01
-14.000000 38.000000 -5.049864E+01
-14.000000 36.000000 -5.644557E+01
-14.000000 34.000000 -5.918187E+01
-14.000000 32.000000 -5.283729E+01
-14.000000 30.000000 -3.781085E+01
-14.000000 28.000000 -2.384740E+01
-14.000000 26.000000 -1.852696E+01
-14.000000 24.000000 -2.398491E+01
-14.000000 22.000000 -2.945804E+01
-14.000000 20.000000 -2.651195E+01
-14.000000 18.000000 -2.767303E+01
-14.000000 16.000000 -4.504973E+01
-14.000000 14.000000 -8.021351E+01
-14.000000 12.000000 -1.164938E+02
-14.000000 10.000000 -1.317165E+02
-14.000000 8.000000 -1.053587E+02
-14.000000 6.000000 -6.618150E+01
-14.000000 4.000000 -3.415224E+01
-14.000000 2.000000 -2.218238E+01
-14.000000 0.000000 -1.712649E+01
-14.000000 -2.000000 -1.048455E+01
-14.000000 -4.000000 -1.719856E-01
-14.000000 -6.000000 1.007940E+01
-14.000000 -8.000000 1.397209E+01
-14.000000 -10.000000 1.630073E+01
-14.000000 -12.000000 1.915506E+01
-14.000000 -14.000000 2.295106E+01
-14.000000 -16.000000 2.749745E+01
-14.000000 -18.000000 3.072110E+01
-14.000000 -20.000000 3.321555E+01
-14.000000 -22.000000 3.578161E+01
-14.000000 -24.000000 3.716076E+01
-14.000000 -26.000000 3.538296E+01
-14.000000 -28.000000 3.196204E+01
-14.000000 -30.000000 2.807119E+01
-14.000000 -32.000000 2.008121E+01
-14.000000 -34.000000 9.436406E+00
-14.000000 -36.000000 -5.711509E+00
-14.000000 -38.000000 -1.867487E+01
-14.000000 -40.000000 -3.634578E+01
-12.000000 40.000000 -3.546871E+01
-12.000000 38.000000 -4.210603E+01
-12.000000 36.000000 -3.936979E+01
-12.000000 34.000000 -3.485683E+01
-12.000000 32.000000 -2.849630E+01
-12.000000 30.000000 -1.924926E+01
-12.000000 28.000000 -1.218812E+01
-12.000000 26.000000 -1.069460E+01
-12.000000 24.000000 -1.775875E+01
-12.000000 22.000000 -2.232746E+01
-12.000000 20.000000 -1.330095E+01
-12.000000 18.000000 -9.954153E+00
-12.000000 16.000000 -3.099647E+01
-12.000000 14.000000 -7.439910E+01
-12.000000 12.000000 -1.228139E+02
-12.000000 10.000000 -1.486583E+02
-12.000000 8.000000 -1.250699E+02
-12.000000 6.000000 -8.440396E+01
-12.000000 4.000000 -4.865728E+01
-12.000000 2.000000 -3.340871E+01
-12.000000 0.000000 -2.687601E+01
-12.000000 -2.000000 -2.041254E+01
-12.000000 -4.000000 -1.107849E+01
-12.000000 -6.000000 1.537786E+00
-12.000000 -8.000000 1.329449E+01
-12.000000 -10.000000 2.014907E+01
-12.000000 -12.000000 2.089923E+01
-12.000000 -14.000000 2.266870E+01
-12.000000 -16.000000 2.803732E+01
-12.000000 -18.000000 3.277063E+01
-12.000000 -20.000000 3.667938E+01
-12.000000 -22.000000 4.097761E+01
-12.000000 -24.000000 4.310660E+01
-12.000000 -26.000000 4.051648E+01
-12.000000 -28.000000 3.761962E+01
-12.000000 -30.000000 3.279898E+01
-12.000000 -32.000000 2.222223E+01
-12.000000 -34.000000 8.420775E+00
-12.000000 -36.000000 -8.659064E+00
-12.000000 -38.000000 -2.258143E+01
-12.000000 -40.000000 -4.006795E+01
-10.000000 40.000000 -3.008709E+01
-10.000000 38.000000 -3.175162E+01
-10.000000 36.000000 -2.199117E+01
-10.000000 34.000000 -1.195119E+01
-10.000000 32.000000 -7.212994E+00
-10.000000 30.000000 -5.158543E+00
-10.000000 28.000000 -7.035244E+00
-10.000000 26.000000 -1.226250E+01
-10.000000 24.000000 -2.196616E+01
-10.000000 22.000000 -2.237808E+01
-10.000000 20.000000 -6.251945E+00
-10.000000 18.000000 3.976738E+00
-10.000000 16.000000 -1.556892E+01
-10.000000 14.000000 -5.931423E+01
-10.000000 12.000000 -1.123269E+02
-10.000000 10.000000 -1.451197E+02
-10.000000 8.000000 -1.286050E+02
-10.000000 6.000000 -9.322776E+01
-10.000000 4.000000 -6.118725E+01
-10.000000 2.000000 -4.543336E+01
-10.000000 0.000000 -3.565420E+01
-10.000000 -2.000000 -2.491865E+01
-10.000000 -4.000000 -1.250936E+01
-10.000000 -6.000000 2.868690E-01
-10.000000 -8.000000 1.161369E+01
-10.000000 -10.000000 1.891589E+01
-10.000000 -12.000000 2.044438E+01
-10.000000 -14.000000 2.293217E+01
-10.000000 -16.000000 2.825192E+01
-10.000000 -18.000000 3.240398E+01
-10.000000 -20.000000 3.537110E+01
-10.000000 -22.000000 3.920642E+01
-10.000000 -24.000000 4.107602E+01
-10.000000 -26.000000 3.858065E+01
-10.000000 -28.000000 3.710121E+01
-10.000000 -30.000000 3.358194E+01
-10.000000 -32.000000 2.417113E+01
-10.000000 -34.000000 9.432018E+00
-10.000000 -36.000000 -1.017754E+01
-10.000000 -38.000000 -2.655926E+01
-10.000000 -40.000000 -4.416261E+01
-8.000000 40.000000 -2.600504E+01
-8.000000 38.000000 -2.369439E+01
-8.000000 36.000000 -8.637432E+00
-8.000000 34.000000 5.761177E+00
-8.000000 32.000000 1.006583E+01
-8.000000 30.000000 6.887486E+00
-8.000000 28.000000 -2.305965E+00
-8.000000 26.000000 -1.352637E+01
-8.000000 24.000000 -2.590707E+01
-8.000000 22.000000 -2.542825E+01
-8.000000 20.000000 -8.002102E+00
-8.000000 18.000000 4.783344E+00
-8.000000 16.000000 -1.132293E+01
-8.000000 14.000000 -5.004689E+01
-8.000000 12.000000 -9.794192E+01
-8.000000 10.000000 -1.283957E+02
-8.000000 8.000000 -1.152354E+02
-8.000000 6.000000 -8.689516E+01
-8.000000 4.000000 -6.381655E+01
-8.000000 2.000000 -5.280066E+01
-8.000000 0.000000 -4.241491E+01
-8.000000 -2.000000 -2.783907E+01
-8.000000 -4.000000 -1.236247E+01
-8.000000 -6.000000 -1.320787E+00
-8.000000 -8.000000 5.133269E+00
-8.000000 -10.000000 1.184911E+01
-8.000000 -12.000000 1.818807E+01
-8.000000 -14.000000 2.360472E+01
-8.000000 -16.000000 2.770856E+01
-8.000000 -18.000000 2.985088E+01
-8.000000 -20.000000 3.107734E+01
-8.000000 -22.000000 3.381145E+01
-8.000000 -24.000000 3.486080E+01
-8.000000 -26.000000 3.297702E+01
-8.000000 -28.000000 3.177878E+01
-8.000000 -30.000000 2.944011E+01
-8.000000 -32.000000 2.360382E+01
-8.000000 -34.000000 1.087383E+01
-8.000000 -36.000000 -9.826296E+00
-8.000000 -38.000000 -2.889020E+01
-8.000000 -40.000000 -4.825578E+01
-6.000000 40.000000 -2.438402E+01
-6.000000 38.000000 -2.082187E+01
-6.000000 36.000000 -2.227005E+00
-6.000000 34.000000 1.643075E+01
-6.000000 32.000000 2.193114E+01
-6.000000 30.000000 1.672315E+01
-6.000000 28.000000 3.203815E+00
-6.000000 26.000000 -1.207681E+01
-6.000000 24.000000 -2.832892E+01
-6.000000 22.000000 -3.187337E+01
-6.000000 20.000000 -1.988414E+01
-6.000000 18.000000 -1.073492E+01
-6.000000 16.000000 -2.244637E+01
-6.000000 14.000000 -5.193034E+01
-6.000000 12.000000 -8.505814E+01
-6.000000 10.000000 -1.007406E+02
-6.000000 8.000000 -8.168156E+01
-6.000000 6.000000 -5.752035E+01
-6.000000 4.000000 -4.595390E+01
-6.000000 2.000000 -4.644996E+01
-6.000000 0.000000 -4.315101E+01
-6.000000 -2.000000 -3.254647E+01
-6.000000 -4.000000 -1.947787E+01
-6.000000 -6.000000 -1.025416E+01
-6.000000 -8.000000 -5.553677E+00
-6.000000 -10.000000 2.723657E+00
-6.000000 -12.000000 1.368534E+01
-6.000000 -14.000000 1.978421E+01
-6.000000 -16.000000 2.168373E+01
-6.000000 -18.000000 2.191746E+01
-6.000000 -20.000000 2.217369E+01
-6.000000 -22.000000 2.460578E+01
-6.000000 -24.000000 2.542055E+01
-6.000000 -26.000000 2.292192E+01
-6.000000 -28.000000 2.207441E+01
-6.000000 -30.000000 2.279298E+01
-6.000000 -32.000000 2.181558E+01
-6.000000 -34.000000 1.186640E+01
-6.000000 -36.000000 -8.968803E+00
-6.000000 -38.000000 -2.949976E+01
-6.000000 -40.000000 -5.045061E+01
-4.000000 40.000000 -2.358566E+01
-4.000000 38.000000 -2.231642E+01
-4.000000 36.000000 -3.312111E+00
-4.000000 34.000000 1.768775E+01
-4.000000 32.000000 2.448443E+01
-4.000000 30.000000 1.945475E+01
-4.000000 28.000000 4.136604E+00
-4.000000 26.000000 -1.408969E+01
-4.000000 24.000000 -3.523515E+01
-4.000000 22.000000 -4.370344E+01
-4.000000 20.000000 -3.901112E+01
-4.000000 18.000000 -3.467194E+01
-4.000000 16.000000 -4.011496E+01
-4.000000 14.000000 -5.391473E+01
-4.000000 12.000000 -6.628297E+01
-4.000000 10.000000 -6.122297E+01
-4.000000 8.000000 -3.345464E+01
-4.000000 6.000000 -1.212220E+01
-4.000000 4.000000 -1.378026E+01
-4.000000 2.000000 -2.880659E+01
-4.000000 0.000000 -3.692288E+01
-4.000000 -2.000000 -3.465224E+01
-4.000000 -4.000000 -2.836321E+01
-4.000000 -6.000000 -2.167855E+01
-4.000000 -8.000000 -1.577235E+01
-4.000000 -10.000000 -7.020388E+00
-4.000000 -12.000000 4.613239E+00
-4.000000 -14.000000 9.711080E+00
-4.000000 -16.000000 1.016582E+01
-4.000000 -18.000000 1.001759E+01
-4.000000 -20.000000 1.008202E+01
-4.000000 -22.000000 1.224457E+01
-4.000000 -24.000000 1.239041E+01
-4.000000 -26.000000 8.698500E+00
-4.000000 -28.000000 9.068217E+00
-4.000000 -30.000000 1.545635E+01
-4.000000 -32.000000 1.992516E+01
-4.000000 -34.000000 1.244321E+01
-4.000000 -36.000000 -8.359203E+00
-4.000000 -38.000000 -2.931913E+01
-4.000000 -40.000000 -5.072616E+01
-2.000000 40.000000 -2.180908E+01
-2.000000 38.000000 -2.470879E+01
-2.000000 36.000000 -1.056460E+01
-2.000000 34.000000 6.001945E+00
-2.000000 32.000000 1.186877E+01
-2.000000 30.000000 8.254829E+00
-2.000000 28.000000 -6.247589E+00
-2.000000 26.000000 -2.477361E+01
-2.000000 24.000000 -4.682406E+01
-2.000000 22.000000 -5.600989E+01
-2.000000 20.000000 -5.463269E+01
-2.000000 18.000000 -5.225612E+01
-2.000000 16.000000 -5.156772E+01
-2.000000 14.000000 -5.064350E+01
-2.000000 12.000000 -4.415053E+01
-2.000000 10.000000 -1.979110E+01
-2.000000 8.000000 1.488132E+01
-2.000000 6.000000 3.488791E+01
-2.000000 4.000000 2.321239E+01
-2.000000 2.000000 -2.103478E+00
-2.000000 0.000000 -1.930508E+01
-2.000000 -2.000000 -2.555624E+01
-2.000000 -4.000000 -2.885056E+01
-2.000000 -6.000000 -2.770013E+01
-2.000000 -8.000000 -2.129855E+01
-2.000000 -10.000000 -1.524887E+01
-2.000000 -12.000000 -7.827404E+00
-2.000000 -14.000000 -3.283291E+00
-2.000000 -16.000000 -9.349608E-01
-2.000000 -18.000000 -2.869997E-01
-2.000000 -20.000000 -1.353978E+00
-2.000000 -22.000000 -5.103312E-01
-2.000000 -24.000000 -3.007172E+00
-2.000000 -26.000000 -9.087500E+00
-2.000000 -28.000000 -6.548558E+00
-2.000000 -30.000000 6.487564E+00
-2.000000 -32.000000 1.747615E+01
-2.000000 -34.000000 1.440234E+01
-2.000000 -36.000000 -5.645452E+00
-2.000000 -38.000000 -2.853979E+01
-2.000000 -40.000000 -5.151404E+01
0.000000 40.000000 -1.669451E+01
0.000000 38.000000 -2.640332E+01
0.000000 36.000000 -2.234637E+01
0.000000 34.000000 -1.671216E+01
0.000000 32.000000 -1.436795E+01
0.000000 30.000000 -1.614534E+01
0.000000 28.000000 -2.762341E+01
0.000000 26.000000 -4.250300E+01
0.000000 24.000000 -5.958207E+01
0.000000 22.000000 -6.397785E+01
0.000000 20.000000 -6.003801E+01
0.000000 18.000000 -5.663001E+01
0.000000 16.000000 -5.340966E+01
0.000000 14.000000 -4.753073E+01
0.000000 12.000000 -3.256877E+01
0.000000 10.000000 2.325304E+00
0.000000 8.000000 4.326265E+01
0.000000 6.000000 6.866162E+01
0.000000 4.000000 6.049637E+01
0.000000 2.000000 3.619641E+01
0.000000 0.000000 1.589150E+01
0.000000 -2.000000 1.345164E+00
0.000000 -4.000000 -1.187664E+01
0.000000 -6.000000 -2.058532E+01
0.000000 -8.000000 -2.251930E+01
0.000000 -10.000000 -2.151574E+01
0.000000 -12.000000 -1.452164E+01
0.000000 -14.000000 -8.433251E+00
0.000000 -16.000000 -5.149109E+00
0.000000 -18.000000 -6.431570E+00
0.000000 -20.000000 -1.053832E+01
0.000000 -22.000000 -1.241619E+01
0.000000 -24.000000 -1.857176E+01
0.000000 -26.000000 -2.740831E+01
0.000000 -28.000000 -2.236381E+01
0.000000 -30.000000 -4.319293E+00
0.000000 -32.000000 1.224221E+01
0.000000 -34.000000 1.474640E+01
0.000000 -36.000000 -2.668513E+00
0.000000 -38.000000 -2.648651E+01
0.000000 -40.000000 -5.059496E+01
2.000000 40.000000 -7.785057E+00
2.000000 38.000000 -2.740858E+01
2.000000 36.000000 -3.554802E+01
2.000000 34.000000 -4.199560E+01
2.000000 32.000000 -4.390011E+01
2.000000 30.000000 -4.474651E+01
2.000000 28.000000 -5.186504E+01
2.000000 26.000000 -5.967260E+01
2.000000 24.000000 -7.038954E+01
2.000000 22.000000 -6.894460E+01
2.000000 20.000000 -5.973288E+01
2.000000 18.000000 -5.237631E+01
2.000000 16.000000 -4.744685E+01
2.000000 14.000000 -4.197514E+01
2.000000 12.000000 -2.843799E+01
2.000000 10.000000 4.462051E+00
2.000000 8.000000 4.405648E+01
2.000000 6.000000 7.302164E+01
2.000000 4.000000 7.632921E+01
2.000000 2.000000 6.429286E+01
2.000000 0.000000 5.003526E+01
2.000000 -2.000000 3.313082E+01
2.000000 -4.000000 1.453785E+01
2.000000 -6.000000 -2.039822E+00
2.000000 -8.000000 -1.329350E+01
2.000000 -10.000000 -1.569108E+01
2.000000 -12.000000 -6.790249E+00
2.000000 -14.000000 -4.569006E-02
2.000000 -16.000000 4.090691E-01
2.000000 -18.000000 -5.614208E+00
2.000000 -20.000000 -1.405803E+01
2.000000 -22.000000 -2.037287E+01
2.000000 -24.000000 -2.881912E+01
2.000000 -26.000000 -3.745858E+01
2.000000 -28.000000 -3.179422E+01
2.000000 -30.000000 -1.367337E+01
2.000000 -32.000000 3.674904E+00
2.000000 -34.000000 9.250556E+00
2.000000 -36.000000 -4.035363E+00
2.000000 -38.000000 -2.340195E+01
2.000000 -40.000000 -4.455194E+01
4.000000 40.000000 -8.037567E-02
4.000000 38.000000 -2.726733E+01
4.000000 36.000000 -4.444970E+01
4.000000 34.000000 -6.013931E+01
4.000000 32.000000 -6.496860E+01
4.000000 30.000000 -6.358496E+01
4.000000 28.000000 -6.404583E+01
4.000000 26.000000 -6.500995E+01
4.000000 24.000000 -7.201871E+01
4.000000 22.000000 -6.796888E+01
4.000000 20.000000 -5.572108E+01
4.000000 18.000000 -4.533917E+01
4.000000 16.000000 -4.043776E+01
4.000000 14.000000 -3.736572E+01
4.000000 12.000000 -3.029779E+01
4.000000 10.000000 -9.704309E+00
4.000000 8.000000 1.649025E+01
4.000000 6.000000 3.956080E+01
4.000000 4.000000 5.355318E+01
4.000000 2.000000 6.080332E+01
4.000000 0.000000 6.195928E+01
4.000000 -2.000000 5.272928E+01
4.000000 -4.000000 3.674058E+01
4.000000 -6.000000 1.918005E+01
4.000000 -8.000000 6.210877E+00
4.000000 -10.000000 4.519537E+00
4.000000 -12.000000 1.212715E+01
4.000000 -14.000000 1.647602E+01
4.000000 -16.000000 1.362495E+01
4.000000 -18.000000 3.996623E+00
4.000000 -20.000000 -8.257694E+00
4.000000 -22.000000 -1.842945E+01
4.000000 -24.000000 -2.715855E+01
4.000000 -26.000000 -3.329056E+01
4.000000 -28.000000 -2.863631E+01
4.000000 -30.000000 -1.487046E+01
4.000000 -32.000000 -8.541126E-01
4.000000 -34.000000 4.880477E+00
4.000000 -36.000000 -5.199311E+00
4.000000 -38.000000 -2.006173E+01
4.000000 -40.000000 -3.841344E+01
6.000000 40.000000 3.189232E+00
6.000000 38.000000 -2.489091E+01
6.000000 36.000000 -4.515782E+01
6.000000 34.000000 -6.508393E+01
6.000000 32.000000 -7.035706E+01
6.000000 30.000000 -6.499663E+01
6.000000 28.000000 -5.791396E+01
6.000000 26.000000 -5.505278E+01
6.000000 24.000000 -6.280088E+01
6.000000 22.000000 -6.031800E+01
6.000000 20.000000 -4.942942E+01
6.000000 18.000000 -3.968759E+01
6.000000 16.000000 -3.639141E+01
6.000000 14.000000 -3.741031E+01
6.000000 12.000000 -4.070522E+01
6.000000 10.000000 -3.983899E+01
6.000000 8.000000 -3.565912E+01
6.000000 6.000000 -2.558691E+01
6.000000 4.000000 -2.534657E+00
6.000000 2.000000 2.886504E+01
6.000000 0.000000 5.503645E+01
6.000000 -2.000000 6.332834E+01
6.000000 -4.000000 5.526826E+01
6.000000 -6.000000 3.924433E+01
6.000000 -8.000000 2.557788E+01
6.000000 -10.000000 2.360123E+01
6.000000 -12.000000 2.899637E+01
6.000000 -14.000000 3.318728E+01
6.000000 -16.000000 3.142716E+01
6.000000 -18.000000 2.124875E+01
6.000000 -20.000000 7.068278E+00
6.000000 -22.000000 -4.391036E+00
6.000000 -24.000000 -1.239580E+01
6.000000 -26.000000 -1.623628E+01
6.000000 -28.000000 -1.269586E+01
6.000000 -30.000000 -4.279189E+00
6.000000 -32.000000 5.037481E+00
6.000000 -34.000000 8.700251E+00
6.000000 -36.000000 -1.078050E+00
6.000000 -38.000000 -1.667975E+01
6.000000 -40.000000 -3.691040E+01
8.000000 40.000000 5.072525E+00
8.000000 38.000000 -2.019712E+01
8.000000 36.000000 -4.011553E+01
8.000000 34.000000 -5.900748E+01
8.000000 32.000000 -6.200933E+01
8.000000 30.000000 -5.246628E+01
8.000000 28.000000 -4.001208E+01
8.000000 26.000000 -3.621814E+01
8.000000 24.000000 -4.477019E+01
8.000000 22.000000 -4.622406E+01
8.000000 20.000000 -3.973149E+01
8.000000 18.000000 -3.474664E+01
8.000000 16.000000 -3.584157E+01
8.000000 14.000000 -4.359234E+01
8.000000 12.000000 -5.958418E+01
8.000000 10.000000 -8.071054E+01
8.000000 8.000000 -9.897599E+01
8.000000 6.000000 -1.010667E+02
8.000000 4.000000 -6.740991E+01
8.000000 2.000000 -1.082002E+01
8.000000 0.000000 4.460885E+01
8.000000 -2.000000 7.388732E+01
8.000000 -4.000000 7.321941E+01
8.000000 -6.000000 5.498800E+01
8.000000 -8.000000 3.732184E+01
8.000000 -10.000000 3.122786E+01
8.000000 -12.000000 3.395927E+01
8.000000 -14.000000 4.158720E+01
8.000000 -16.000000 4.777481E+01
8.000000 -18.000000 4.174596E+01
8.000000 -20.000000 2.922510E+01
8.000000 -22.000000 1.913499E+01
8.000000 -24.000000 1.259526E+01
8.000000 -26.000000 8.819594E+00
8.000000 -28.000000 1.104281E+01
8.000000 -30.000000 1.584502E+01
8.000000 -32.000000 1.944284E+01
8.000000 -34.000000 1.874696E+01
8.000000 -36.000000 5.751150E+00
8.000000 -38.000000 -1.371399E+01
8.000000 -40.000000 -3.825813E+01
10.000000 40.000000 7.204611E+00
10.000000 38.000000 -1.490722E+01
10.000000 36.000000 -3.291877E+01
10.000000 34.000000 -4.797200E+01
10.000000 32.000000 -4.751387E+01
10.000000 30.000000 -3.366347E+01
10.000000 28.000000 -1.793395E+01
10.000000 26.000000 -1.434405E+01
10.000000 24.000000 -2.155904E+01
10.000000 22.000000 -2.746119E+01
10.000000 20.000000 -2.587082E+01
10.000000 18.000000 -2.735144E+01
10.000000 16.000000 -3.542781E+01
10.000000 14.000000 -5.348631E+01
10.000000 12.000000 -8.315459E+01
10.000000 10.000000 -1.220013E+02
10.000000 8.000000 -1.539433E+02
10.000000 6.000000 -1.627974E+02
10.000000 4.000000 -1.179065E+02
10.000000 2.000000 -3.829337E+01
10.000000 0.000000 3.978787E+01
10.000000 -2.000000 8.511726E+01
10.000000 -4.000000 9.130771E+01
10.000000 -6.000000 6.778954E+01
10.000000 -8.000000 4.004957E+01
10.000000 -10.000000 2.354430E+01
10.000000 -12.000000 2.538921E+01
10.000000 -14.000000 4.046039E+01
10.000000 -16.000000 5.856746E+01
10.000000 -18.000000 6.035389E+01
10.000000 -20.000000 5.107651E+01
10.000000 -22.000000 4.290399E+01
10.000000 -24.000000 3.802751E+01
10.000000 -26.000000 3.415947E+01
10.000000 -28.000000 3.585652E+01
10.000000 -30.000000 3.876830E+01
10.000000 -32.000000 3.660228E+01
10.000000 -34.000000 3.065095E+01
10.000000 -36.000000 1.221529E+01
10.000000 -38.000000 -1.164227E+01
10.000000 -40.000000 -4.021551E+01
12.000000 40.000000 9.489285E+00
12.000000 38.000000 -1.055175E+01
12.000000 36.000000 -2.543609E+01
12.000000 34.000000 -3.704915E+01
12.000000 32.000000 -3.432051E+01
12.000000 30.000000 -1.687694E+01
12.000000 28.000000 8.224869E-01
12.000000 26.000000 5.348125E+00
12.000000 24.000000 -4.360056E-01
12.000000 22.000000 -8.075035E+00
12.000000 20.000000 -9.106998E+00
12.000000 18.000000 -1.463151E+01
12.000000 16.000000 -2.849617E+01
12.000000 14.000000 -5.535219E+01
12.000000 12.000000 -9.564284E+01
12.000000 10.000000 -1.460626E+02
12.000000 8.000000 -1.856609E+02
12.000000 6.000000 -1.985299E+02
12.000000 4.000000 -1.485746E+02
12.000000 2.000000 -5.646320E+01
12.000000 0.000000 3.332598E+01
12.000000 -2.000000 8.933676E+01
12.000000 -4.000000 1.033652E+02
12.000000 -6.000000 7.703361E+01
12.000000 -8.000000 3.896587E+01
12.000000 -10.000000 8.791505E+00
12.000000 -12.000000 1.106291E+01
12.000000 -14.000000 3.818957E+01
12.000000 -16.000000 6.986222E+01
12.000000 -18.000000 7.759888E+01
12.000000 -20.000000 6.642726E+01
12.000000 -22.000000 5.600916E+01
12.000000 -24.000000 5.195612E+01
12.000000 -26.000000 5.059504E+01
12.000000 -28.000000 5.383752E+01
12.000000 -30.000000 5.572460E+01
12.000000 -32.000000 4.950315E+01
12.000000 -34.000000 3.885530E+01
12.000000 -36.000000 1.533444E+01
12.000000 -38.000000 -1.107745E+01
12.000000 -40.000000 -4.176753E+01
14.000000 40.000000 1.364069E+01
14.000000 38.000000 -5.750588E+00
14.000000 36.000000 -1.923698E+01
14.000000 34.000000 -2.998172E+01
14.000000 32.000000 -2.718034E+01
14.000000 30.000000 -9.427461E+00
14.000000 28.000000 8.461924E+00
14.000000 26.000000 1.448523E+01
14.000000 24.000000 1.020473E+01
14.000000 22.000000 5.249096E+00
14.000000 20.000000 7.135122E+00
14.000000 18.000000 2.958568E+00
14.000000 16.000000 -1.212539E+01
14.000000 14.000000 -4.064644E+01
14.000000 12.000000 -8.593453E+01
14.000000 10.000000 -1.428742E+02
14.000000 8.000000 -1.868524E+02
14.000000 6.000000 -2.030624E+02
14.000000 4.000000 -1.594220E+02
14.000000 2.000000 -7.393234E+01
14.000000 0.000000 1.444666E+01
14.000000 -2.000000 7.946299E+01
14.000000 -4.000000 1.064487E+02
14.000000 -6.000000 8.441188E+01
14.000000 -8.000000 4.068688E+01
14.000000 -10.000000 1.495093E+00
14.000000 -12.000000 6.270850E+00
14.000000 -14.000000 4.683693E+01
14.000000 -16.000000 9.014620E+01
14.000000 -18.000000 9.534636E+01
14.000000 -20.000000 7.209426E+01
14.000000 -22.000000 5.252560E+01
14.000000 -24.000000 4.696160E+01
14.000000 -26.000000 4.863729E+01
14.000000 -28.000000 5.505055E+01
14.000000 -30.000000 5.809546E+01
14.000000 -32.000000 5.096885E+01
14.000000 -34.000000 3.928029E+01
14.000000 -36.000000 1.564841E+01
14.000000 -38.000000 -1.113283E+01
14.000000 -40.000000 -4.419261E+01
16.000000 40.000000 2.053933E+01
16.000000 38.000000 8.047047E-01
16.000000 36.000000 -1.474773E+01
16.000000 34.000000 -2.832429E+01
16.000000 32.000000 -2.759724E+01
16.000000 30.000000 -1.242745E+01
16.000000 28.000000 4.214726E+00
16.000000 26.000000 1.002075E+01
16.000000 24.000000 7.079302E+00
16.000000 22.000000 7.853576E+00
16.000000 20.000000 1.736373E+01
16.000000 18.000000 1.914241E+01
16.000000 16.000000 6.387546E+00
16.000000 14.000000 -2.056525E+01
16.000000 12.000000 -6.647497E+01
16.000000 10.000000 -1.234667E+02
16.000000 8.000000 -1.653205E+02
16.000000 6.000000 -1.798907E+02
16.000000 4.000000 -1.454033E+02
16.000000 2.000000 -7.665078E+01
16.000000 0.000000 -8.054304E-01
16.000000 -2.000000 6.410913E+01
16.000000 -4.000000 1.015891E+02
16.000000 -6.000000 9.023575E+01
16.000000 -8.000000 4.907366E+01
16.000000 -10.000000 1.116203E+01
16.000000 -12.000000 2.526321E+01
16.000000 -14.000000 7.793303E+01
16.000000 -16.000000 1.229711E+02
16.000000 -18.000000 1.122743E+02
16.000000 -20.000000 6.576154E+01
16.000000 -22.000000 2.980638E+01
16.000000 -24.000000 1.929843E+01
16.000000 -26.000000 2.306433E+01
16.000000 -28.000000 3.329482E+01
16.000000 -30.000000 4.012357E+01
16.000000 -32.000000 3.621455E+01
16.000000 -34.000000 2.911826E+01
16.000000 -36.000000 1.266226E+01
16.000000 -38.000000 -1.210006E+01
16.000000 -40.000000 -4.804792E+01
18.000000 40.000000 2.840576E+01
18.000000 38.000000 7.753772E+00
18.000000 36.000000 -1.123175E+01
18.000000 34.000000 -3.032866E+01
18.000000 32.000000 -3.398387E+01
18.000000 30.000000 -2.067978E+01
18.000000 28.000000 -4.650274E+00
18.000000 26.000000 -5.281177E-01
18.000000 24.000000 -5.159672E+00
18.000000 22.000000 -1.425157E+00
18.000000 20.000000 1.230864E+01
18.000000 18.000000 2.053902E+01
18.000000 16.000000 1.465260E+01
18.000000 14.000000 -7.163219E+00
18.000000 12.000000 -4.843887E+01
18.000000 10.000000 -9.829653E+01
18.000000 8.000000 -1.320012E+02
18.000000 6.000000 -1.393034E+02
18.000000 4.000000 -1.102930E+02
18.000000 2.000000 -5.831560E+01
18.000000 0.000000 4.641781E-01
18.000000 -2.000000 5.453656E+01
18.000000 -4.000000 9.404435E+01
18.000000 -6.000000 9.591149E+01
18.000000 -8.000000 6.418958E+01
18.000000 -10.000000 3.978653E+01
18.000000 -12.000000 7.207900E+01
18.000000 -14.000000 1.328862E+02
18.000000 -16.000000 1.640549E+02
18.000000 -18.000000 1.254149E+02
18.000000 -20.000000 4.924845E+01
18.000000 -22.000000 -7.950881E+00
18.000000 -24.000000 -2.744806E+01
18.000000 -26.000000 -2.196286E+01
18.000000 -28.000000 -7.932068E+00
18.000000 -30.000000 3.497476E+00
18.000000 -32.000000 5.021928E+00
18.000000 -34.000000 4.830380E+00
18.000000 -36.000000 -1.785693E+00
18.000000 -38.000000 -1.837226E+01
18.000000 -40.000000 -4.943525E+01
20.000000 40.000000 3.451770E+01
20.000000 38.000000 1.296091E+01
20.000000 36.000000 -8.700749E+00
20.000000 34.000000 -3.244409E+01
20.000000 32.000000 -4.010389E+01
20.000000 30.000000 -2.762963E+01
20.000000 28.000000 -1.218474E+01
20.000000 26.000000 -1.076257E+01
20.000000 24.000000 -2.094482E+01
20.000000 22.000000 -1.933933E+01
20.000000 20.000000 -6.188424E+00
20.000000 18.000000 7.597901E+00
20.000000 16.000000 1.104075E+01
20.000000 14.000000 -1.505570E+00
20.000000 12.000000 -3.406302E+01
20.000000 10.000000 -7.405521E+01
20.000000 8.000000 -9.953021E+01
20.000000 6.000000 -9.981190E+01
20.000000 4.000000 -7.373105E+01
20.000000 2.000000 -3.271345E+01
20.000000 0.000000 1.467696E+01
20.000000 -2.000000 6.030152E+01
20.000000 -4.000000 9.752341E+01
20.000000 -6.000000 1.051617E+02
20.000000 -8.000000 8.594593E+01
20.000000 -10.000000 8.133916E+01
20.000000 -12.000000 1.286738E+02
20.000000 -14.000000 1.901350E+02
20.000000 -16.000000 2.007260E+02
20.000000 -18.000000 1.309779E+02
20.000000 -20.000000 2.610110E+01
20.000000 -22.000000 -5.122889E+01
20.000000 -24.000000 -8.023056E+01
20.000000 -26.000000 -7.394373E+01
20.000000 -28.000000 -5.752857E+01
20.000000 -30.000000 -4.267911E+01
20.000000 -32.000000 -3.595246E+01
20.000000 -34.000000 -2.959869E+01
20.000000 -36.000000 -2.703736E+01
20.000000 -38.000000 -2.979117E+01
20.000000 -40.000000 -4.659877E+01
22.000000 40.000000 3.701495E+01
22.000000 38.000000 1.515349E+01
22.000000 36.000000 -7.179084E+00
22.000000 34.000000 -3.130015E+01
22.000000 32.000000 -3.925095E+01
22.000000 30.000000 -2.771815E+01
22.000000 28.000000 -1.500237E+01
22.000000 26.000000 -1.809905E+01
22.000000 24.000000 -3.503147E+01
22.000000 22.000000 -3.791226E+01
22.000000 20.000000 -2.729414E+01
22.000000 18.000000 -1.004579E+01
22.000000 16.000000 9.653406E-01
22.000000 14.000000 -4.130173E+00
22.000000 12.000000 -2.837137E+01
22.000000 10.000000 -5.903382E+01
22.000000 8.000000 -7.736432E+01
22.000000 6.000000 -7.399437E+01
22.000000 4.000000 -5.083775E+01
22.000000 2.000000 -1.548002E+01
22.000000 0.000000 2.786976E+01
22.000000 -2.000000 7.112347E+01
22.000000 -4.000000 1.073345E+02
22.000000 -6.000000 1.166527E+02
22.000000 -8.000000 1.087801E+02
22.000000 -10.000000 1.212843E+02
22.000000 -12.000000 1.763843E+02
22.000000 -14.000000 2.337310E+02
22.000000 -16.000000 2.255323E+02
22.000000 -18.000000 1.288736E+02
22.000000 -20.000000 1.025053E+00
22.000000 -22.000000 -8.885219E+01
22.000000 -24.000000 -1.219049E+02
22.000000 -26.000000 -1.157786E+02
22.000000 -28.000000 -9.964687E+01
22.000000 -30.000000 -8.431982E+01
22.000000 -32.000000 -7.408757E+01
22.000000 -34.000000 -6.232414E+01
22.000000 -36.000000 -5.195400E+01
22.000000 -38.000000 -4.158834E+01
22.000000 -40.000000 -4.277374E+01
24.000000 40.000000 3.834932E+01
24.000000 38.000000 1.537669E+01
24.000000 36.000000 -7.164729E+00
24.000000 34.000000 -2.950520E+01
24.000000 32.000000 -3.563556E+01
24.000000 30.000000 -2.428844E+01
24.000000 28.000000 -1.471159E+01
24.000000 26.000000 -2.197823E+01
24.000000 24.000000 -4.264612E+01
24.000000 22.000000 -4.782572E+01
24.000000 20.000000 -3.810965E+01
24.000000 18.000000 -1.889044E+01
24.000000 16.000000 -4.687721E+00
24.000000 14.000000 -7.757992E+00
24.000000 12.000000 -2.821968E+01
24.000000 10.000000 -5.345791E+01
24.000000 8.000000 -6.898465E+01
24.000000 6.000000 -6.878160E+01
24.000000 4.000000 -5.204870E+01
24.000000 2.000000 -2.102445E+01
24.000000 0.000000 2.291289E+01
24.000000 -2.000000 6.952389E+01
24.000000 -4.000000 1.076542E+02
24.000000 -6.000000 1.195142E+02
24.000000 -8.000000 1.215925E+02
24.000000 -10.000000 1.464973E+02
24.000000 -12.000000 2.067991E+02
24.000000 -14.000000 2.575075E+02
24.000000 -16.000000 2.336052E+02
24.000000 -18.000000 1.205456E+02
24.000000 -20.000000 -1.689202E+01
24.000000 -22.000000 -1.069895E+02
24.000000 -24.000000 -1.366482E+02
24.000000 -26.000000 -1.298671E+02
24.000000 -28.000000 -1.168973E+02
24.000000 -30.000000 -1.047131E+02
24.000000 -32.000000 -9.463213E+01
24.000000 -34.000000 -8.100876E+01
24.000000 -36.000000 -6.712062E+01
24.000000 -38.000000 -5.038505E+01
24.000000 -40.000000 -4.290763E+01
26.000000 40.000000 4.087224E+01
26.000000 38.000000 1.486615E+01
26.000000 36.000000 -9.866234E+00
26.000000 34.000000 -3.187016E+01
26.000000 32.000000 -3.574351E+01
26.000000 30.000000 -2.245905E+01
26.000000 28.000000 -1.363424E+01
26.000000 26.000000 -2.154984E+01
26.000000 24.000000 -4.034748E+01
26.000000 22.000000 -4.308527E+01
26.000000 20.000000 -3.056456E+01
26.000000 18.000000 -1.126276E+01
26.000000 16.000000 -1.313908E+00
26.000000 14.000000 -8.651260E+00
26.000000 12.000000 -3.136625E+01
26.000000 10.000000 -5.655690E+01
26.000000 8.000000 -7.298277E+01
26.000000 6.000000 -7.866588E+01
26.000000 4.000000 -7.189419E+01
26.000000 2.000000 -4.726279E+01
26.000000 0.000000 -3.735691E+00
26.000000 -2.000000 4.834624E+01
26.000000 -4.000000 9.112498E+01
26.000000 -6.000000 1.102363E+02
26.000000 -8.000000 1.237904E+02
26.000000 -10.000000 1.575029E+02
26.000000 -12.000000 2.173530E+02
26.000000 -14.000000 2.566930E+02
26.000000 -16.000000 2.212036E+02
26.000000 -18.000000 1.067816E+02
26.000000 -20.000000 -2.297615E+01
26.000000 -22.000000 -1.013443E+02
26.000000 -24.000000 -1.206835E+02
26.000000 -26.000000 -1.108932E+02
26.000000 -28.000000 -1.025193E+02
26.000000 -30.000000 -9.549098E+01
26.000000 -32.000000 -8.915536E+01
26.000000 -34.000000 -7.762561E+01
26.000000 -36.000000 -6.598189E+01
26.000000 -38.000000 -5.319587E+01
26.000000 -40.000000 -4.928688E+01
28.000000 40.000000 4.216828E+01
28.000000 38.000000 1.380050E+01
28.000000 36.000000 -1.412157E+01
28.000000 34.000000 -3.782962E+01
28.000000 32.000000 -3.879757E+01
28.000000 30.000000 -2.103263E+01
28.000000 28.000000 -8.548962E+00
28.000000 26.000000 -1.340888E+01
28.000000 24.000000 -2.661353E+01
28.000000 22.000000 -2.392908E+01
28.000000 20.000000 -8.708654E+00
28.000000 18.000000 5.041800E+00
28.000000 16.000000 3.107145E+00
28.000000 14.000000 -1.408988E+01
28.000000 12.000000 -4.277017E+01
28.000000 10.000000 -6.989353E+01
28.000000 8.000000 -8.598683E+01
28.000000 6.000000 -9.518153E+01
28.000000 4.000000 -9.823195E+01
28.000000 2.000000 -8.119809E+01
28.000000 0.000000 -4.014064E+01
28.000000 -2.000000 1.747393E+01
28.000000 -4.000000 6.741690E+01
28.000000 -6.000000 9.826465E+01
28.000000 -8.000000 1.236551E+02
28.000000 -10.000000 1.630677E+02
28.000000 -12.000000 2.157359E+02
28.000000 -14.000000 2.395490E+02
28.000000 -16.000000 1.962365E+02
28.000000 -18.000000 9.029719E+01
28.000000 -20.000000 -2.012874E+01
28.000000 -22.000000 -7.869860E+01
28.000000 -24.000000 -8.409501E+01
28.000000 -26.000000 -7.039156E+01
28.000000 -28.000000 -6.578022E+01
28.000000 -30.000000 -6.310369E+01
28.000000 -32.000000 -6.098615E+01
28.000000 -34.000000 -5.458278E+01
28.000000 -36.000000 -5.147881E+01
28.000000 -38.000000 -5.047942E+01
28.000000 -40.000000 -5.817618E+01
30.000000 40.000000 4.207866E+01
30.000000 38.000000 1.349237E+01
30.000000 36.000000 -1.742932E+01
30.000000 34.000000 -4.468846E+01
30.000000 32.000000 -4.372393E+01
30.000000 30.000000 -2.108899E+01
30.000000 28.000000 -1.415733E+00
30.000000 26.000000 -2.481899E-01
30.000000 24.000000 -7.094797E+00
30.000000 22.000000 -4.726601E-01
30.000000 20.000000 1.370776E+01
30.000000 18.000000 1.802500E+01
30.000000 16.000000 2.055307E+00
30.000000 14.000000 -2.782863E+01
30.000000 12.000000 -6.339589E+01
30.000000 10.000000 -9.046847E+01
30.000000 8.000000 -1.024411E+02
30.000000 6.000000 -1.105680E+02
30.000000 4.000000 -1.163321E+02
30.000000 2.000000 -1.039387E+02
30.000000 0.000000 -6.534332E+01
30.000000 -2.000000 -5.455763E+00
30.000000 -4.000000 5.126768E+01
30.000000 -6.000000 9.286113E+01
30.000000 -8.000000 1.263331E+02
30.000000 -10.000000 1.673659E+02
30.000000 -12.000000 2.099781E+02
30.000000 -14.000000 2.176227E+02
30.000000 -16.000000 1.685009E+02
30.000000 -18.000000 7.484142E+01
30.000000 -20.000000 -1.155848E+01
30.000000 -22.000000 -4.862460E+01
30.000000 -24.000000 -4.203487E+01
30.000000 -26.000000 -2.534784E+01
30.000000 -28.000000 -2.240809E+01
30.000000 -30.000000 -2.198607E+01
30.000000 -32.000000 -2.288725E+01
30.000000 -34.000000 -2.272828E+01
30.000000 -36.000000 -3.151541E+01
30.000000 -38.000000 -4.407729E+01
30.000000 -40.000000 -6.457473E+01
32.000000 40.000000 4.343627E+01
32.000000 38.000000 1.438529E+01
32.000000 36.000000 -1.966515E+01
32.000000 34.000000 -5.107214E+01
32.000000 32.000000 -5.076037E+01
32.000000 30.000000 -2.609440E+01
32.000000 28.000000 2.848034E-01
32.000000 26.000000 1.022740E+01
32.000000 24.000000 1.122161E+01
32.000000 22.000000 1.723240E+01
32.000000 20.000000 2.623067E+01
32.000000 18.000000 2.035656E+01
32.000000 16.000000 -7.064022E+00
32.000000 14.000000 -4.632650E+01
32.000000 12.000000 -8.440366E+01
32.000000 10.000000 -1.071618E+02
32.000000 8.000000 -1.093369E+02
32.000000 6.000000 -1.096691E+02
32.000000 4.000000 -1.112373E+02
32.000000 2.000000 -1.022031E+02
32.000000 0.000000 -6.882303E+01
32.000000 -2.000000 -1.344106E+01
32.000000 -4.000000 4.498744E+01
32.000000 -6.000000 9.361698E+01
32.000000 -8.000000 1.314416E+02
32.000000 -10.000000 1.711011E+02
32.000000 -12.000000 2.024811E+02
32.000000 -14.000000 1.969505E+02
32.000000 -16.000000 1.435856E+02
32.000000 -18.000000 6.269700E+01
32.000000 -20.000000 -1.786247E+00
32.000000 -22.000000 -2.154280E+01
32.000000 -24.000000 -8.042458E+00
32.000000 -26.000000 1.060506E+01
32.000000 -28.000000 1.370417E+01
32.000000 -30.000000 1.309681E+01
32.000000 -32.000000 1.058030E+01
32.000000 -34.000000 6.046965E+00
32.000000 -36.000000 -1.247007E+01
32.000000 -38.000000 -3.480832E+01
32.000000 -40.000000 -6.517227E+01
34.000000 40.000000 4.659582E+01
34.000000 38.000000 1.548731E+01
34.000000 36.000000 -2.168865E+01
34.000000 34.000000 -5.691978E+01
34.000000 32.000000 -5.957968E+01
34.000000 30.000000 -3.678211E+01
34.000000 28.000000 -6.913406E+00
34.000000 26.000000 1.134765E+01
34.000000 24.000000 1.923896E+01
34.000000 22.000000 2.362394E+01
34.000000 20.000000 2.788845E+01
34.000000 18.000000 1.567148E+01
34.000000 16.000000 -1.591063E+01
34.000000 14.000000 -5.610258E+01
34.000000 12.000000 -8.999298E+01
34.000000 10.000000 -1.055220E+02
34.000000 8.000000 -9.520603E+01
34.000000 6.000000 -8.471624E+01
34.000000 4.000000 -8.129219E+01
34.000000 2.000000 -7.703289E+01
34.000000 0.000000 -5.445011E+01
34.000000 -2.000000 -1.172226E+01
34.000000 -4.000000 3.935301E+01
34.000000 -6.000000 8.914252E+01
34.000000 -8.000000 1.311447E+02
34.000000 -10.000000 1.694471E+02
34.000000 -12.000000 1.884868E+02
34.000000 -14.000000 1.749956E+02
34.000000 -16.000000 1.237010E+02
34.000000 -18.000000 5.490982E+01
34.000000 -20.000000 5.619337E+00
34.000000 -22.000000 -4.471092E+00
34.000000 -24.000000 1.026439E+01
34.000000 -26.000000 2.824374E+01
34.000000 -28.000000 3.385242E+01
34.000000 -30.000000 3.558905E+01
34.000000 -32.000000 3.462629E+01
34.000000 -34.000000 2.758751E+01
34.000000 -36.000000 2.450348E+00
34.000000 -38.000000 -2.559376E+01
34.000000 -40.000000 -6.105439E+01
36.000000 40.000000 4.986419E+01
36.000000 38.000000 1.568449E+01
36.000000 36.000000 -2.431846E+01
36.000000 34.000000 -6.236134E+01
36.000000 32.000000 -6.867934E+01
36.000000 30.000000 -4.902740E+01
36.000000 28.000000 -1.817472E+01
36.000000 26.000000 4.030960E+00
36.000000 24.000000 1.460975E+01
36.000000 22.000000 2.028223E+01
36.000000 20.000000 2.305501E+01
36.000000 18.000000 1.027020E+01
36.000000 16.000000 -1.766386E+01
36.000000 14.000000 -5.086838E+01
36.000000 12.000000 -7.553055E+01
36.000000 10.000000 -8.132179E+01
36.000000 8.000000 -6.104713E+01
36.000000 6.000000 -4.122252E+01
36.000000 4.000000 -3.572417E+01
36.000000 2.000000 -3.949953E+01
36.000000 0.000000 -3.070623E+01
36.000000 -2.000000 -3.758444E+00
36.000000 -4.000000 3.565175E+01
36.000000 -6.000000 7.968447E+01
36.000000 -8.000000 1.197605E+02
36.000000 -10.000000 1.529312E+02
36.000000 -12.000000 1.623389E+02
36.000000 -14.000000 1.470455E+02
36.000000 -16.000000 1.040255E+02
36.000000 -18.000000 4.808342E+01
36.000000 -20.000000 9.352154E+00
36.000000 -22.000000 1.591661E+00
36.000000 -24.000000 1.306440E+01
36.000000 -26.000000 2.629354E+01
36.000000 -28.000000 3.564962E+01
36.000000 -30.000000 4.492931E+01
36.000000 -32.000000 5.001547E+01
36.000000 -34.000000 4.271887E+01
36.000000 -36.000000 1.301288E+01
36.000000 -38.000000 -1.904019E+01
36.000000 -40.000000 -5.517540E+01
38.000000 40.000000 4.982188E+01
38.000000 38.000000 1.301059E+01
38.000000 36.000000 -2.906422E+01
38.000000 34.000000 -6.728186E+01
38.000000 32.000000 -7.312503E+01
38.000000 30.000000 -5.426293E+01
38.000000 28.000000 -2.448592E+01
38.000000 26.000000 -2.899990E+00
38.000000 24.000000 6.553135E+00
38.000000 22.000000 1.374788E+01
38.000000 20.000000 1.685532E+01
38.000000 18.000000 7.101883E+00
38.000000 16.000000 -1.374670E+01
38.000000 14.000000 -3.501033E+01
38.000000 12.000000 -4.618861E+01
38.000000 10.000000 -4.199234E+01
38.000000 8.000000 -1.962806E+01
38.000000 6.000000 4.096046E+00
38.000000 4.000000 7.877520E+00
38.000000 2.000000 -5.291094E+00
38.000000 0.000000 -8.956186E+00
38.000000 -2.000000 5.232515E+00
38.000000 -4.000000 3.389109E+01
38.000000 -6.000000 6.599502E+01
38.000000 -8.000000 9.418088E+01
38.000000 -10.000000 1.178127E+02
38.000000 -12.000000 1.262197E+02
38.000000 -14.000000 1.151350E+02
38.000000 -16.000000 8.243672E+01
38.000000 -18.000000 4.079330E+01
38.000000 -20.000000 1.278360E+01
38.000000 -22.000000 5.484123E+00
38.000000 -24.000000 1.017666E+01
38.000000 -26.000000 1.510246E+01
38.000000 -28.000000 2.504872E+01
38.000000 -30.000000 4.127836E+01
38.000000 -32.000000 5.399130E+01
38.000000 -34.000000 4.946249E+01
38.000000 -36.000000 1.831078E+01
38.000000 -38.000000 -1.534986E+01
38.000000 -40.000000 -4.997671E+01
40.000000 40.000000 4.470896E+01
40.000000 38.000000 6.519711E+00
40.000000 36.000000 -3.589974E+01
40.000000 34.000000 -7.048350E+01
40.000000 32.000000 -6.973835E+01
40.000000 30.000000 -4.764690E+01
40.000000 28.000000 -1.954826E+01
40.000000 26.000000 -1.315966E+00
40.000000 24.000000 4.664400E+00
40.000000 22.000000 1.009164E+01
40.000000 20.000000 1.352016E+01
40.000000 18.000000 8.669004E+00
40.000000 16.000000 -3.479389E+00
40.000000 14.000000 -1.442990E+01
40.000000 12.000000 -1.598729E+01
40.000000 10.000000 -6.188702E+00
40.000000 8.000000 1.272801E+01
40.000000 6.000000 3.147749E+01
40.000000 4.000000 3.172920E+01
40.000000 2.000000 1.591704E+01
40.000000 0.000000 5.524435E+00
40.000000 -2.000000 1.025472E+01
40.000000 -4.000000 2.823269E+01
40.000000 -6.000000 4.628992E+01
40.000000 -8.000000 6.116916E+01
40.000000 -10.000000 7.720848E+01
40.000000 -12.000000 8.898079E+01
40.000000 -14.000000 8.388385E+01
40.000000 -16.000000 6.111002E+01
40.000000 -18.000000 3.323270E+01
40.000000 -20.000000 1.642012E+01
40.000000 -22.000000 1.061285E+01
40.000000 -24.000000 7.361599E+00
40.000000 -26.000000 3.340416E+00
40.000000 -28.000000 9.881583E+00
40.000000 -30.000000 2.839924E+01
40.000000 -32.000000 4.647292E+01
40.000000 -34.000000 4.660669E+01
40.000000 -36.000000 1.808143E+01
40.000000 -38.000000 -1.394855E+01
40.000000 -40.000000 -4.619717E+01
42.000000 40.000000 3.666341E+01
42.000000 38.000000 -2.102516E+00
42.000000 36.000000 -4.287780E+01
42.000000 34.000000 -7.119528E+01
42.000000 32.000000 -6.196174E+01
42.000000 30.000000 -3.448107E+01
42.000000 28.000000 -6.114258E+00
42.000000 26.000000 9.660339E+00
42.000000 24.000000 1.118062E+01
42.000000 22.000000 1.240679E+01
42.000000 20.000000 1.611263E+01
42.000000 18.000000 1.647975E+01
42.000000 16.000000 1.257139E+01
42.000000 14.000000 8.811184E+00
42.000000 12.000000 1.095482E+01
42.000000 10.000000 1.952870E+01
42.000000 8.000000 3.008844E+01
42.000000 6.000000 3.682576E+01
42.000000 4.000000 3.247714E+01
42.000000 2.000000 1.970172E+01
42.000000 0.000000 7.839632E+00
42.000000 -2.000000 6.573906E+00
42.000000 -4.000000 1.582314E+01
42.000000 -6.000000 2.223456E+01
42.000000 -8.000000 2.594064E+01
42.000000 -10.000000 3.815213E+01
42.000000 -12.000000 5.623498E+01
42.000000 -14.000000 5.830559E+01
42.000000 -16.000000 4.327468E+01
42.000000 -18.000000 2.510789E+01
42.000000 -20.000000 1.574293E+01
42.000000 -22.000000 1.089005E+01
42.000000 -24.000000 2.552435E+00
42.000000 -26.000000 -5.878130E+00
42.000000 -28.000000 -3.273205E+00
42.000000 -30.000000 1.224443E+01
42.000000 -32.000000 3.078052E+01
42.000000 -34.000000 3.579970E+01
42.000000 -36.000000 1.437140E+01
42.000000 -38.000000 -1.336189E+01
42.000000 -40.000000 -4.299071E+01
44.000000 40.000000 2.866987E+01
44.000000 38.000000 -9.674761E+00
44.000000 36.000000 -4.769521E+01
44.000000 34.000000 -7.023552E+01
44.000000 32.000000 -5.501776E+01
44.000000 30.000000 -2.298272E+01
44.000000 28.000000 7.523235E+00
44.000000 26.000000 2.283887E+01
44.000000 24.000000 2.138782E+01
44.000000 22.000000 1.967359E+01
44.000000 20.000000 2.527683E+01
44.000000 18.000000 3.257858E+01
44.000000 16.000000 3.568076E+01
44.000000 14.000000 3.667350E+01
44.000000 12.000000 3.820391E+01
44.000000 10.000000 3.895630E+01
44.000000 8.000000 3.509122E+01
44.000000 6.000000 2.779409E+01
44.000000 4.000000 1.761974E+01
44.000000 2.000000 6.451927E+00
44.000000 0.000000 -2.500263E+00
44.000000 -2.000000 -4.836229E+00
44.000000 -4.000000 -2.040539E+00
44.000000 -6.000000 -3.816730E+00
44.000000 -8.000000 -6.564524E+00
44.000000 -10.000000 3.571585E+00
44.000000 -12.000000 2.527889E+01
44.000000 -14.000000 3.476941E+01
44.000000 -16.000000 2.856986E+01
44.000000 -18.000000 1.640851E+01
44.000000 -20.000000 8.230070E+00
44.000000 -22.000000 3.568462E+00
44.000000 -24.000000 -4.885313E+00
44.000000 -26.000000 -1.278954E+01
44.000000 -28.000000 -1.234011E+01
44.000000 -30.000000 -2.351551E+00
44.000000 -32.000000 1.310592E+01
44.000000 -34.000000 2.162179E+01
44.000000 -36.000000 9.025268E+00
44.000000 -38.000000 -1.298969E+01
44.000000 -40.000000 -3.961383E+01
46.000000 40.000000 2.385698E+01
46.000000 38.000000 -1.268034E+01
46.000000 36.000000 -4.775585E+01
46.000000 34.000000 -6.774590E+01
46.000000 32.000000 -5.202839E+01
46.000000 30.000000 -1.843499E+01
46.000000 28.000000 1.482838E+01
46.000000 26.000000 3.040165E+01
46.000000 24.000000 2.857769E+01
46.000000 22.000000 2.657557E+01
46.000000 20.000000 3.608311E+01
46.000000 18.000000 5.139862E+01
46.000000 16.000000 6.015744E+01
46.000000 14.000000 6.356061E+01
46.000000 12.000000 6.100322E+01
46.000000 10.000000 5.149063E+01
46.000000 8.000000 3.346729E+01
46.000000 6.000000 1.512142E+01
46.000000 4.000000 1.440254E+00
46.000000 2.000000 -7.656685E+00
46.000000 0.000000 -1.250775E+01
46.000000 -2.000000 -1.526741E+01
46.000000 -4.000000 -1.824227E+01
46.000000 -6.000000 -2.617643E+01
46.000000 -8.000000 -3.291763E+01
46.000000 -10.000000 -2.564357E+01
46.000000 -12.000000 -3.650423E+00
46.000000 -14.000000 1.061322E+01
46.000000 -16.000000 1.219925E+01
46.000000 -18.000000 4.125730E+00
46.000000 -20.000000 -3.961687E+00
46.000000 -22.000000 -7.080740E+00
46.000000 -24.000000 -1.319809E+01
46.000000 -26.000000 -1.895753E+01
46.000000 -28.000000 -1.789078E+01
46.000000 -30.000000 -1.140783E+01
46.000000 -32.000000 6.463928E-01
46.000000 -34.000000 9.579442E+00
46.000000 -36.000000 2.967564E+00
46.000000 -38.000000 -1.345279E+01
46.000000 -40.000000 -3.633605E+01
48.000000 40.000000 2.504734E+01
48.000000 38.000000 -1.022192E+01
48.000000 36.000000 -4.279471E+01
48.000000 34.000000 -6.305528E+01
48.000000 32.000000 -5.192353E+01
48.000000 30.000000 -2.050790E+01
48.000000 28.000000 1.436601E+01
48.000000 26.000000 3.158928E+01
48.000000 24.000000 3.131561E+01
48.000000 22.000000 3.003299E+01
48.000000 20.000000 4.180858E+01
48.000000 18.000000 6.056789E+01
48.000000 16.000000 7.206866E+01
48.000000 14.000000 7.591707E+01
48.000000 12.000000 6.890363E+01
48.000000 10.000000 5.267926E+01
48.000000 8.000000 2.875337E+01
48.000000 6.000000 6.872857E+00
48.000000 4.000000 -6.153442E+00
48.000000 2.000000 -1.249153E+01
48.000000 0.000000 -1.473327E+01
48.000000 -2.000000 -2.033183E+01
48.000000 -4.000000 -3.039246E+01
48.000000 -6.000000 -4.313835E+01
48.000000 -8.000000 -5.098720E+01
48.000000 -10.000000 -4.715148E+01
48.000000 -12.000000 -2.579108E+01
48.000000 -14.000000 -8.118406E+00
48.000000 -16.000000 -1.491201E+00
48.000000 -18.000000 -6.425568E+00
48.000000 -20.000000 -1.358416E+01
48.000000 -22.000000 -1.558879E+01
48.000000 -24.000000 -1.869897E+01
48.000000 -26.000000 -2.165655E+01
48.000000 -28.000000 -1.835749E+01
48.000000 -30.000000 -1.215021E+01
48.000000 -32.000000 -2.730110E+00
48.000000 -34.000000 3.042044E+00
48.000000 -36.000000 -3.107237E+00
48.000000 -38.000000 -1.639996E+01
48.000000 -40.000000 -3.609866E+01
50.000000 40.000000 3.139684E+01
50.000000 38.000000 -2.965563E+00
50.000000 36.000000 -3.281524E+01
50.000000 34.000000 -5.406744E+01
50.000000 32.000000 -4.982860E+01
50.000000 30.000000 -2.458669E+01
50.000000 28.000000 8.817084E+00
50.000000 26.000000 2.814843E+01
50.000000 24.000000 2.952291E+01
50.000000 22.000000 2.775079E+01
50.000000 20.000000 3.727407E+01
50.000000 18.000000 5.263109E+01
50.000000 16.000000 6.286729E+01
50.000000 14.000000 6.545248E+01
50.000000 12.000000 5.752366E+01
50.000000 10.000000 4.163607E+01
50.000000 8.000000 2.081472E+01
50.000000 6.000000 2.324350E+00
50.000000 4.000000 -8.630017E+00
50.000000 2.000000 -1.430565E+01
50.000000 0.000000 -1.721889E+01
50.000000 -2.000000 -2.512663E+01
50.000000 -4.000000 -3.838601E+01
50.000000 -6.000000 -5.200184E+01
50.000000 -8.000000 -5.734925E+01
50.000000 -10.000000 -5.196934E+01
50.000000 -12.000000 -2.911820E+01
50.000000 -14.000000 -1.052987E+01
50.000000 -16.000000 -3.006236E+00
50.000000 -18.000000 -6.903336E+00
50.000000 -20.000000 -1.484230E+01
50.000000 -22.000000 -1.773774E+01
50.000000 -24.000000 -1.815148E+01
50.000000 -26.000000 -1.827914E+01
50.000000 -28.000000 -1.380350E+01
50.000000 -30.000000 -6.477472E+00
50.000000 -32.000000 1.101065E+00
50.000000 -34.000000 1.735041E+00
