-22.000000 26.000000 -2.874913E+01
-22.000000 24.000000 -2.967341E+01
-22.000000 22.000000 -4.942019E+01
-22.000000 20.000000 -7.108758E+01
-22.000000 18.000000 -7.243189E+01
-22.000000 16.000000 -5.810679E+01
-22.000000 14.000000 -4.562910E+01
-22.000000 12.000000 -3.272545E+01
-22.000000 10.000000 -2.325504E+01
-22.000000 8.000000 -1.392439E+01
-22.000000 6.000000 -2.017547E+00
-22.000000 4.000000 9.455014E+00
-22.000000 2.000000 1.213016E+01
-22.000000 0.000000 6.504571E+00
-22.000000 -2.000000 4.088109E+00
-22.000000 -4.000000 9.975953E+00
-22.000000 -6.000000 2.494446E+01
-22.000000 -8.000000 3.556795E+01
-22.000000 -10.000000 3.925400E+01
-22.000000 -12.000000 4.313380E+01
-22.000000 -14.000000 4.943965E+01
-22.000000 -16.000000 5.564561E+01
-22.000000 -18.000000 5.865695E+01
-22.000000 -20.000000 5.386558E+01
-22.000000 -22.000000 4.461779E+01
-22.000000 -24.000000 4.507196E+01
-22.000000 -26.000000 4.862386E+01
-22.000000 -28.000000 4.171493E+01
-22.000000 -30.000000 3.013953E+01
-22.000000 -32.000000 2.056002E+01
-22.000000 -34.000000 1.852701E+01
-22.000000 -36.000000 2.034391E+01
-22.000000 -38.000000 1.755977E+01
-22.000000 -40.000000 3.832099E+00
-20.000000 40.000000 2.967468E+00
-20.000000 38.000000 -9.180851E+00
-20.000000 36.000000 -1.968139E+01
-20.000000 34.000000 -3.140457E+01
-20.000000 32.000000 -3.953908E+01
-20.000000 30.000000 -3.960250E+01
-20.000000 28.000000 -3.500181E+01
-20.000000 26.000000 -2.758273E+01
-20.000000 24.000000 -2.909104E+01
-20.000000 22.000000 -4.931024E+01
-20.000000 20.000000 -7.023341E+01
-20.000000 18.000000 -6.954985E+01
-20.000000 16.000000 -5.518785E+01
-20.000000 14.000000 -4.564429E+01
-20.000000 12.000000 -3.742732E+01
-20.000000 10.000000 -2.872472E+01
-20.000000 8.000000 -1.770854E+01
-20.000000 6.000000 -3.438757E+00
-20.000000 4.000000 1.232566E+01
-20.000000 2.000000 1.812694E+01
-20.000000 0.000000 1.311433E+01
-20.000000 -2.000000 1.060275E+01
-20.000000 -4.000000 1.613015E+01
-20.000000 -6.000000 2.744942E+01
-20.000000 -8.000000 3.506676E+01
-20.000000 -10.000000 3.561694E+01
-20.000000 -12.000000 3.637573E+01
-20.000000 -14.000000 3.964438E+01
-20.000000 -16.000000 4.476460E+01
-20.000000 -18.000000 5.018708E+01
-20.000000 -20.000000 5.048159E+01
-20.000000 -22.000000 4.658395E+01
-20.000000 -24.000000 4.858588E+01
-20.000000 -26.000000 5.238845E+01
-20.000000 -28.000000 4.659532E+01
-20.000000 -30.000000 3.679913E+01
-20.000000 -32.000000 2.735968E+01
-20.000000 -34.000000 2.563974E+01
-20.000000 -36.000000 2.605940E+01
-20.000000 -38.000000 2.148778E+01
-20.000000 -40.000000 7.836672E+00
-18.000000 40.000000 4.186642E+00
-18.000000 38.000000 -8.668900E+00
-18.000000 36.000000 -2.089526E+01
-18.000000 34.000000 -3.432696E+01
-18.000000 32.000000 -4.219983E+01
-18.000000 30.000000 -4.114683E+01
-18.000000 28.000000 -3.620048E+01
-18.000000 26.000000 -2.924726E+01
-18.000000 24.000000 -3.090516E+01
-18.000000 22.000000 -4.803860E+01
-18.000000 20.000000 -6.419904E+01
-18.000000 18.000000 -5.766496E+01
-18.000000 16.000000 -4.018085E+01
-18.000000 14.000000 -3.329101E+01
-18.000000 12.000000 -3.403390E+01
-18.000000 10.000000 -2.950377E+01
-18.000000 8.000000 -1.746360E+01
-18.000000 6.000000 -2.145463E+00
-18.000000 4.000000 1.098058E+01
-18.000000 2.000000 1.469564E+01
-18.000000 0.000000 1.256953E+01
-18.000000 -2.000000 1.532104E+01
-18.000000 -4.000000 2.593164E+01
-18.000000 -6.000000 3.664408E+01
-18.000000 -8.000000 3.815956E+01
-18.000000 -10.000000 3.108698E+01
-18.000000 -12.000000 2.605488E+01
-18.000000 -14.000000 2.727885E+01
-18.000000 -16.000000 3.283413E+01
-18.000000 -18.000000 3.957732E+01
-18.000000 -20.000000 4.224791E+01
-18.000000 -22.000000 4.105021E+01
-18.000000 -24.000000 4.556787E+01
-18.000000 -26.000000 5.203318E+01
-18.000000 -28.000000 4.898770E+01
-18.000000 -30.000000 4.147568E+01
-18.000000 -32.000000 3.190341E+01
-18.000000 -34.000000 2.936218E+01
-18.000000 -36.000000 2.808989E+01
-18.000000 -38.000000 2.322183E+01
-18.000000 -40.000000 1.246815E+01
-16.000000 40.000000 8.660103E+00
-16.000000 38.000000 -5.819023E+00
-16.000000 36.000000 -2.066792E+01
-16.000000 34.000000 -3.444424E+01
-16.000000 32.000000 -4.146978E+01
-16.000000 30.000000 -4.161154E+01
-16.000000 28.000000 -3.792678E+01
-16.000000 26.000000 -3.193764E+01
-16.000000 24.000000 -3.238178E+01
-16.000000 22.000000 -4.217861E+01
-16.000000 20.000000 -4.750830E+01
-16.000000 18.000000 -3.315517E+01
-16.000000 16.000000 -1.515216E+01
-16.000000 14.000000 -1.405227E+01
-16.000000 12.000000 -2.867138E+01
-16.000000 10.000000 -3.775877E+01
-16.000000 8.000000 -3.232989E+01
-16.000000 6.000000 -1.870539E+01
-16.000000 4.000000 -5.454481E+00
-16.000000 2.000000 1.724613E+00
-16.000000 0.000000 5.917128E+00
-16.000000 -2.000000 1.591106E+01
-16.000000 -4.000000 3.284505E+01
-16.000000 -6.000000 4.576018E+01
-16.000000 -8.000000 4.472973E+01
-16.000000 -10.000000 3.423179E+01
-16.000000 -12.000000 2.535286E+01
-16.000000 -14.000000 2.575035E+01
-16.000000 -16.000000 3.140336E+01
-16.000000 -18.000000 3.623974E+01
-16.000000 -20.000000 3.648795E+01
-16.000000 -22.000000 3.327010E+01
-16.000000 -24.000000 3.899027E+01
-16.000000 -26.000000 4.838543E+01
-16.000000 -28.000000 4.723551E+01
-16.000000 -30.000000 4.102002E+01
-16.000000 -32.000000 3.328681E+01
-16.000000 -34.000000 3.072981E+01
-16.000000 -36.000000 2.895750E+01
-16.000000 -38.000000 2.457291E+01
-16.000000 -40.000000 1.656017E+01
-14.000000 40.000000 1.059072E+01
-14.000000 38.000000 -2.278694E+00
-14.000000 36.000000 -1.441087E+01
-14.000000 34.000000 -2.507869E+01
-14.000000 32.000000 -3.113929E+01
-14.000000 30.000000 -3.424434E+01
-14.000000 28.000000 -3.413654E+01
-14.000000 26.000000 -2.966796E+01
-14.000000 24.000000 -2.778760E+01
-14.000000 22.000000 -3.025910E+01
-14.000000 20.000000 -2.577955E+01
-14.000000 18.000000 -7.174212E+00
-14.000000 16.000000 5.680965E+00
-14.000000 14.000000 -4.195286E+00
-14.000000 12.000000 -3.530087E+01
-14.000000 10.000000 -6.401178E+01
-14.000000 8.000000 -6.870161E+01
-14.000000 6.000000 -5.536436E+01
-14.000000 4.000000 -3.215647E+01
-14.000000 2.000000 -1.305491E+01
-14.000000 0.000000 -5.992379E-01
-14.000000 -2.000000 1.447694E+01
-14.000000 -4.000000 3.258308E+01
-14.000000 -6.000000 4.618998E+01
-14.000000 -8.000000 4.819660E+01
-14.000000 -10.000000 4.169291E+01
-14.000000 -12.000000 3.547165E+01
-14.000000 -14.000000 3.656376E+01
-14.000000 -16.000000 4.080329E+01
-14.000000 -18.000000 4.178767E+01
-14.000000 -20.000000 3.756427E+01
-14.000000 -22.000000 3.198817E+01
-14.000000 -24.000000 3.772158E+01
-14.000000 -26.000000 4.735874E+01
-14.000000 -28.000000 4.582722E+01
-14.000000 -30.000000 3.872560E+01
-14.000000 -32.000000 3.194070E+01
-14.000000 -34.000000 3.009823E+01
-14.000000 -36.000000 2.906981E+01
-14.000000 -38.000000 2.574437E+01
-14.000000 -40.000000 1.895249E+01
-12.000000 40.000000 8.715752E+00
-12.000000 38.000000 1.888088E+00
-12.000000 36.000000 -1.535011E+00
-12.000000 34.000000 -5.470840E+00
-12.000000 32.000000 -1.074095E+01
-12.000000 30.000000 -1.922786E+01
-12.000000 28.000000 -2.574387E+01
-12.000000 26.000000 -2.364719E+01
-12.000000 24.000000 -2.030785E+01
-12.000000 22.000000 -2.099515E+01
-12.000000 20.000000 -1.527809E+01
-12.000000 18.000000 3.859921E-01
-12.000000 16.000000 6.839504E+00
-12.000000 14.000000 -1.200952E+01
-12.000000 12.000000 -5.387157E+01
-12.000000 10.000000 -9.540488E+01
-12.000000 8.000000 -1.040977E+02
-12.000000 6.000000 -8.741105E+01
-12.000000 4.000000 -5.216360E+01
-12.000000 2.000000 -2.203795E+01
-12.000000 0.000000 -3.299737E+00
-12.000000 -2.000000 1.150450E+01
-12.000000 -4.000000 2.578106E+01
-12.000000 -6.000000 3.877555E+01
-12.000000 -8.000000 4.502815E+01
-12.000000 -10.000000 4.534148E+01
-12.000000 -12.000000 4.655416E+01
-12.000000 -14.000000 5.075795E+01
-12.000000 -16.000000 5.385118E+01
-12.000000 -18.000000 5.262203E+01
-12.000000 -20.000000 4.577142E+01
-12.000000 -22.000000 3.935733E+01
-12.000000 -24.000000 4.433192E+01
-12.000000 -26.000000 5.162004E+01
-12.000000 -28.000000 4.810675E+01
-12.000000 -30.000000 3.902635E+01
-12.000000 -32.000000 3.099287E+01
-12.000000 -34.000000 2.919715E+01
-12.000000 -36.000000 2.896332E+01
-12.000000 -38.000000 2.651368E+01
-12.000000 -40.000000 1.908211E+01
-10.000000 40.000000 7.710930E+00
-10.000000 38.000000 7.451706E+00
-10.000000 36.000000 1.271577E+01
-10.000000 34.000000 1.718711E+01
-10.000000 32.000000 1.256998E+01
-10.000000 30.000000 -3.869900E+00
-10.000000 28.000000 -1.980850E+01
-10.000000 26.000000 -2.181152E+01
-10.000000 24.000000 -1.933992E+01
-10.000000 22.000000 -2.482533E+01
-10.000000 20.000000 -2.653169E+01
-10.000000 18.000000 -1.618404E+01
-10.000000 16.000000 -1.088953E+01
-10.000000 14.000000 -3.037115E+01
-10.000000 12.000000 -7.131826E+01
-10.000000 10.000000 -1.126970E+02
-10.000000 8.000000 -1.183639E+02
-10.000000 6.000000 -9.572788E+01
-10.000000 4.000000 -5.335786E+01
-10.000000 2.000000 -2.032357E+01
-10.000000 0.000000 -1.314884E+00
-10.000000 -2.000000 8.817926E+00
-10.000000 -4.000000 1.773936E+01
-10.000000 -6.000000 3.008178E+01
-10.000000 -8.000000 3.843033E+01
-10.000000 -10.000000 4.336048E+01
-10.000000 -12.000000 5.089753E+01
-10.000000 -14.000000 5.862935E+01
-10.000000 -16.000000 6.276451E+01
-10.000000 -18.000000 6.243990E+01
-10.000000 -20.000000 5.609103E+01
-10.000000 -22.000000 5.025947E+01
-10.000000 -24.000000 5.444066E+01
-10.000000 -26.000000 5.992194E+01
-10.000000 -28.000000 5.415988E+01
-10.000000 -30.000000 4.396116E+01
-10.000000 -32.000000 3.432141E+01
-10.000000 -34.000000 2.991844E+01
-10.000000 -36.000000 2.867121E+01
-10.000000 -38.000000 2.590028E+01
-10.000000 -40.000000 1.623445E+01
-8.000000 40.000000 7.763363E+00
-8.000000 38.000000 1.198407E+01
-8.000000 36.000000 2.391241E+01
-8.000000 34.000000 3.570250E+01
-8.000000 32.000000 3.052946E+01
-8.000000 30.000000 6.578796E+00
-8.000000 28.000000 -1.700164E+01
-8.000000 26.000000 -2.428190E+01
-8.000000 24.000000 -2.739475E+01
-8.000000 22.000000 -4.059531E+01
-8.000000 20.000000 -5.145509E+01
-8.000000 18.000000 -4.405455E+01
-8.000000 16.000000 -3.431106E+01
-8.000000 14.000000 -4.872871E+01
-8.000000 12.000000 -8.060546E+01
-8.000000 10.000000 -1.104681E+02
-8.000000 8.000000 -1.059696E+02
-8.000000 6.000000 -7.679393E+01
-8.000000 4.000000 -3.476472E+01
-8.000000 2.000000 -7.932191E+00
-8.000000 0.000000 3.916152E+00
-8.000000 -2.000000 8.792140E+00
-8.000000 -4.000000 1.514494E+01
-8.000000 -6.000000 2.635207E+01
-8.000000 -8.000000 3.316401E+01
-8.000000 -10.000000 3.726797E+01
-8.000000 -12.000000 4.437704E+01
-8.000000 -14.000000 5.404474E+01
-8.000000 -16.000000 6.200752E+01
-8.000000 -18.000000 6.446092E+01
-8.000000 -20.000000 6.054767E+01
-8.000000 -22.000000 5.674679E+01
-8.000000 -24.000000 6.140366E+01
-8.000000 -26.000000 6.729796E+01
-8.000000 -28.000000 6.112170E+01
-8.000000 -30.000000 5.170338E+01
-8.000000 -32.000000 4.104308E+01
-8.000000 -34.000000 3.223424E+01
-8.000000 -36.000000 2.745162E+01
-8.000000 -38.000000 2.298747E+01
-8.000000 -40.000000 1.115862E+01
-6.000000 40.000000 6.787945E+00
-6.000000 38.000000 1.267453E+01
-6.000000 36.000000 2.906565E+01
-6.000000 34.000000 4.467344E+01
-6.000000 32.000000 3.733596E+01
-6.000000 30.000000 9.015900E+00
-6.000000 28.000000 -1.770994E+01
-6.000000 26.000000 -2.973472E+01
-6.000000 24.000000 -4.096620E+01
-6.000000 22.000000 -5.777909E+01
-6.000000 20.000000 -7.088760E+01
-6.000000 18.000000 -6.141482E+01
-6.000000 16.000000 -4.582221E+01
-6.000000 14.000000 -5.134867E+01
-6.000000 12.000000 -6.878296E+01
-6.000000 10.000000 -8.229410E+01
-6.000000 8.000000 -6.915832E+01
-6.000000 6.000000 -3.966151E+01
-6.000000 4.000000 -7.500936E+00
-6.000000 2.000000 6.915137E+00
-6.000000 0.000000 9.085088E+00
-6.000000 -2.000000 9.254919E+00
-6.000000 -4.000000 1.451907E+01
-6.000000 -6.000000 2.429375E+01
-6.000000 -8.000000 2.669975E+01
-6.000000 -10.000000 2.504715E+01
-6.000000 -12.000000 2.952446E+01
-6.000000 -14.000000 4.036091E+01
-6.000000 -16.000000 5.092745E+01
-6.000000 -18.000000 5.542090E+01
-6.000000 -20.000000 5.407601E+01
-6.000000 -22.000000 5.259713E+01
-6.000000 -24.000000 5.856221E+01
-6.000000 -26.000000 6.631227E+01
-6.000000 -28.000000 6.251132E+01
-6.000000 -30.000000 5.498608E+01
-6.000000 -32.000000 4.477624E+01
-6.000000 -34.000000 3.422472E+01
-6.000000 -36.000000 2.599734E+01
-6.000000 -38.000000 1.901077E+01
-6.000000 -40.000000 6.938527E+00
-4.000000 40.000000 4.680580E+00
-4.000000 38.000000 9.411865E+00
-4.000000 36.000000 2.733249E+01
-4.000000 34.000000 4.319510E+01
-4.000000 32.000000 3.386477E+01
-4.000000 30.000000 3.616646E+00
-4.000000 28.000000 -2.467517E+01
-4.000000 26.000000 -3.834599E+01
-4.000000 24.000000 -5.182391E+01
-4.000000 22.000000 -6.532174E+01
-4.000000 20.000000 -7.283993E+01
-4.000000 18.000000 -5.694903E+01
-4.000000 16.000000 -3.667816E+01
-4.000000 14.000000 -3.276786E+01
-4.000000 12.000000 -3.583037E+01
-4.000000 10.000000 -3.399578E+01
-4.000000 8.000000 -2.012090E+01
-4.000000 6.000000 7.146692E-01
-4.000000 4.000000 1.622619E+01
-4.000000 2.000000 1.758262E+01
-4.000000 0.000000 1.227995E+01
-4.000000 -2.000000 9.134925E+00
-4.000000 -4.000000 1.381390E+01
-4.000000 -6.000000 2.096814E+01
-4.000000 -8.000000 1.712282E+01
-4.000000 -10.000000 8.890693E+00
-4.000000 -12.000000 1.367020E+01
-4.000000 -14.000000 2.590244E+01
-4.000000 -16.000000 3.447126E+01
-4.000000 -18.000000 3.730091E+01
-4.000000 -20.000000 3.724856E+01
-4.000000 -22.000000 3.794628E+01
-4.000000 -24.000000 4.449458E+01
-4.000000 -26.000000 5.310657E+01
-4.000000 -28.000000 5.165079E+01
-4.000000 -30.000000 4.591954E+01
-4.000000 -32.000000 3.840578E+01
-4.000000 -34.000000 3.136409E+01
-4.000000 -36.000000 2.444535E+01
-4.000000 -38.000000 1.721311E+01
-4.000000 -40.000000 7.005994E+00
-2.000000 40.000000 1.750652E+00
-2.000000 38.000000 3.274281E+00
-2.000000 36.000000 1.987582E+01
-2.000000 34.000000 3.413097E+01
-2.000000 32.000000 2.434014E+01
-2.000000 30.000000 -4.952765E+00
-2.000000 28.000000 -3.228663E+01
-2.000000 26.000000 -4.306393E+01
-2.000000 24.000000 -5.183180E+01
-2.000000 22.000000 -5.858576E+01
-2.000000 20.000000 -5.793689E+01
-2.000000 18.000000 -3.668034E+01
-2.000000 16.000000 -1.478447E+01
-2.000000 14.000000 -6.150270E+00
-2.000000 12.000000 -1.997629E+00
-2.000000 10.000000 7.128157E+00
-2.000000 8.000000 1.595444E+01
-2.000000 6.000000 2.626587E+01
-2.000000 4.000000 2.916211E+01
-2.000000 2.000000 2.320627E+01
-2.000000 0.000000 1.459145E+01
-2.000000 -2.000000 1.098484E+01
-2.000000 -4.000000 1.501339E+01
-2.000000 -6.000000 1.848876E+01
-2.000000 -8.000000 1.078307E+01
-2.000000 -10.000000 -1.951871E-01
-2.000000 -12.000000 3.756511E+00
-2.000000 -14.000000 1.478892E+01
-2.000000 -16.000000 1.956920E+01
-2.000000 -18.000000 1.863315E+01
-2.000000 -20.000000 1.761712E+01
-2.000000 -22.000000 1.884997E+01
-2.000000 -24.000000 2.440540E+01
-2.000000 -26.000000 3.082589E+01
-2.000000 -28.000000 2.946812E+01
-2.000000 -30.000000 2.510901E+01
-2.000000 -32.000000 2.216885E+01
-2.000000 -34.000000 2.210488E+01
-2.000000 -36.000000 2.165520E+01
-2.000000 -38.000000 1.830336E+01
-2.000000 -40.000000 1.124494E+01
0.000000 40.000000 -1.280228E+00
0.000000 38.000000 -3.465345E+00
0.000000 36.000000 9.345814E+00
0.000000 34.000000 2.144195E+01
0.000000 32.000000 1.287839E+01
0.000000 30.000000 -1.197052E+01
0.000000 28.000000 -3.377772E+01
0.000000 26.000000 -3.934800E+01
0.000000 24.000000 -4.127007E+01
0.000000 22.000000 -4.211728E+01
0.000000 20.000000 -3.609571E+01
0.000000 18.000000 -1.516261E+01
0.000000 16.000000 3.971363E+00
0.000000 14.000000 1.203877E+01
0.000000 12.000000 1.568261E+01
0.000000 10.000000 2.258681E+01
0.000000 8.000000 2.461793E+01
0.000000 6.000000 2.704064E+01
0.000000 4.000000 2.706058E+01
0.000000 2.000000 2.348268E+01
0.000000 0.000000 1.772812E+01
0.000000 -2.000000 1.628682E+01
0.000000 -4.000000 1.977447E+01
0.000000 -6.000000 2.032923E+01
0.000000 -8.000000 1.112840E+01
0.000000 -10.000000 -2.123251E-01
0.000000 -12.000000 1.506467E+00
0.000000 -14.000000 9.472549E+00
0.000000 -16.000000 1.122927E+01
0.000000 -18.000000 7.605696E+00
0.000000 -20.000000 4.562176E+00
0.000000 -22.000000 3.639301E+00
0.000000 -24.000000 6.814304E+00
0.000000 -26.000000 1.003593E+01
0.000000 -28.000000 6.706978E+00
0.000000 -30.000000 1.594737E+00
0.000000 -32.000000 2.283082E+00
0.000000 -34.000000 9.555465E+00
0.000000 -36.000000 1.788632E+01
0.000000 -38.000000 2.062813E+01
0.000000 -40.000000 1.555540E+01
2.000000 40.000000 -1.864611E+00
2.000000 38.000000 -7.975908E+00
2.000000 36.000000 -5.224838E-01
2.000000 34.000000 8.695974E+00
2.000000 32.000000 2.386906E+00
2.000000 30.000000 -1.603857E+01
2.000000 28.000000 -3.125984E+01
2.000000 26.000000 -3.232348E+01
2.000000 24.000000 -2.806625E+01
2.000000 22.000000 -2.639916E+01
2.000000 20.000000 -2.138983E+01
2.000000 18.000000 -7.109650E+00
2.000000 16.000000 7.937042E+00
2.000000 14.000000 1.573847E+01
2.000000 12.000000 1.782532E+01
2.000000 10.000000 1.694943E+01
2.000000 8.000000 9.699340E+00
2.000000 6.000000 7.462613E+00
2.000000 4.000000 1.270310E+01
2.000000 2.000000 1.906595E+01
2.000000 0.000000 2.231295E+01
2.000000 -2.000000 2.403283E+01
2.000000 -4.000000 2.681276E+01
2.000000 -6.000000 2.546221E+01
2.000000 -8.000000 1.568667E+01
2.000000 -10.000000 4.068468E+00
2.000000 -12.000000 3.706020E+00
2.000000 -14.000000 8.963507E+00
2.000000 -16.000000 9.111989E+00
2.000000 -18.000000 5.488829E+00
2.000000 -20.000000 1.795500E+00
2.000000 -22.000000 -1.072738E+00
2.000000 -24.000000 8.107185E-02
2.000000 -26.000000 1.268153E+00
2.000000 -28.000000 -4.077433E+00
2.000000 -30.000000 -1.192876E+01
2.000000 -32.000000 -1.182692E+01
2.000000 -34.000000 -8.980818E-01
2.000000 -36.000000 1.323993E+01
2.000000 -38.000000 1.991232E+01
2.000000 -40.000000 1.500458E+01
4.000000 40.000000 1.766485E+00
4.000000 38.000000 -8.380135E+00
4.000000 36.000000 -6.998663E+00
4.000000 34.000000 -2.285484E+00
4.000000 32.000000 -6.651396E+00
4.000000 30.000000 -1.870668E+01
4.000000 28.000000 -2.892661E+01
4.000000 26.000000 -2.685779E+01
4.000000 24.000000 -1.979921E+01
4.000000 22.000000 -1.983716E+01
4.000000 20.000000 -1.967950E+01
4.000000 18.000000 -9.914763E+00
4.000000 16.000000 4.363920E+00
4.000000 14.000000 1.267470E+01
4.000000 12.000000 1.230691E+01
4.000000 10.000000 1.544688E+00
4.000000 8.000000 -1.795939E+01
4.000000 6.000000 -2.555924E+01
4.000000 4.000000 -1.227141E+01
4.000000 2.000000 7.484522E+00
4.000000 0.000000 2.300438E+01
4.000000 -2.000000 3.037124E+01
4.000000 -4.000000 3.198621E+01
4.000000 -6.000000 2.739268E+01
4.000000 -8.000000 1.793845E+01
4.000000 -10.000000 8.221497E+00
4.000000 -12.000000 7.847069E+00
4.000000 -14.000000 1.173312E+01
4.000000 -16.000000 1.202363E+01
4.000000 -18.000000 9.885297E+00
4.000000 -20.000000 7.541341E+00
4.000000 -22.000000 5.821347E+00
4.000000 -24.000000 7.156312E+00
4.000000 -26.000000 8.069058E+00
4.000000 -28.000000 2.100256E+00
4.000000 -30.000000 -8.397127E+00
4.000000 -32.000000 -1.429361E+01
4.000000 -34.000000 -6.014384E+00
4.000000 -36.000000 7.603942E+00
4.000000 -38.000000 1.398478E+01
4.000000 -40.000000 8.337346E+00
6.000000 40.000000 8.015686E+00
6.000000 38.000000 -4.588230E+00
6.000000 36.000000 -8.562822E+00
6.000000 34.000000 -9.943994E+00
6.000000 32.000000 -1.422001E+01
6.000000 30.000000 -2.221423E+01
6.000000 28.000000 -2.816285E+01
6.000000 26.000000 -2.449181E+01
6.000000 24.000000 -1.776180E+01
6.000000 22.000000 -1.906342E+01
6.000000 20.000000 -2.045083E+01
6.000000 18.000000 -1.043056E+01
6.000000 16.000000 2.750607E+00
6.000000 14.000000 7.224020E+00
6.000000 12.000000 -4.907894E-02
6.000000 10.000000 -2.103440E+01
6.000000 8.000000 -5.130336E+01
6.000000 6.000000 -6.493106E+01
6.000000 4.000000 -4.325946E+01
6.000000 2.000000 -8.276623E+00
6.000000 0.000000 2.027883E+01
6.000000 -2.000000 3.567215E+01
6.000000 -4.000000 3.684973E+01
6.000000 -6.000000 2.787937E+01
6.000000 -8.000000 1.632343E+01
6.000000 -10.000000 6.631981E+00
6.000000 -12.000000 8.757631E+00
6.000000 -14.000000 1.602287E+01
6.000000 -16.000000 1.937853E+01
6.000000 -18.000000 1.888200E+01
6.000000 -20.000000 1.827320E+01
6.000000 -22.000000 1.940323E+01
6.000000 -24.000000 2.254888E+01
6.000000 -26.000000 2.417238E+01
6.000000 -28.000000 1.732832E+01
6.000000 -30.000000 5.354018E+00
6.000000 -32.000000 -6.432333E+00
6.000000 -34.000000 -4.996920E+00
6.000000 -36.000000 2.801939E+00
6.000000 -38.000000 6.845688E+00
6.000000 -40.000000 -4.879799E-01
8.000000 40.000000 1.559383E+01
8.000000 38.000000 2.392155E+00
8.000000 36.000000 -5.518349E+00
8.000000 34.000000 -1.364368E+01
8.000000 32.000000 -2.028011E+01
8.000000 30.000000 -2.781493E+01
8.000000 28.000000 -3.210410E+01
8.000000 26.000000 -2.837998E+01
8.000000 24.000000 -2.148623E+01
8.000000 22.000000 -1.938687E+01
8.000000 20.000000 -1.722143E+01
8.000000 18.000000 -4.732044E+00
8.000000 16.000000 5.093244E+00
8.000000 14.000000 1.298257E+00
8.000000 12.000000 -1.667951E+01
8.000000 10.000000 -4.788936E+01
8.000000 8.000000 -8.299867E+01
8.000000 6.000000 -9.828019E+01
8.000000 4.000000 -7.000432E+01
8.000000 2.000000 -2.040509E+01
8.000000 0.000000 2.145659E+01
8.000000 -2.000000 4.588867E+01
8.000000 -4.000000 4.898807E+01
8.000000 -6.000000 3.369067E+01
8.000000 -8.000000 1.323310E+01
8.000000 -10.000000 -1.911773E+00
8.000000 -12.000000 4.203528E+00
8.000000 -14.000000 1.949350E+01
8.000000 -16.000000 2.907105E+01
8.000000 -18.000000 3.062024E+01
8.000000 -20.000000 3.026211E+01
8.000000 -22.000000 3.210823E+01
8.000000 -24.000000 3.597606E+01
8.000000 -26.000000 3.870921E+01
8.000000 -28.000000 3.112987E+01
8.000000 -30.000000 1.984696E+01
8.000000 -32.000000 7.070341E+00
8.000000 -34.000000 2.093489E+00
8.000000 -36.000000 1.577072E+00
8.000000 -38.000000 2.012147E+00
8.000000 -40.000000 -7.960436E+00
10.000000 40.000000 2.468073E+01
10.000000 38.000000 1.139142E+01
10.000000 36.000000 7.986755E-01
10.000000 34.000000 -1.323089E+01
10.000000 32.000000 -2.497533E+01
10.000000 30.000000 -3.580956E+01
10.000000 28.000000 -4.145659E+01
10.000000 26.000000 -3.739707E+01
10.000000 24.000000 -2.925397E+01
10.000000 22.000000 -2.332197E+01
10.000000 20.000000 -1.821308E+01
10.000000 18.000000 -4.922112E+00
10.000000 16.000000 2.041255E+00
10.000000 14.000000 -7.661675E+00
10.000000 12.000000 -3.218176E+01
10.000000 10.000000 -6.892770E+01
10.000000 8.000000 -1.041476E+02
10.000000 6.000000 -1.173407E+02
10.000000 4.000000 -8.426010E+01
10.000000 2.000000 -2.270837E+01
10.000000 0.000000 3.357632E+01
10.000000 -2.000000 6.955369E+01
10.000000 -4.000000 7.725448E+01
10.000000 -6.000000 5.226164E+01
10.000000 -8.000000 1.546212E+01
10.000000 -10.000000 -1.079362E+01
10.000000 -12.000000 -1.106363E+00
10.000000 -14.000000 2.412942E+01
10.000000 -16.000000 4.249977E+01
10.000000 -18.000000 4.584111E+01
10.000000 -20.000000 4.238233E+01
10.000000 -22.000000 3.930564E+01
10.000000 -24.000000 4.017847E+01
10.000000 -26.000000 4.274470E+01
10.000000 -28.000000 3.698979E+01
10.000000 -30.000000 2.911395E+01
10.000000 -32.000000 1.979883E+01
10.000000 -34.000000 1.272257E+01
10.000000 -36.000000 4.767262E+00
10.000000 -38.000000 -3.249025E-01
10.000000 -40.000000 -1.261179E+01
12.000000 40.000000 3.363151E+01
12.000000 38.000000 2.080112E+01
12.000000 36.000000 8.815447E+00
12.000000 34.000000 -9.442200E+00
12.000000 32.000000 -2.730312E+01
12.000000 30.000000 -4.360636E+01
12.000000 28.000000 -5.181151E+01
12.000000 26.000000 -4.679963E+01
12.000000 24.000000 -3.727758E+01
12.000000 22.000000 -3.032323E+01
12.000000 20.000000 -2.750671E+01
12.000000 18.000000 -1.801413E+01
12.000000 16.000000 -1.190728E+01
12.000000 14.000000 -2.137235E+01
12.000000 12.000000 -4.474825E+01
12.000000 10.000000 -8.122950E+01
12.000000 8.000000 -1.149355E+02
12.000000 6.000000 -1.257883E+02
12.000000 4.000000 -9.030792E+01
12.000000 2.000000 -2.060686E+01
12.000000 0.000000 5.197943E+01
12.000000 -2.000000 1.029907E+02
12.000000 -4.000000 1.182533E+02
12.000000 -6.000000 8.458779E+01
12.000000 -8.000000 2.918972E+01
12.000000 -10.000000 -1.145623E+01
12.000000 -12.000000 7.607746E-01
12.000000 -14.000000 3.783842E+01
12.000000 -16.000000 6.809307E+01
12.000000 -18.000000 7.250936E+01
12.000000 -20.000000 5.932727E+01
12.000000 -22.000000 4.331875E+01
12.000000 -24.000000 3.614583E+01
12.000000 -26.000000 3.594984E+01
12.000000 -28.000000 3.224261E+01
12.000000 -30.000000 2.797632E+01
12.000000 -32.000000 2.398841E+01
12.000000 -34.000000 1.955754E+01
12.000000 -36.000000 9.152925E+00
12.000000 -38.000000 -2.521553E-01
12.000000 -40.000000 -1.380811E+01
14.000000 40.000000 3.973244E+01
14.000000 38.000000 2.847800E+01
14.000000 36.000000 1.682105E+01
14.000000 34.000000 -2.972016E+00
14.000000 32.000000 -2.535561E+01
14.000000 30.000000 -4.701135E+01
14.000000 28.000000 -5.831378E+01
14.000000 26.000000 -5.213005E+01
14.000000 24.000000 -4.055223E+01
14.000000 22.000000 -3.429417E+01
14.000000 20.000000 -3.636671E+01
14.000000 18.000000 -3.167867E+01
14.000000 16.000000 -2.496763E+01
14.000000 14.000000 -3.306404E+01
14.000000 12.000000 -5.366992E+01
14.000000 10.000000 -8.791725E+01
14.000000 8.000000 -1.200808E+02
14.000000 6.000000 -1.317908E+02
14.000000 4.000000 -9.839553E+01
14.000000 2.000000 -2.577059E+01
14.000000 0.000000 5.886142E+01
14.000000 -2.000000 1.246344E+02
14.000000 -4.000000 1.496989E+02
14.000000 -6.000000 1.143527E+02
14.000000 -8.000000 4.880139E+01
14.000000 -10.000000 7.007303E-01
14.000000 -12.000000 1.806269E+01
14.000000 -14.000000 6.938032E+01
14.000000 -16.000000 1.107338E+02
14.000000 -18.000000 1.117914E+02
14.000000 -20.000000 8.167968E+01
14.000000 -22.000000 4.788350E+01
14.000000 -24.000000 2.922082E+01
14.000000 -26.000000 2.500905E+01
14.000000 -28.000000 2.076702E+01
14.000000 -30.000000 1.694565E+01
14.000000 -32.000000 1.626036E+01
14.000000 -34.000000 1.656456E+01
14.000000 -36.000000 1.054625E+01
14.000000 -38.000000 1.459425E+00
14.000000 -40.000000 -1.234850E+01
16.000000 40.000000 4.202991E+01
16.000000 38.000000 3.257951E+01
16.000000 36.000000 2.284238E+01
16.000000 34.000000 4.870043E+00
16.000000 32.000000 -1.827608E+01
16.000000 30.000000 -4.265245E+01
16.000000 28.000000 -5.624585E+01
16.000000 26.000000 -4.955155E+01
16.000000 24.000000 -3.617912E+01
16.000000 22.000000 -3.275485E+01
16.000000 20.000000 -3.900993E+01
16.000000 18.000000 -3.631062E+01
16.000000 16.000000 -2.924916E+01
16.000000 14.000000 -3.651692E+01
16.000000 12.000000 -5.600019E+01
16.000000 10.000000 -9.012817E+01
16.000000 8.000000 -1.217999E+02
16.000000 6.000000 -1.360388E+02
16.000000 4.000000 -1.076794E+02
16.000000 2.000000 -3.869652E+01
16.000000 0.000000 4.804863E+01
16.000000 -2.000000 1.224733E+02
16.000000 -4.000000 1.545459E+02
16.000000 -6.000000 1.252924E+02
16.000000 -8.000000 6.524921E+01
16.000000 -10.000000 2.413350E+01
16.000000 -12.000000 5.164782E+01
16.000000 -14.000000 1.156685E+02
16.000000 -16.000000 1.605624E+02
16.000000 -18.000000 1.493010E+02
16.000000 -20.000000 9.762059E+01
16.000000 -22.000000 4.779892E+01
16.000000 -24.000000 2.103077E+01
16.000000 -26.000000 1.405002E+01
16.000000 -28.000000 7.444533E+00
16.000000 -30.000000 2.360315E+00
16.000000 -32.000000 2.394806E+00
16.000000 -34.000000 7.272248E+00
16.000000 -36.000000 9.251949E+00
16.000000 -38.000000 3.430465E+00
16.000000 -40.000000 -1.045109E+01
18.000000 40.000000 4.245349E+01
18.000000 38.000000 3.335648E+01
18.000000 36.000000 2.534059E+01
18.000000 34.000000 1.132272E+01
18.000000 32.000000 -8.777093E+00
18.000000 30.000000 -3.251158E+01
18.000000 28.000000 -4.700294E+01
18.000000 26.000000 -4.180845E+01
18.000000 24.000000 -2.989452E+01
18.000000 22.000000 -3.022065E+01
18.000000 20.000000 -3.733785E+01
18.000000 18.000000 -3.254546E+01
18.000000 16.000000 -2.410800E+01
18.000000 14.000000 -2.832244E+01
18.000000 12.000000 -4.699534E+01
18.000000 10.000000 -8.159409E+01
18.000000 8.000000 -1.153300E+02
18.000000 6.000000 -1.335289E+02
18.000000 4.000000 -1.116162E+02
18.000000 2.000000 -4.960803E+01
18.000000 0.000000 3.031245E+01
18.000000 -2.000000 1.012756E+02
18.000000 -4.000000 1.335411E+02
18.000000 -6.000000 1.136616E+02
18.000000 -8.000000 6.974719E+01
18.000000 -10.000000 4.761467E+01
18.000000 -12.000000 9.221527E+01
18.000000 -14.000000 1.655928E+02
18.000000 -16.000000 2.036246E+02
18.000000 -18.000000 1.709726E+02
18.000000 -20.000000 9.703307E+01
18.000000 -22.000000 3.670259E+01
18.000000 -24.000000 1.040413E+01
18.000000 -26.000000 5.169339E+00
18.000000 -28.000000 -2.987448E+00
18.000000 -30.000000 -9.800949E+00
18.000000 -32.000000 -1.139383E+01
18.000000 -34.000000 -3.458822E+00
18.000000 -36.000000 6.405956E+00
18.000000 -38.000000 4.224772E+00
18.000000 -40.000000 -9.888252E+00
20.000000 40.000000 4.307925E+01
20.000000 38.000000 3.290521E+01
20.000000 36.000000 2.591104E+01
20.000000 34.000000 1.604096E+01
20.000000 32.000000 -1.447430E-01
20.000000 30.000000 -2.356085E+01
20.000000 28.000000 -3.963643E+01
20.000000 26.000000 -3.657466E+01
20.000000 24.000000 -2.750650E+01
20.000000 22.000000 -2.907643E+01
20.000000 20.000000 -3.454611E+01
20.000000 18.000000 -2.584970E+01
20.000000 16.000000 -1.325570E+01
20.000000 14.000000 -1.188361E+01
20.000000 12.000000 -2.737334E+01
20.000000 10.000000 -6.029943E+01
20.000000 8.000000 -9.840704E+01
20.000000 6.000000 -1.216692E+02
20.000000 4.000000 -1.074088E+02
20.000000 2.000000 -5.511637E+01
20.000000 0.000000 1.203508E+01
20.000000 -2.000000 7.054215E+01
20.000000 -4.000000 9.790304E+01
20.000000 -6.000000 8.669794E+01
20.000000 -8.000000 6.304213E+01
20.000000 -10.000000 6.645376E+01
20.000000 -12.000000 1.324012E+02
20.000000 -14.000000 2.108426E+02
20.000000 -16.000000 2.329634E+02
20.000000 -18.000000 1.744294E+02
20.000000 -20.000000 8.202786E+01
20.000000 -22.000000 1.787759E+01
20.000000 -24.000000 -9.887371E-01
20.000000 -26.000000 4.845200E-01
20.000000 -28.000000 -6.064617E+00
20.000000 -30.000000 -1.513662E+01
20.000000 -32.000000 -2.130442E+01
20.000000 -34.000000 -1.441364E+01
20.000000 -36.000000 -4.837246E-01
20.000000 -38.000000 1.142950E+00
20.000000 -40.000000 -1.123095E+01
22.000000 40.000000 4.355288E+01
22.000000 38.000000 3.267361E+01
22.000000 36.000000 2.678683E+01
22.000000 34.000000 1.966739E+01
22.000000 32.000000 6.200220E+00
22.000000 30.000000 -1.825030E+01
22.000000 28.000000 -3.766203E+01
22.000000 26.000000 -3.731913E+01
22.000000 24.000000 -3.021021E+01
22.000000 22.000000 -3.006849E+01
22.000000 20.000000 -3.258877E+01
22.000000 18.000000 -1.948862E+01
22.000000 16.000000 -1.439764E+00
22.000000 14.000000 4.666289E+00
22.000000 12.000000 -9.019498E+00
22.000000 10.000000 -3.976801E+01
22.000000 8.000000 -8.063671E+01
22.000000 6.000000 -1.059051E+02
22.000000 4.000000 -1.003858E+02
22.000000 2.000000 -6.290841E+01
22.000000 0.000000 -9.343445E+00
22.000000 -2.000000 3.913498E+01
22.000000 -4.000000 6.270114E+01
22.000000 -6.000000 5.894000E+01
22.000000 -8.000000 5.683285E+01
22.000000 -10.000000 8.632651E+01
22.000000 -12.000000 1.696465E+02
22.000000 -14.000000 2.459203E+02
22.000000 -16.000000 2.483395E+02
22.000000 -18.000000 1.666787E+02
22.000000 -20.000000 6.204579E+01
22.000000 -22.000000 4.245625E-01
22.000000 -24.000000 -6.959547E+00
22.000000 -26.000000 3.839386E+00
22.000000 -28.000000 -9.283066E-03
22.000000 -30.000000 -1.282440E+01
22.000000 -32.000000 -2.662962E+01
22.000000 -34.000000 -2.521363E+01
22.000000 -36.000000 -1.219120E+01
22.000000 -38.000000 -6.766428E+00
22.000000 -40.000000 -1.502908E+01
24.000000 40.000000 4.322484E+01
24.000000 38.000000 3.254310E+01
24.000000 36.000000 2.640663E+01
24.000000 34.000000 1.930036E+01
24.000000 32.000000 7.811418E+00
24.000000 30.000000 -1.558413E+01
24.000000 28.000000 -3.706981E+01
24.000000 26.000000 -4.048067E+01
24.000000 24.000000 -3.473078E+01
24.000000 22.000000 -3.077580E+01
24.000000 20.000000 -2.919088E+01
24.000000 18.000000 -1.383333E+01
24.000000 16.000000 6.040873E+00
24.000000 14.000000 1.234421E+01
24.000000 12.000000 -4.068344E+00
24.000000 10.000000 -3.527609E+01
24.000000 8.000000 -7.480432E+01
24.000000 6.000000 -9.986976E+01
24.000000 4.000000 -1.021639E+02
24.000000 2.000000 -7.749135E+01
24.000000 0.000000 -3.261986E+01
24.000000 -2.000000 1.408806E+01
24.000000 -4.000000 4.160341E+01
24.000000 -6.000000 4.763645E+01
24.000000 -8.000000 6.162725E+01
24.000000 -10.000000 1.088386E+02
24.000000 -12.000000 2.000326E+02
24.000000 -14.000000 2.687193E+02
24.000000 -16.000000 2.527667E+02
24.000000 -18.000000 1.547577E+02
24.000000 -20.000000 4.486265E+01
24.000000 -22.000000 -1.013353E+01
24.000000 -24.000000 -4.809994E+00
24.000000 -26.000000 1.589876E+01
24.000000 -28.000000 1.369840E+01
24.000000 -30.000000 -4.009003E+00
24.000000 -32.000000 -2.653411E+01
24.000000 -34.000000 -3.240877E+01
24.000000 -36.000000 -2.441999E+01
24.000000 -38.000000 -1.781495E+01
24.000000 -40.000000 -2.254189E+01
26.000000 40.000000 4.153345E+01
26.000000 38.000000 3.070380E+01
26.000000 36.000000 2.172509E+01
26.000000 34.000000 1.257684E+01
26.000000 32.000000 3.663629E+00
26.000000 30.000000 -1.536899E+01
26.000000 28.000000 -3.417486E+01
26.000000 26.000000 -3.836570E+01
26.000000 24.000000 -3.369277E+01
26.000000 22.000000 -2.798927E+01
26.000000 20.000000 -2.552790E+01
26.000000 18.000000 -1.299419E+01
26.000000 16.000000 2.738521E+00
26.000000 14.000000 3.605147E+00
26.000000 12.000000 -1.593160E+01
26.000000 10.000000 -4.740691E+01
26.000000 8.000000 -8.002968E+01
26.000000 6.000000 -1.028175E+02
26.000000 4.000000 -1.104661E+02
26.000000 2.000000 -9.431594E+01
26.000000 0.000000 -5.375096E+01
26.000000 -2.000000 -2.401119E+00
26.000000 -4.000000 3.844015E+01
26.000000 -6.000000 5.866113E+01
26.000000 -8.000000 8.016254E+01
26.000000 -10.000000 1.323313E+02
26.000000 -12.000000 2.183466E+02
26.000000 -14.000000 2.737298E+02
26.000000 -16.000000 2.428928E+02
26.000000 -18.000000 1.387258E+02
26.000000 -20.000000 3.284768E+01
26.000000 -22.000000 -1.379704E+01
26.000000 -24.000000 1.583868E+00
26.000000 -26.000000 3.065305E+01
26.000000 -28.000000 3.156749E+01
26.000000 -30.000000 1.180898E+01
26.000000 -32.000000 -1.698011E+01
26.000000 -34.000000 -3.015006E+01
26.000000 -36.000000 -3.125162E+01
26.000000 -38.000000 -2.925722E+01
26.000000 -40.000000 -3.487343E+01
28.000000 40.000000 3.552900E+01
28.000000 38.000000 2.406457E+01
28.000000 36.000000 1.210596E+01
28.000000 34.000000 1.186077E+00
28.000000 32.000000 -4.448975E+00
28.000000 30.000000 -1.763599E+01
28.000000 28.000000 -3.050633E+01
28.000000 26.000000 -3.170098E+01
28.000000 24.000000 -2.619757E+01
28.000000 22.000000 -2.126273E+01
28.000000 20.000000 -2.227822E+01
28.000000 18.000000 -1.615900E+01
28.000000 16.000000 -6.372732E+00
28.000000 14.000000 -1.111268E+01
28.000000 12.000000 -3.203687E+01
28.000000 10.000000 -6.042149E+01
28.000000 8.000000 -8.385054E+01
28.000000 6.000000 -1.026968E+02
28.000000 4.000000 -1.140413E+02
28.000000 2.000000 -1.070736E+02
28.000000 0.000000 -7.231999E+01
28.000000 -2.000000 -1.553574E+01
28.000000 -4.000000 4.115074E+01
28.000000 -6.000000 7.834120E+01
28.000000 -8.000000 1.046773E+02
28.000000 -10.000000 1.521403E+02
28.000000 -12.000000 2.213132E+02
28.000000 -14.000000 2.587527E+02
28.000000 -16.000000 2.178138E+02
28.000000 -18.000000 1.172407E+02
28.000000 -20.000000 2.354664E+01
28.000000 -22.000000 -1.386750E+01
28.000000 -24.000000 6.806416E+00
28.000000 -26.000000 4.115981E+01
28.000000 -28.000000 4.788043E+01
28.000000 -30.000000 3.203152E+01
28.000000 -32.000000 1.649643E+00
28.000000 -34.000000 -1.821895E+01
28.000000 -36.000000 -3.134265E+01
28.000000 -38.000000 -3.886470E+01
28.000000 -40.000000 -5.032692E+01
30.000000 40.000000 2.318498E+01
30.000000 38.000000 9.835961E+00
30.000000 36.000000 -3.019449E+00
30.000000 34.000000 -1.383990E+01
30.000000 32.000000 -1.628446E+01
30.000000 30.000000 -2.384327E+01
30.000000 28.000000 -2.984403E+01
30.000000 26.000000 -2.539139E+01
30.000000 24.000000 -1.360250E+01
30.000000 22.000000 -7.806680E+00
30.000000 20.000000 -1.226059E+01
30.000000 18.000000 -1.288733E+01
30.000000 16.000000 -1.014065E+01
30.000000 14.000000 -1.850348E+01
30.000000 12.000000 -3.980687E+01
30.000000 10.000000 -6.426011E+01
30.000000 8.000000 -8.080696E+01
30.000000 6.000000 -9.659217E+01
30.000000 4.000000 -1.099777E+02
30.000000 2.000000 -1.120779E+02
30.000000 0.000000 -8.561176E+01
30.000000 -2.000000 -2.692414E+01
30.000000 -4.000000 4.192962E+01
30.000000 -6.000000 9.394864E+01
30.000000 -8.000000 1.229363E+02
30.000000 -10.000000 1.615707E+02
30.000000 -12.000000 2.106768E+02
30.000000 -14.000000 2.301833E+02
30.000000 -16.000000 1.833696E+02
30.000000 -18.000000 9.139134E+01
30.000000 -20.000000 1.204221E+01
30.000000 -22.000000 -1.580080E+01
30.000000 -24.000000 7.595076E+00
30.000000 -26.000000 4.333566E+01
30.000000 -28.000000 5.490905E+01
30.000000 -30.000000 4.807726E+01
30.000000 -32.000000 2.260929E+01
30.000000 -34.000000 -3.070751E+00
30.000000 -36.000000 -2.794956E+01
30.000000 -38.000000 -4.521693E+01
30.000000 -40.000000 -6.451684E+01
32.000000 40.000000 6.903059E+00
32.000000 38.000000 -1.061037E+01
32.000000 36.000000 -2.431906E+01
32.000000 34.000000 -3.386369E+01
32.000000 32.000000 -3.258552E+01
32.000000 30.000000 -3.374312E+01
32.000000 28.000000 -3.085760E+01
32.000000 26.000000 -1.839308E+01
32.000000 24.000000 1.776025E+00
32.000000 22.000000 9.843072E+00
32.000000 20.000000 3.680445E+00
32.000000 18.000000 -3.249006E+00
32.000000 16.000000 -8.135393E+00
32.000000 14.000000 -1.936084E+01
32.000000 12.000000 -3.880082E+01
32.000000 10.000000 -5.950817E+01
32.000000 8.000000 -7.335081E+01
32.000000 6.000000 -8.537150E+01
32.000000 4.000000 -9.653758E+01
32.000000 2.000000 -1.014100E+02
32.000000 0.000000 -8.337075E+01
32.000000 -2.000000 -3.037888E+01
32.000000 -4.000000 4.028031E+01
32.000000 -6.000000 9.641596E+01
32.000000 -8.000000 1.243804E+02
32.000000 -10.000000 1.545327E+02
32.000000 -12.000000 1.869915E+02
32.000000 -14.000000 1.933312E+02
32.000000 -16.000000 1.464933E+02
32.000000 -18.000000 6.545741E+01
32.000000 -20.000000 -8.162365E-01
32.000000 -22.000000 -2.093212E+01
32.000000 -24.000000 2.914806E+00
32.000000 -26.000000 3.584159E+01
32.000000 -28.000000 4.886732E+01
32.000000 -30.000000 5.026368E+01
32.000000 -32.000000 3.330393E+01
32.000000 -34.000000 7.368573E+00
32.000000 -36.000000 -2.321687E+01
32.000000 -38.000000 -4.674060E+01
32.000000 -40.000000 -7.303944E+01
34.000000 40.000000 -9.939003E+00
34.000000 38.000000 -3.352287E+01
34.000000 36.000000 -4.916945E+01
34.000000 34.000000 -5.666296E+01
34.000000 32.000000 -4.974121E+01
34.000000 30.000000 -4.349925E+01
34.000000 28.000000 -3.083160E+01
34.000000 26.000000 -1.054296E+01
34.000000 24.000000 1.537980E+01
34.000000 22.000000 2.408874E+01
34.000000 20.000000 1.545178E+01
34.000000 18.000000 2.759176E+00
34.000000 16.000000 -7.137974E+00
34.000000 14.000000 -1.968771E+01
34.000000 12.000000 -3.550764E+01
34.000000 10.000000 -5.083679E+01
34.000000 8.000000 -5.997883E+01
34.000000 6.000000 -6.469937E+01
34.000000 4.000000 -7.048249E+01
34.000000 2.000000 -7.569971E+01
34.000000 0.000000 -6.657804E+01
34.000000 -2.000000 -2.636721E+01
34.000000 -4.000000 3.430971E+01
34.000000 -6.000000 8.246768E+01
34.000000 -8.000000 1.046648E+02
34.000000 -10.000000 1.268754E+02
34.000000 -12.000000 1.514469E+02
34.000000 -14.000000 1.544142E+02
34.000000 -16.000000 1.131097E+02
34.000000 -18.000000 4.418374E+01
34.000000 -20.000000 -1.093702E+01
34.000000 -22.000000 -2.626723E+01
34.000000 -24.000000 -4.788809E+00
34.000000 -26.000000 2.234690E+01
34.000000 -28.000000 3.409757E+01
34.000000 -30.000000 3.737635E+01
34.000000 -32.000000 2.652036E+01
34.000000 -34.000000 7.820988E+00
34.000000 -36.000000 -2.010180E+01
34.000000 -38.000000 -4.502754E+01
34.000000 -40.000000 -7.492892E+01
36.000000 40.000000 -2.380320E+01
36.000000 38.000000 -5.525948E+01
36.000000 36.000000 -7.354585E+01
36.000000 34.000000 -7.776447E+01
36.000000 32.000000 -6.366660E+01
36.000000 30.000000 -5.072328E+01
36.000000 28.000000 -3.193276E+01
36.000000 26.000000 -7.128035E+00
36.000000 24.000000 2.218136E+01
36.000000 22.000000 3.075386E+01
36.000000 20.000000 2.037194E+01
36.000000 18.000000 5.849597E+00
36.000000 16.000000 -5.070801E+00
36.000000 14.000000 -1.777830E+01
36.000000 12.000000 -3.077302E+01
36.000000 10.000000 -3.993992E+01
36.000000 8.000000 -4.238200E+01
36.000000 6.000000 -3.909161E+01
36.000000 4.000000 -4.108066E+01
36.000000 2.000000 -4.829617E+01
36.000000 0.000000 -4.690031E+01
36.000000 -2.000000 -2.270207E+01
36.000000 -4.000000 1.987236E+01
36.000000 -6.000000 5.338934E+01
36.000000 -8.000000 6.681561E+01
36.000000 -10.000000 8.313594E+01
36.000000 -12.000000 1.099856E+02
36.000000 -14.000000 1.199403E+02
36.000000 -16.000000 8.827396E+01
36.000000 -18.000000 3.042102E+01
36.000000 -20.000000 -1.579651E+01
36.000000 -22.000000 -2.863489E+01
36.000000 -24.000000 -1.275942E+01
36.000000 -26.000000 6.605282E+00
36.000000 -28.000000 1.581494E+01
36.000000 -30.000000 1.851093E+01
36.000000 -32.000000 1.186101E+01
36.000000 -34.000000 9.817276E-01
36.000000 -36.000000 -2.126113E+01
36.000000 -38.000000 -4.481178E+01
36.000000 -40.000000 -7.492752E+01
38.000000 40.000000 -3.266752E+01
38.000000 38.000000 -7.211519E+01
38.000000 36.000000 -9.313720E+01
38.000000 34.000000 -9.317361E+01
38.000000 32.000000 -7.132372E+01
38.000000 30.000000 -5.290789E+01
38.000000 28.000000 -3.258187E+01
38.000000 26.000000 -7.936357E+00
38.000000 24.000000 2.142068E+01
38.000000 22.000000 3.000818E+01
38.000000 20.000000 2.176400E+01
38.000000 18.000000 1.189745E+01
38.000000 16.000000 3.289007E+00
38.000000 14.000000 -9.948475E+00
38.000000 12.000000 -2.177135E+01
38.000000 10.000000 -2.823821E+01
38.000000 8.000000 -2.784869E+01
38.000000 6.000000 -2.172174E+01
38.000000 4.000000 -2.101414E+01
38.000000 2.000000 -2.924325E+01
38.000000 0.000000 -3.391949E+01
38.000000 -2.000000 -2.375184E+01
38.000000 -4.000000 1.603365E+00
38.000000 -6.000000 2.093388E+01
38.000000 -8.000000 2.534086E+01
38.000000 -10.000000 3.610569E+01
38.000000 -12.000000 6.708710E+01
38.000000 -14.000000 8.740365E+01
38.000000 -16.000000 6.947085E+01
38.000000 -18.000000 2.378534E+01
38.000000 -20.000000 -1.428926E+01
38.000000 -22.000000 -2.695537E+01
38.000000 -24.000000 -1.913618E+01
38.000000 -26.000000 -7.774811E+00
38.000000 -28.000000 -8.517876E-01
38.000000 -30.000000 1.735809E+00
38.000000 -32.000000 -2.197439E+00
38.000000 -34.000000 -8.735004E+00
38.000000 -36.000000 -2.633933E+01
38.000000 -38.000000 -4.794001E+01
38.000000 -40.000000 -7.639864E+01
40.000000 40.000000 -3.783422E+01
40.000000 38.000000 -8.068032E+01
40.000000 36.000000 -1.030303E+02
40.000000 34.000000 -9.974021E+01
40.000000 32.000000 -7.146995E+01
40.000000 30.000000 -4.787464E+01
40.000000 28.000000 -2.692598E+01
40.000000 26.000000 -6.111506E+00
40.000000 24.000000 1.704558E+01
40.000000 22.000000 2.558184E+01
40.000000 20.000000 2.321263E+01
40.000000 18.000000 2.244401E+01
40.000000 16.000000 1.903090E+01
40.000000 14.000000 5.753110E+00
40.000000 12.000000 -6.863428E+00
40.000000 10.000000 -1.629321E+01
40.000000 8.000000 -1.958035E+01
40.000000 6.000000 -1.809682E+01
40.000000 4.000000 -1.668036E+01
40.000000 2.000000 -2.372111E+01
40.000000 0.000000 -3.020646E+01
40.000000 -2.000000 -2.803412E+01
40.000000 -4.000000 -1.561295E+01
40.000000 -6.000000 -6.251518E+00
40.000000 -8.000000 -8.238768E+00
40.000000 -10.000000 -4.588968E+00
40.000000 -12.000000 2.681159E+01
40.000000 -14.000000 5.587853E+01
40.000000 -16.000000 5.370420E+01
40.000000 -18.000000 2.366419E+01
40.000000 -20.000000 -5.911043E+00
40.000000 -22.000000 -1.984189E+01
40.000000 -24.000000 -2.100228E+01
40.000000 -26.000000 -1.592384E+01
40.000000 -28.000000 -1.253179E+01
40.000000 -30.000000 -1.318401E+01
40.000000 -32.000000 -1.810828E+01
40.000000 -34.000000 -2.199980E+01
40.000000 -36.000000 -3.444042E+01
40.000000 -38.000000 -5.212869E+01
40.000000 -40.000000 -7.776289E+01
42.000000 40.000000 -3.915616E+01
42.000000 38.000000 -7.911557E+01
42.000000 36.000000 -1.004286E+02
42.000000 34.000000 -9.543919E+01
42.000000 32.000000 -6.408112E+01
42.000000 30.000000 -3.738343E+01
42.000000 28.000000 -1.746590E+01
42.000000 26.000000 -2.165957E+00
42.000000 24.000000 1.335285E+01
42.000000 22.000000 2.198997E+01
42.000000 20.000000 2.581367E+01
42.000000 18.000000 3.541426E+01
42.000000 16.000000 3.936567E+01
42.000000 14.000000 2.846751E+01
42.000000 12.000000 1.302072E+01
42.000000 10.000000 -3.365665E+00
42.000000 8.000000 -1.616035E+01
42.000000 6.000000 -2.347302E+01
42.000000 4.000000 -2.496027E+01
42.000000 2.000000 -2.775577E+01
42.000000 0.000000 -3.075446E+01
42.000000 -2.000000 -3.009175E+01
42.000000 -4.000000 -2.546679E+01
42.000000 -6.000000 -2.436153E+01
42.000000 -8.000000 -3.129023E+01
42.000000 -10.000000 -3.314416E+01
42.000000 -12.000000 -2.492277E+00
42.000000 -14.000000 3.096083E+01
42.000000 -16.000000 4.156654E+01
42.000000 -18.000000 2.782648E+01
42.000000 -20.000000 5.422905E+00
42.000000 -22.000000 -1.193861E+01
42.000000 -24.000000 -2.190324E+01
42.000000 -26.000000 -2.140258E+01
42.000000 -28.000000 -2.271671E+01
42.000000 -30.000000 -2.825156E+01
42.000000 -32.000000 -3.514793E+01
42.000000 -34.000000 -3.625955E+01
42.000000 -36.000000 -4.227071E+01
42.000000 -38.000000 -5.429356E+01
42.000000 -40.000000 -7.620300E+01
44.000000 40.000000 -3.554331E+01
44.000000 38.000000 -6.870382E+01
44.000000 36.000000 -8.595721E+01
44.000000 34.000000 -7.964777E+01
44.000000 32.000000 -4.912358E+01
44.000000 30.000000 -2.474333E+01
44.000000 28.000000 -9.674670E+00
44.000000 26.000000 1.809597E+00
44.000000 24.000000 1.392234E+01
44.000000 22.000000 1.994688E+01
44.000000 20.000000 2.560454E+01
44.000000 18.000000 4.311733E+01
44.000000 16.000000 5.455817E+01
44.000000 14.000000 4.763902E+01
44.000000 12.000000 3.013588E+01
44.000000 10.000000 7.696859E+00
44.000000 8.000000 -1.533447E+01
44.000000 6.000000 -3.057951E+01
44.000000 4.000000 -3.360168E+01
44.000000 2.000000 -3.000604E+01
44.000000 0.000000 -2.770125E+01
44.000000 -2.000000 -2.640329E+01
44.000000 -4.000000 -2.648259E+01
44.000000 -6.000000 -3.123345E+01
44.000000 -8.000000 -4.041458E+01
44.000000 -10.000000 -4.293539E+01
44.000000 -12.000000 -1.342149E+01
44.000000 -14.000000 2.052445E+01
44.000000 -16.000000 3.794297E+01
44.000000 -18.000000 3.264770E+01
44.000000 -20.000000 1.158417E+01
44.000000 -22.000000 -1.128300E+01
44.000000 -24.000000 -2.769865E+01
44.000000 -26.000000 -3.111161E+01
44.000000 -28.000000 -3.476449E+01
44.000000 -30.000000 -4.167902E+01
44.000000 -32.000000 -4.744407E+01
44.000000 -34.000000 -4.521861E+01
44.000000 -36.000000 -4.591209E+01
44.000000 -38.000000 -5.246692E+01
44.000000 -40.000000 -7.027807E+01
46.000000 40.000000 -2.813149E+01
46.000000 38.000000 -5.329142E+01
46.000000 36.000000 -6.399364E+01
46.000000 34.000000 -5.637845E+01
46.000000 32.000000 -3.081717E+01
46.000000 30.000000 -1.256724E+01
46.000000 28.000000 -1.837840E+00
46.000000 26.000000 8.393618E+00
46.000000 24.000000 1.759625E+01
46.000000 22.000000 1.875734E+01
46.000000 20.000000 2.196602E+01
46.000000 18.000000 4.143834E+01
46.000000 16.000000 5.732352E+01
46.000000 14.000000 5.257841E+01
46.000000 12.000000 3.483574E+01
46.000000 10.000000 9.899709E+00
46.000000 8.000000 -1.755710E+01
46.000000 6.000000 -3.322822E+01
46.000000 4.000000 -3.131910E+01
46.000000 2.000000 -2.298709E+01
46.000000 0.000000 -1.922412E+01
46.000000 -2.000000 -1.957487E+01
46.000000 -4.000000 -2.356136E+01
46.000000 -6.000000 -2.872266E+01
46.000000 -8.000000 -3.509437E+01
46.000000 -10.000000 -3.435418E+01
46.000000 -12.000000 -7.875181E+00
46.000000 -14.000000 2.413998E+01
46.000000 -16.000000 4.177808E+01
46.000000 -18.000000 3.591651E+01
46.000000 -20.000000 1.176822E+01
46.000000 -22.000000 -1.551459E+01
46.000000 -24.000000 -3.401356E+01
