-26.000000 16.000000 3.504690E+01
-26.000000 14.000000 3.143673E+01
-26.000000 12.000000 1.822496E+01
-26.000000 10.000000 5.958189E+00
-26.000000 8.000000 2.652002E+00
-26.000000 6.000000 8.737537E+00
-26.000000 4.000000 2.273082E+01
-26.000000 2.000000 3.407038E+01
-26.000000 0.000000 3.897104E+01
-26.000000 -2.000000 4.368542E+01
-26.000000 -4.000000 5.622134E+01
-26.000000 -6.000000 6.906699E+01
-26.000000 -8.000000 6.657975E+01
-26.000000 -10.000000 4.676565E+01
-26.000000 -12.000000 1.783636E+01
-26.000000 -14.000000 -2.636854E+00
-26.000000 -16.000000 -5.196241E+00
-26.000000 -18.000000 4.237263E+00
-26.000000 -20.000000 9.000204E+00
-26.000000 -22.000000 6.906301E+00
-26.000000 -24.000000 1.284157E+01
-26.000000 -26.000000 2.551897E+01
-26.000000 -28.000000 2.766415E+01
-26.000000 -30.000000 2.304751E+01
-26.000000 -32.000000 1.587795E+01
-26.000000 -34.000000 1.434840E+01
-26.000000 -36.000000 1.085173E+01
-26.000000 -38.000000 1.005954E+01
-26.000000 -40.000000 1.148084E+01
-24.000000 40.000000 2.747383E+01
-24.000000 38.000000 2.678449E+01
-24.000000 36.000000 2.227833E+01
-24.000000 34.000000 1.320820E+01
-24.000000 32.000000 6.615103E+00
-24.000000 30.000000 8.932567E+00
-24.000000 28.000000 1.429108E+01
-24.000000 26.000000 1.689640E+01
-24.000000 24.000000 1.478793E+01
-24.000000 22.000000 1.017683E+01
-24.000000 20.000000 1.202450E+01
-24.000000 18.000000 1.839303E+01
-24.000000 16.000000 2.149932E+01
-24.000000 14.000000 1.203320E+01
-24.000000 12.000000 -2.267096E+00
-24.000000 10.000000 -1.126793E+01
-24.000000 8.000000 -4.159508E+00
-24.000000 6.000000 1.452170E+01
-24.000000 4.000000 4.011842E+01
-24.000000 2.000000 5.470089E+01
-24.000000 0.000000 5.552724E+01
-24.000000 -2.000000 4.866909E+01
-24.000000 -4.000000 4.828015E+01
-24.000000 -6.000000 5.349224E+01
-24.000000 -8.000000 5.663321E+01
-24.000000 -10.000000 4.969097E+01
-24.000000 -12.000000 3.577658E+01
-24.000000 -14.000000 2.616412E+01
-24.000000 -16.000000 2.348435E+01
-24.000000 -18.000000 2.698070E+01
-24.000000 -20.000000 2.508268E+01
-24.000000 -22.000000 1.756648E+01
-24.000000 -24.000000 2.193077E+01
-24.000000 -26.000000 3.504988E+01
-24.000000 -28.000000 3.687402E+01
-24.000000 -30.000000 3.077780E+01
-24.000000 -32.000000 2.364058E+01
-24.000000 -34.000000 2.251354E+01
-24.000000 -36.000000 1.928719E+01
-24.000000 -38.000000 1.696446E+01
-24.000000 -40.000000 1.675148E+01
-22.000000 40.000000 2.388233E+01
-22.000000 38.000000 2.294960E+01
-22.000000 36.000000 1.792322E+01
-22.000000 34.000000 8.143977E+00
-22.000000 32.000000 1.932473E+00
-22.000000 30.000000 5.745071E+00
-22.000000 28.000000 1.175820E+01
-22.000000 26.000000 1.406792E+01
-22.000000 24.000000 1.095625E+01
-22.000000 22.000000 5.317046E+00
-22.000000 20.000000 3.674327E+00
-22.000000 18.000000 5.513410E+00
-22.000000 16.000000 5.686030E+00
-22.000000 14.000000 -2.903351E+00
-22.000000 12.000000 -1.286200E+01
-22.000000 10.000000 -1.579150E+01
-22.000000 8.000000 -6.905842E-01
-22.000000 6.000000 2.510580E+01
-22.000000 4.000000 5.290915E+01
-22.000000 2.000000 6.305306E+01
-22.000000 0.000000 5.575728E+01
-22.000000 -2.000000 3.941630E+01
-22.000000 -4.000000 3.253404E+01
-22.000000 -6.000000 3.679160E+01
-22.000000 -8.000000 4.567388E+01
-22.000000 -10.000000 4.979187E+01
-22.000000 -12.000000 4.933703E+01
-22.000000 -14.000000 4.946280E+01
-22.000000 -16.000000 4.966430E+01
-22.000000 -18.000000 5.120975E+01
-22.000000 -20.000000 4.832819E+01
-22.000000 -22.000000 4.157231E+01
-22.000000 -24.000000 4.420878E+01
-22.000000 -26.000000 5.208348E+01
-22.000000 -28.000000 4.861650E+01
-22.000000 -30.000000 3.945643E+01
-22.000000 -32.000000 3.212193E+01
-22.000000 -34.000000 3.220570E+01
-22.000000 -36.000000 2.933467E+01
-22.000000 -38.000000 2.621330E+01
-22.000000 -40.000000 2.316275E+01
-20.000000 40.000000 1.917044E+01
-20.000000 38.000000 1.843156E+01
-20.000000 36.000000 1.402076E+01
-20.000000 34.000000 6.221589E+00
-20.000000 32.000000 1.342887E+00
-20.000000 30.000000 5.612216E+00
-20.000000 28.000000 1.048145E+01
-20.000000 26.000000 1.131252E+01
-20.000000 24.000000 4.792971E+00
-20.000000 22.000000 -6.351050E+00
-20.000000 20.000000 -1.194174E+01
-20.000000 18.000000 -1.144220E+01
-20.000000 16.000000 -9.771811E+00
-20.000000 14.000000 -1.185639E+01
-20.000000 12.000000 -1.369261E+01
-20.000000 10.000000 -9.489353E+00
-20.000000 8.000000 7.789921E+00
-20.000000 6.000000 3.249900E+01
-20.000000 4.000000 5.227944E+01
-20.000000 2.000000 5.324273E+01
-20.000000 0.000000 3.709763E+01
-20.000000 -2.000000 1.644530E+01
-20.000000 -4.000000 1.177989E+01
-20.000000 -6.000000 2.317686E+01
-20.000000 -8.000000 3.708764E+01
-20.000000 -10.000000 4.789067E+01
-20.000000 -12.000000 5.933526E+01
-20.000000 -14.000000 6.803928E+01
-20.000000 -16.000000 7.298662E+01
-20.000000 -18.000000 7.675879E+01
-20.000000 -20.000000 7.572879E+01
-20.000000 -22.000000 7.096711E+01
-20.000000 -24.000000 7.091626E+01
-20.000000 -26.000000 7.199358E+01
-20.000000 -28.000000 6.162511E+01
-20.000000 -30.000000 4.881579E+01
-20.000000 -32.000000 4.113041E+01
-20.000000 -34.000000 4.194961E+01
-20.000000 -36.000000 3.875348E+01
-20.000000 -38.000000 3.392875E+01
-20.000000 -40.000000 2.770029E+01
-18.000000 40.000000 1.378338E+01
-18.000000 38.000000 1.370921E+01
-18.000000 36.000000 1.045203E+01
-18.000000 34.000000 5.593634E+00
-18.000000 32.000000 2.449352E+00
-18.000000 30.000000 6.641904E+00
-18.000000 28.000000 9.770548E+00
-18.000000 26.000000 8.733487E+00
-18.000000 24.000000 -2.183497E+00
-18.000000 22.000000 -1.921980E+01
-18.000000 20.000000 -2.586016E+01
-18.000000 18.000000 -2.161286E+01
-18.000000 16.000000 -1.586502E+01
-18.000000 14.000000 -1.312007E+01
-18.000000 12.000000 -1.078590E+01
-18.000000 10.000000 -4.259018E+00
-18.000000 8.000000 1.044446E+01
-18.000000 6.000000 2.882146E+01
-18.000000 4.000000 3.916259E+01
-18.000000 2.000000 3.369120E+01
-18.000000 0.000000 1.484629E+01
-18.000000 -2.000000 -2.352880E+00
-18.000000 -4.000000 -6.352367E-01
-18.000000 -6.000000 1.688535E+01
-18.000000 -8.000000 3.409712E+01
-18.000000 -10.000000 4.724879E+01
-18.000000 -12.000000 6.436489E+01
-18.000000 -14.000000 7.726758E+01
-18.000000 -16.000000 8.624900E+01
-18.000000 -18.000000 9.309504E+01
-18.000000 -20.000000 9.374549E+01
-18.000000 -22.000000 8.949333E+01
-18.000000 -24.000000 8.826576E+01
-18.000000 -26.000000 8.656869E+01
-18.000000 -28.000000 7.257550E+01
-18.000000 -30.000000 5.747071E+01
-18.000000 -32.000000 4.977189E+01
-18.000000 -34.000000 5.111365E+01
-18.000000 -36.000000 4.728988E+01
-18.000000 -38.000000 3.970990E+01
-18.000000 -40.000000 3.089397E+01
-16.000000 40.000000 6.646581E+00
-16.000000 38.000000 7.772339E+00
-16.000000 36.000000 5.940013E+00
-16.000000 34.000000 3.613710E+00
-16.000000 32.000000 3.355578E+00
-16.000000 30.000000 9.627086E+00
-16.000000 28.000000 1.245605E+01
-16.000000 26.000000 8.683451E+00
-16.000000 24.000000 -6.716311E+00
-16.000000 22.000000 -2.463041E+01
-16.000000 20.000000 -2.970251E+01
-16.000000 18.000000 -2.042353E+01
-16.000000 16.000000 -1.071262E+01
-16.000000 14.000000 -7.392130E+00
-16.000000 12.000000 -6.567293E+00
-16.000000 10.000000 -4.175962E+00
-16.000000 8.000000 4.626148E+00
-16.000000 6.000000 1.507186E+01
-16.000000 4.000000 1.969743E+01
-16.000000 2.000000 1.417086E+01
-16.000000 0.000000 -3.999519E-02
-16.000000 -2.000000 -7.968052E+00
-16.000000 -4.000000 1.836216E+00
-16.000000 -6.000000 2.256719E+01
-16.000000 -8.000000 4.075505E+01
-16.000000 -10.000000 5.300355E+01
-16.000000 -12.000000 6.858944E+01
-16.000000 -14.000000 7.956509E+01
-16.000000 -16.000000 8.682746E+01
-16.000000 -18.000000 9.155684E+01
-16.000000 -20.000000 8.966085E+01
-16.000000 -22.000000 8.407720E+01
-16.000000 -24.000000 8.461211E+01
-16.000000 -26.000000 8.555571E+01
-16.000000 -28.000000 7.435117E+01
-16.000000 -30.000000 6.168701E+01
-16.000000 -32.000000 5.570943E+01
-16.000000 -34.000000 5.774631E+01
-16.000000 -36.000000 5.306347E+01
-16.000000 -38.000000 4.443615E+01
-16.000000 -40.000000 3.548286E+01
-14.000000 40.000000 -1.809200E+00
-14.000000 38.000000 1.553130E-01
-14.000000 36.000000 8.693194E-02
-14.000000 34.000000 1.087061E+00
-14.000000 32.000000 4.620265E+00
-14.000000 30.000000 1.354933E+01
-14.000000 28.000000 1.682275E+01
-14.000000 26.000000 1.119522E+01
-14.000000 24.000000 -6.783255E+00
-14.000000 22.000000 -2.406976E+01
-14.000000 20.000000 -2.608817E+01
-14.000000 18.000000 -1.195411E+01
-14.000000 16.000000 1.539900E+00
-14.000000 14.000000 4.534889E+00
-14.000000 12.000000 1.339359E+00
-14.000000 10.000000 -1.002453E+00
-14.000000 8.000000 6.830502E-01
-14.000000 6.000000 3.285595E+00
-14.000000 4.000000 3.657339E+00
-14.000000 2.000000 1.038946E+00
-14.000000 0.000000 -6.066442E+00
-14.000000 -2.000000 -4.784628E+00
-14.000000 -4.000000 1.295878E+01
-14.000000 -6.000000 3.675778E+01
-14.000000 -8.000000 5.397264E+01
-14.000000 -10.000000 6.385872E+01
-14.000000 -12.000000 7.214344E+01
-14.000000 -14.000000 7.569001E+01
-14.000000 -16.000000 7.617770E+01
-14.000000 -18.000000 7.479415E+01
-14.000000 -20.000000 6.711651E+01
-14.000000 -22.000000 5.748355E+01
-14.000000 -24.000000 5.886112E+01
-14.000000 -26.000000 6.596093E+01
-14.000000 -28.000000 6.504319E+01
-14.000000 -30.000000 6.005367E+01
-14.000000 -32.000000 5.826014E+01
-14.000000 -34.000000 6.120708E+01
-14.000000 -36.000000 5.589341E+01
-14.000000 -38.000000 4.761189E+01
-14.000000 -40.000000 4.014758E+01
-12.000000 40.000000 -1.029523E+01
-12.000000 38.000000 -8.596436E+00
-12.000000 36.000000 -6.085821E+00
-12.000000 34.000000 8.882540E-01
-12.000000 32.000000 8.231333E+00
-12.000000 30.000000 1.685597E+01
-12.000000 28.000000 1.926222E+01
-12.000000 26.000000 1.303460E+01
-12.000000 24.000000 -3.635468E+00
-12.000000 22.000000 -1.928967E+01
-12.000000 20.000000 -1.693808E+01
-12.000000 18.000000 -8.802509E-02
-12.000000 16.000000 1.435028E+01
-12.000000 14.000000 1.604441E+01
-12.000000 12.000000 8.520046E+00
-12.000000 10.000000 2.755007E+00
-12.000000 8.000000 3.196259E-01
-12.000000 6.000000 -1.153826E+00
-12.000000 4.000000 -1.738779E+00
-12.000000 2.000000 -9.129333E-01
-12.000000 0.000000 -1.376963E+00
-12.000000 -2.000000 7.082558E+00
-12.000000 -4.000000 2.986334E+01
-12.000000 -6.000000 5.321532E+01
-12.000000 -8.000000 6.503425E+01
-12.000000 -10.000000 6.871126E+01
-12.000000 -12.000000 6.835388E+01
-12.000000 -14.000000 6.449374E+01
-12.000000 -16.000000 5.824582E+01
-12.000000 -18.000000 5.193386E+01
-12.000000 -20.000000 3.992925E+01
-12.000000 -22.000000 2.622590E+01
-12.000000 -24.000000 2.502309E+01
-12.000000 -26.000000 3.783191E+01
-12.000000 -28.000000 5.006302E+01
-12.000000 -30.000000 5.344415E+01
-12.000000 -32.000000 5.638393E+01
-12.000000 -34.000000 6.005070E+01
-12.000000 -36.000000 5.549844E+01
-12.000000 -38.000000 4.776951E+01
-12.000000 -40.000000 4.182129E+01
-10.000000 40.000000 -1.862162E+01
-10.000000 38.000000 -1.672689E+01
-10.000000 36.000000 -1.082749E+01
-10.000000 34.000000 2.236642E+00
-10.000000 32.000000 1.314220E+01
-10.000000 30.000000 2.128334E+01
-10.000000 28.000000 2.199774E+01
-10.000000 26.000000 1.588464E+01
-10.000000 24.000000 1.383983E+00
-10.000000 22.000000 -1.269069E+01
-10.000000 20.000000 -6.920504E+00
-10.000000 18.000000 9.741788E+00
-10.000000 16.000000 2.239383E+01
-10.000000 14.000000 2.137630E+01
-10.000000 12.000000 1.091418E+01
-10.000000 10.000000 2.910948E+00
-10.000000 8.000000 8.916206E-01
-10.000000 6.000000 -5.913849E-01
-10.000000 4.000000 2.379810E+00
-10.000000 2.000000 5.699236E+00
-10.000000 0.000000 1.050742E+01
-10.000000 -2.000000 2.484728E+01
-10.000000 -4.000000 4.893642E+01
-10.000000 -6.000000 6.679891E+01
-10.000000 -8.000000 6.816116E+01
-10.000000 -10.000000 6.201426E+01
-10.000000 -12.000000 5.435289E+01
-10.000000 -14.000000 4.758873E+01
-10.000000 -16.000000 4.040107E+01
-10.000000 -18.000000 3.281762E+01
-10.000000 -20.000000 1.997071E+01
-10.000000 -22.000000 4.854919E+00
-10.000000 -24.000000 2.533882E+00
-10.000000 -26.000000 1.843549E+01
-10.000000 -28.000000 3.484890E+01
-10.000000 -30.000000 4.131419E+01
-10.000000 -32.000000 4.720332E+01
-10.000000 -34.000000 5.203291E+01
-10.000000 -36.000000 5.001313E+01
-10.000000 -38.000000 4.434120E+01
-10.000000 -40.000000 4.038521E+01
-8.000000 40.000000 -2.636018E+01
-8.000000 38.000000 -2.255692E+01
-8.000000 36.000000 -1.278326E+01
-8.000000 34.000000 4.489194E+00
-8.000000 32.000000 1.846163E+01
-8.000000 30.000000 2.745256E+01
-8.000000 28.000000 2.653037E+01
-8.000000 26.000000 1.958056E+01
-8.000000 24.000000 4.697522E+00
-8.000000 22.000000 -1.000920E+01
-8.000000 20.000000 -3.772485E+00
-8.000000 18.000000 1.184678E+01
-8.000000 16.000000 2.345011E+01
-8.000000 14.000000 2.353963E+01
-8.000000 12.000000 1.529298E+01
-8.000000 10.000000 9.332104E+00
-8.000000 8.000000 9.747806E+00
-8.000000 6.000000 7.917726E+00
-8.000000 4.000000 9.286078E+00
-8.000000 2.000000 1.027254E+01
-8.000000 0.000000 1.572483E+01
-8.000000 -2.000000 3.193070E+01
-8.000000 -4.000000 5.579986E+01
-8.000000 -6.000000 6.915906E+01
-8.000000 -8.000000 6.277607E+01
-8.000000 -10.000000 5.000948E+01
-8.000000 -12.000000 3.836944E+01
-8.000000 -14.000000 3.201999E+01
-8.000000 -16.000000 2.893971E+01
-8.000000 -18.000000 2.419848E+01
-8.000000 -20.000000 1.454589E+01
-8.000000 -22.000000 9.547234E-01
-8.000000 -24.000000 -1.414665E+00
-8.000000 -26.000000 1.219245E+01
-8.000000 -28.000000 2.216946E+01
-8.000000 -30.000000 2.584167E+01
-8.000000 -32.000000 3.173303E+01
-8.000000 -34.000000 3.760659E+01
-8.000000 -36.000000 3.917470E+01
-8.000000 -38.000000 3.768844E+01
-8.000000 -40.000000 3.678379E+01
-6.000000 40.000000 -3.272811E+01
-6.000000 38.000000 -2.579506E+01
-6.000000 36.000000 -1.199428E+01
-6.000000 34.000000 8.887241E+00
-6.000000 32.000000 2.445970E+01
-6.000000 30.000000 3.359931E+01
-6.000000 28.000000 3.152027E+01
-6.000000 26.000000 2.110123E+01
-6.000000 24.000000 3.238564E+00
-6.000000 22.000000 -1.330996E+01
-6.000000 20.000000 -9.785665E+00
-6.000000 18.000000 5.968670E+00
-6.000000 16.000000 1.967581E+01
-6.000000 14.000000 2.721041E+01
-6.000000 12.000000 2.798385E+01
-6.000000 10.000000 2.943123E+01
-6.000000 8.000000 3.166404E+01
-6.000000 6.000000 2.638438E+01
-6.000000 4.000000 1.740616E+01
-6.000000 2.000000 8.689133E+00
-6.000000 0.000000 8.249227E+00
-6.000000 -2.000000 2.133260E+01
-6.000000 -4.000000 4.355837E+01
-6.000000 -6.000000 5.634789E+01
-6.000000 -8.000000 4.948712E+01
-6.000000 -10.000000 3.589656E+01
-6.000000 -12.000000 2.501258E+01
-6.000000 -14.000000 2.153772E+01
-6.000000 -16.000000 2.362426E+01
-6.000000 -18.000000 2.506107E+01
-6.000000 -20.000000 2.189146E+01
-6.000000 -22.000000 1.209651E+01
-6.000000 -24.000000 7.136755E+00
-6.000000 -26.000000 1.212529E+01
-6.000000 -28.000000 1.350935E+01
-6.000000 -30.000000 1.278888E+01
-6.000000 -32.000000 1.531230E+01
-6.000000 -34.000000 2.103756E+01
-6.000000 -36.000000 2.580328E+01
-6.000000 -38.000000 2.925355E+01
-6.000000 -40.000000 3.238343E+01
-4.000000 40.000000 -3.714981E+01
-4.000000 38.000000 -2.734200E+01
-4.000000 36.000000 -1.043185E+01
-4.000000 34.000000 1.312887E+01
-4.000000 32.000000 2.910390E+01
-4.000000 30.000000 3.757058E+01
-4.000000 28.000000 3.461856E+01
-4.000000 26.000000 2.104738E+01
-4.000000 24.000000 7.047406E-01
-4.000000 22.000000 -1.772256E+01
-4.000000 20.000000 -1.856396E+01
-4.000000 18.000000 -3.769279E+00
-4.000000 16.000000 1.463574E+01
-4.000000 14.000000 3.229425E+01
-4.000000 12.000000 4.640216E+01
-4.000000 10.000000 5.960412E+01
-4.000000 8.000000 6.382114E+01
-4.000000 6.000000 5.316156E+01
-4.000000 4.000000 2.966385E+01
-4.000000 2.000000 6.320560E+00
-4.000000 0.000000 -6.285925E+00
-4.000000 -2.000000 -2.007719E+00
-4.000000 -4.000000 1.588583E+01
-4.000000 -6.000000 3.060786E+01
-4.000000 -8.000000 2.801621E+01
-4.000000 -10.000000 1.903584E+01
-4.000000 -12.000000 1.427749E+01
-4.000000 -14.000000 1.432762E+01
-4.000000 -16.000000 2.038200E+01
-4.000000 -18.000000 2.870797E+01
-4.000000 -20.000000 3.194738E+01
-4.000000 -22.000000 2.596081E+01
-4.000000 -24.000000 1.802791E+01
-4.000000 -26.000000 1.459954E+01
-4.000000 -28.000000 9.759306E+00
-4.000000 -30.000000 5.061657E+00
-4.000000 -32.000000 3.280346E+00
-4.000000 -34.000000 7.834606E+00
-4.000000 -36.000000 1.413512E+01
-4.000000 -38.000000 2.121758E+01
-4.000000 -40.000000 2.850330E+01
-2.000000 40.000000 -3.904114E+01
-2.000000 38.000000 -2.768284E+01
-2.000000 36.000000 -9.878573E+00
-2.000000 34.000000 1.371417E+01
-2.000000 32.000000 2.966656E+01
-2.000000 30.000000 3.730369E+01
-2.000000 28.000000 3.391910E+01
-2.000000 26.000000 2.085955E+01
-2.000000 24.000000 9.551130E-01
-2.000000 22.000000 -1.765679E+01
-2.000000 20.000000 -2.317067E+01
-2.000000 18.000000 -1.228140E+01
-2.000000 16.000000 9.713000E+00
-2.000000 14.000000 3.546852E+01
-2.000000 12.000000 6.284464E+01
-2.000000 10.000000 8.898195E+01
-2.000000 8.000000 9.713509E+01
-2.000000 6.000000 8.416997E+01
-2.000000 4.000000 4.817242E+01
-2.000000 2.000000 8.930942E+00
-2.000000 0.000000 -1.824283E+01
-2.000000 -2.000000 -2.519860E+01
-2.000000 -4.000000 -1.319186E+01
-2.000000 -6.000000 2.773905E+00
-2.000000 -8.000000 4.555862E+00
-2.000000 -10.000000 9.569721E-01
-2.000000 -12.000000 2.969906E+00
-2.000000 -14.000000 4.707903E+00
-2.000000 -16.000000 1.275261E+01
-2.000000 -18.000000 2.635241E+01
-2.000000 -20.000000 3.485780E+01
-2.000000 -22.000000 3.276323E+01
-2.000000 -24.000000 2.561618E+01
-2.000000 -26.000000 1.879794E+01
-2.000000 -28.000000 1.026185E+01
-2.000000 -30.000000 2.139414E+00
-2.000000 -32.000000 -1.775059E+00
-2.000000 -34.000000 1.563421E+00
-2.000000 -36.000000 7.675896E+00
-2.000000 -38.000000 1.572021E+01
-2.000000 -40.000000 2.619424E+01
0.000000 40.000000 -3.806290E+01
0.000000 38.000000 -2.623100E+01
0.000000 36.000000 -1.050104E+01
0.000000 34.000000 9.748936E+00
0.000000 32.000000 2.404726E+01
0.000000 30.000000 3.097386E+01
0.000000 28.000000 2.882889E+01
0.000000 26.000000 1.937520E+01
0.000000 24.000000 3.347085E+00
0.000000 22.000000 -1.299288E+01
0.000000 20.000000 -2.061921E+01
0.000000 18.000000 -1.492669E+01
0.000000 16.000000 6.485569E+00
0.000000 14.000000 3.642616E+01
0.000000 12.000000 7.198701E+01
0.000000 10.000000 1.065576E+02
0.000000 8.000000 1.190622E+02
0.000000 6.000000 1.085452E+02
0.000000 4.000000 6.747567E+01
0.000000 2.000000 1.669451E+01
0.000000 0.000000 -2.166110E+01
0.000000 -2.000000 -3.596410E+01
0.000000 -4.000000 -2.849643E+01
0.000000 -6.000000 -1.416351E+01
0.000000 -8.000000 -9.968704E+00
0.000000 -10.000000 -1.270741E+01
0.000000 -12.000000 -1.055440E+01
0.000000 -14.000000 -9.110718E+00
0.000000 -16.000000 -1.179226E+00
0.000000 -18.000000 1.462548E+01
0.000000 -20.000000 2.768394E+01
0.000000 -22.000000 3.137662E+01
0.000000 -24.000000 2.845521E+01
0.000000 -26.000000 2.283539E+01
0.000000 -28.000000 1.262739E+01
0.000000 -30.000000 2.694902E+00
0.000000 -32.000000 -1.902130E+00
0.000000 -34.000000 1.056396E+00
0.000000 -36.000000 7.013971E+00
0.000000 -38.000000 1.559325E+01
0.000000 -40.000000 2.753584E+01
2.000000 40.000000 -3.498201E+01
2.000000 38.000000 -2.338038E+01
2.000000 36.000000 -1.192660E+01
2.000000 34.000000 2.769258E+00
2.000000 32.000000 1.427084E+01
2.000000 30.000000 2.089127E+01
2.000000 28.000000 2.052347E+01
2.000000 26.000000 1.432127E+01
2.000000 24.000000 3.545110E+00
2.000000 22.000000 -7.856694E+00
2.000000 20.000000 -1.327588E+01
2.000000 18.000000 -1.146513E+01
2.000000 16.000000 6.462086E+00
2.000000 14.000000 3.557195E+01
2.000000 12.000000 7.280252E+01
2.000000 10.000000 1.083303E+02
2.000000 8.000000 1.231031E+02
2.000000 6.000000 1.155227E+02
2.000000 4.000000 7.623679E+01
2.000000 2.000000 2.364962E+01
2.000000 0.000000 -1.764475E+01
2.000000 -2.000000 -3.427403E+01
2.000000 -4.000000 -2.871346E+01
2.000000 -6.000000 -1.604486E+01
2.000000 -8.000000 -1.110144E+01
2.000000 -10.000000 -1.388717E+01
2.000000 -12.000000 -1.602523E+01
2.000000 -14.000000 -1.819699E+01
2.000000 -16.000000 -1.343555E+01
2.000000 -18.000000 -5.879631E-01
2.000000 -20.000000 1.287232E+01
2.000000 -22.000000 2.139752E+01
2.000000 -24.000000 2.421163E+01
2.000000 -26.000000 2.337301E+01
2.000000 -28.000000 1.575632E+01
2.000000 -30.000000 6.652790E+00
2.000000 -32.000000 1.468601E+00
2.000000 -34.000000 4.566959E+00
2.000000 -36.000000 1.141308E+01
2.000000 -38.000000 2.159591E+01
2.000000 -40.000000 3.315561E+01
4.000000 40.000000 -3.173048E+01
4.000000 38.000000 -2.120839E+01
4.000000 36.000000 -1.347936E+01
4.000000 34.000000 -3.715448E+00
4.000000 32.000000 5.873025E+00
4.000000 30.000000 1.220759E+01
4.000000 28.000000 1.091519E+01
4.000000 26.000000 4.953702E+00
4.000000 24.000000 -2.739301E+00
4.000000 22.000000 -8.487817E+00
4.000000 20.000000 -9.064919E+00
4.000000 18.000000 -6.160375E+00
4.000000 16.000000 8.785884E+00
4.000000 14.000000 3.439608E+01
4.000000 12.000000 6.866041E+01
4.000000 10.000000 1.001228E+02
4.000000 8.000000 1.134318E+02
4.000000 6.000000 1.058416E+02
4.000000 4.000000 7.036719E+01
4.000000 2.000000 2.353998E+01
4.000000 0.000000 -1.352225E+01
4.000000 -2.000000 -2.755886E+01
4.000000 -4.000000 -2.074617E+01
4.000000 -6.000000 -7.438709E+00
4.000000 -8.000000 -2.435595E+00
4.000000 -10.000000 -4.983507E+00
4.000000 -12.000000 -1.173345E+01
4.000000 -14.000000 -1.851047E+01
4.000000 -16.000000 -1.808253E+01
4.000000 -18.000000 -1.003895E+01
4.000000 -20.000000 -5.725555E-01
4.000000 -22.000000 7.652168E+00
4.000000 -24.000000 1.513249E+01
4.000000 -26.000000 2.158700E+01
4.000000 -28.000000 2.016966E+01
4.000000 -30.000000 1.352028E+01
4.000000 -32.000000 8.884802E+00
4.000000 -34.000000 1.233091E+01
4.000000 -36.000000 2.079995E+01
4.000000 -38.000000 3.110567E+01
4.000000 -40.000000 4.069161E+01
6.000000 40.000000 -3.004104E+01
6.000000 38.000000 -2.103180E+01
6.000000 36.000000 -1.542784E+01
6.000000 34.000000 -8.843619E+00
6.000000 32.000000 -6.167469E-01
6.000000 30.000000 5.539948E+00
6.000000 28.000000 3.102962E+00
6.000000 26.000000 -3.659092E+00
6.000000 24.000000 -1.056718E+01
6.000000 22.000000 -1.277033E+01
6.000000 20.000000 -9.544742E+00
6.000000 18.000000 -3.537940E+00
6.000000 16.000000 9.383310E+00
6.000000 14.000000 3.055290E+01
6.000000 12.000000 6.022181E+01
6.000000 10.000000 8.843886E+01
6.000000 8.000000 9.948835E+01
6.000000 6.000000 8.993599E+01
6.000000 4.000000 5.543253E+01
6.000000 2.000000 1.477304E+01
6.000000 0.000000 -1.510725E+01
6.000000 -2.000000 -2.219262E+01
6.000000 -4.000000 -1.065623E+01
6.000000 -6.000000 5.335495E+00
6.000000 -8.000000 8.968655E+00
6.000000 -10.000000 2.041046E+00
6.000000 -12.000000 -8.664789E+00
6.000000 -14.000000 -1.602540E+01
6.000000 -16.000000 -1.605742E+01
6.000000 -18.000000 -9.839808E+00
6.000000 -20.000000 -4.453690E+00
6.000000 -22.000000 1.110794E+00
6.000000 -24.000000 1.116317E+01
6.000000 -26.000000 2.383732E+01
6.000000 -28.000000 2.711948E+01
6.000000 -30.000000 2.208733E+01
6.000000 -32.000000 1.864348E+01
6.000000 -34.000000 2.287509E+01
6.000000 -36.000000 3.289487E+01
6.000000 -38.000000 4.162875E+01
6.000000 -40.000000 4.857068E+01
8.000000 40.000000 -3.059628E+01
8.000000 38.000000 -2.251913E+01
8.000000 36.000000 -1.808765E+01
8.000000 34.000000 -1.377987E+01
8.000000 32.000000 -8.056798E+00
8.000000 30.000000 -1.445347E+00
8.000000 28.000000 -1.465019E+00
8.000000 26.000000 -6.645118E+00
8.000000 24.000000 -1.297953E+01
8.000000 22.000000 -1.506963E+01
8.000000 20.000000 -1.174245E+01
8.000000 18.000000 -5.645406E+00
8.000000 16.000000 4.103204E+00
8.000000 14.000000 2.054668E+01
8.000000 12.000000 4.723889E+01
8.000000 10.000000 7.720277E+01
8.000000 8.000000 8.857599E+01
8.000000 6.000000 7.693905E+01
8.000000 4.000000 3.987493E+01
8.000000 2.000000 1.294266E+00
8.000000 0.000000 -2.326536E+01
8.000000 -2.000000 -2.210248E+01
8.000000 -4.000000 -2.366989E+00
8.000000 -6.000000 1.819523E+01
8.000000 -8.000000 1.831225E+01
8.000000 -10.000000 2.017601E+00
8.000000 -12.000000 -1.294978E+01
8.000000 -14.000000 -1.574364E+01
8.000000 -16.000000 -9.374540E+00
8.000000 -18.000000 -1.055506E+00
8.000000 -20.000000 1.488754E+00
8.000000 -22.000000 4.762075E+00
8.000000 -24.000000 1.790228E+01
8.000000 -26.000000 3.483441E+01
8.000000 -28.000000 3.788864E+01
8.000000 -30.000000 3.159318E+01
8.000000 -32.000000 2.791167E+01
8.000000 -34.000000 3.337734E+01
8.000000 -36.000000 4.402158E+01
8.000000 -38.000000 5.143907E+01
8.000000 -40.000000 5.646806E+01
10.000000 40.000000 -3.198902E+01
10.000000 38.000000 -2.433437E+01
10.000000 36.000000 -2.094241E+01
10.000000 34.000000 -1.889393E+01
10.000000 32.000000 -1.623609E+01
10.000000 30.000000 -9.422349E+00
10.000000 28.000000 -6.733272E+00
10.000000 26.000000 -8.976564E+00
10.000000 24.000000 -1.294356E+01
10.000000 22.000000 -1.470401E+01
10.000000 20.000000 -1.187439E+01
10.000000 18.000000 -8.365852E+00
10.000000 16.000000 -3.940854E+00
10.000000 14.000000 6.918720E+00
10.000000 12.000000 3.188582E+01
10.000000 10.000000 6.545019E+01
10.000000 8.000000 7.956017E+01
10.000000 6.000000 6.840718E+01
10.000000 4.000000 3.009111E+01
10.000000 2.000000 -9.446334E+00
10.000000 0.000000 -3.182230E+01
10.000000 -2.000000 -2.449765E+01
10.000000 -4.000000 5.660281E+00
10.000000 -6.000000 3.084911E+01
10.000000 -8.000000 2.290048E+01
10.000000 -10.000000 -4.796431E+00
10.000000 -12.000000 -2.271279E+01
10.000000 -14.000000 -1.733121E+01
10.000000 -16.000000 1.192326E+00
10.000000 -18.000000 1.428216E+01
10.000000 -20.000000 1.439423E+01
10.000000 -22.000000 1.478775E+01
10.000000 -24.000000 2.953657E+01
10.000000 -26.000000 4.934943E+01
10.000000 -28.000000 5.080225E+01
10.000000 -30.000000 4.170420E+01
10.000000 -32.000000 3.662044E+01
10.000000 -34.000000 4.320398E+01
10.000000 -36.000000 5.306105E+01
10.000000 -38.000000 5.906182E+01
10.000000 -40.000000 6.279054E+01
12.000000 40.000000 -3.274007E+01
12.000000 38.000000 -2.619077E+01
12.000000 36.000000 -2.417217E+01
12.000000 34.000000 -2.364721E+01
12.000000 32.000000 -2.307372E+01
12.000000 30.000000 -1.719015E+01
12.000000 28.000000 -1.480305E+01
12.000000 26.000000 -1.507070E+01
12.000000 24.000000 -1.539669E+01
12.000000 22.000000 -1.360184E+01
12.000000 20.000000 -7.098949E+00
12.000000 18.000000 -4.074110E+00
12.000000 16.000000 -5.209118E+00
12.000000 14.000000 -2.082879E+00
12.000000 12.000000 1.618857E+01
12.000000 10.000000 4.579444E+01
12.000000 8.000000 6.080396E+01
12.000000 6.000000 5.331749E+01
12.000000 4.000000 2.005572E+01
12.000000 2.000000 -1.560392E+01
12.000000 0.000000 -3.196554E+01
12.000000 -2.000000 -1.746294E+01
12.000000 -4.000000 1.924883E+01
12.000000 -6.000000 4.146865E+01
12.000000 -8.000000 2.222471E+01
12.000000 -10.000000 -1.494487E+01
12.000000 -12.000000 -3.080842E+01
12.000000 -14.000000 -1.340796E+01
12.000000 -16.000000 1.915133E+01
12.000000 -18.000000 3.676245E+01
12.000000 -20.000000 3.221518E+01
12.000000 -22.000000 2.654193E+01
12.000000 -24.000000 3.841865E+01
12.000000 -26.000000 5.869491E+01
12.000000 -28.000000 5.971695E+01
12.000000 -30.000000 4.862338E+01
12.000000 -32.000000 4.298837E+01
12.000000 -34.000000 5.123179E+01
12.000000 -36.000000 6.018441E+01
12.000000 -38.000000 6.437452E+01
12.000000 -40.000000 6.684948E+01
14.000000 40.000000 -3.258803E+01
14.000000 38.000000 -2.890602E+01
14.000000 36.000000 -2.778043E+01
14.000000 34.000000 -2.661921E+01
14.000000 32.000000 -2.603127E+01
14.000000 30.000000 -2.278550E+01
14.000000 28.000000 -2.256923E+01
14.000000 26.000000 -2.192493E+01
14.000000 24.000000 -1.932775E+01
14.000000 22.000000 -1.325765E+01
14.000000 20.000000 -2.155478E+00
14.000000 18.000000 4.226651E+00
14.000000 16.000000 2.477866E+00
14.000000 14.000000 -1.647355E+00
14.000000 12.000000 4.109025E+00
14.000000 10.000000 1.946187E+01
14.000000 8.000000 3.046030E+01
14.000000 6.000000 2.766279E+01
14.000000 4.000000 5.140006E+00
14.000000 2.000000 -2.010693E+01
14.000000 0.000000 -2.550947E+01
14.000000 -2.000000 -3.223577E+00
14.000000 -4.000000 3.333088E+01
14.000000 -6.000000 4.461551E+01
14.000000 -8.000000 1.631553E+01
14.000000 -10.000000 -2.135102E+01
14.000000 -12.000000 -2.647397E+01
14.000000 -14.000000 6.362633E+00
14.000000 -16.000000 4.993185E+01
14.000000 -18.000000 6.798511E+01
14.000000 -20.000000 5.588855E+01
14.000000 -22.000000 3.945569E+01
14.000000 -24.000000 4.261219E+01
14.000000 -26.000000 5.844906E+01
14.000000 -28.000000 5.651252E+01
14.000000 -30.000000 4.471398E+01
14.000000 -32.000000 4.189348E+01
14.000000 -34.000000 5.381452E+01
14.000000 -36.000000 6.529508E+01
14.000000 -38.000000 6.890943E+01
14.000000 -40.000000 6.980139E+01
16.000000 40.000000 -3.158921E+01
16.000000 38.000000 -3.096956E+01
16.000000 36.000000 -2.992807E+01
16.000000 34.000000 -2.704177E+01
16.000000 32.000000 -2.477731E+01
16.000000 30.000000 -2.329378E+01
16.000000 28.000000 -2.417968E+01
16.000000 26.000000 -2.335017E+01
16.000000 24.000000 -2.092749E+01
16.000000 22.000000 -1.443741E+01
16.000000 20.000000 -1.960340E+00
16.000000 18.000000 8.190763E+00
16.000000 16.000000 9.129034E+00
16.000000 14.000000 2.543245E+00
16.000000 12.000000 -2.711711E+00
16.000000 10.000000 -2.261549E+00
16.000000 8.000000 2.230874E+00
16.000000 6.000000 1.661707E+00
16.000000 4.000000 -8.620973E+00
16.000000 2.000000 -2.130779E+01
16.000000 0.000000 -2.023406E+01
16.000000 -2.000000 1.090231E+00
16.000000 -4.000000 2.977236E+01
16.000000 -6.000000 3.263838E+01
16.000000 -8.000000 4.783178E+00
16.000000 -10.000000 -2.212668E+01
16.000000 -12.000000 -8.166080E+00
16.000000 -14.000000 4.264573E+01
16.000000 -16.000000 9.364652E+01
16.000000 -18.000000 1.062035E+02
16.000000 -20.000000 8.294419E+01
16.000000 -22.000000 5.354409E+01
16.000000 -24.000000 4.397340E+01
16.000000 -26.000000 4.996835E+01
16.000000 -28.000000 4.239441E+01
16.000000 -30.000000 3.192762E+01
16.000000 -32.000000 3.460732E+01
16.000000 -34.000000 5.100159E+01
16.000000 -36.000000 6.638408E+01
16.000000 -38.000000 7.058301E+01
16.000000 -40.000000 7.078074E+01
18.000000 40.000000 -3.030668E+01
18.000000 38.000000 -2.985292E+01
18.000000 36.000000 -2.868191E+01
18.000000 34.000000 -2.535080E+01
18.000000 32.000000 -2.103531E+01
18.000000 30.000000 -1.703416E+01
18.000000 28.000000 -1.609771E+01
18.000000 26.000000 -1.620822E+01
18.000000 24.000000 -1.747885E+01
18.000000 22.000000 -1.574725E+01
18.000000 20.000000 -5.879614E+00
18.000000 18.000000 6.826508E+00
18.000000 16.000000 1.201951E+01
18.000000 14.000000 9.635467E+00
18.000000 12.000000 -6.262584E-01
18.000000 10.000000 -1.122965E+01
18.000000 8.000000 -1.543045E+01
18.000000 6.000000 -1.750960E+01
18.000000 4.000000 -1.882793E+01
18.000000 2.000000 -2.279547E+01
18.000000 0.000000 -2.302211E+01
18.000000 -2.000000 -1.150373E+01
18.000000 -4.000000 5.151688E+00
18.000000 -6.000000 4.902173E+00
18.000000 -8.000000 -1.401748E+01
18.000000 -10.000000 -2.368982E+01
18.000000 -12.000000 1.400299E+01
18.000000 -14.000000 8.443849E+01
18.000000 -16.000000 1.409500E+02
18.000000 -18.000000 1.446385E+02
18.000000 -20.000000 1.067493E+02
18.000000 -22.000000 6.411240E+01
18.000000 -24.000000 4.203069E+01
18.000000 -26.000000 3.775448E+01
18.000000 -28.000000 2.643419E+01
18.000000 -30.000000 1.891557E+01
18.000000 -32.000000 2.728449E+01
18.000000 -34.000000 4.638418E+01
18.000000 -36.000000 6.162301E+01
18.000000 -38.000000 6.588841E+01
18.000000 -40.000000 6.798069E+01
20.000000 40.000000 -3.007711E+01
20.000000 38.000000 -2.685601E+01
20.000000 36.000000 -2.413442E+01
20.000000 34.000000 -1.969823E+01
20.000000 32.000000 -1.280789E+01
20.000000 30.000000 -5.527525E+00
20.000000 28.000000 -2.826122E+00
20.000000 26.000000 -4.781653E+00
20.000000 24.000000 -9.675398E+00
20.000000 22.000000 -1.359276E+01
20.000000 20.000000 -7.961193E+00
20.000000 18.000000 6.508760E+00
20.000000 16.000000 1.885236E+01
20.000000 14.000000 2.297883E+01
20.000000 12.000000 1.281762E+01
20.000000 10.000000 -5.802477E+00
20.000000 8.000000 -2.105731E+01
20.000000 6.000000 -2.681040E+01
20.000000 4.000000 -2.462767E+01
20.000000 2.000000 -2.645564E+01
20.000000 0.000000 -3.328637E+01
20.000000 -2.000000 -3.697033E+01
20.000000 -4.000000 -3.264304E+01
20.000000 -6.000000 -3.194305E+01
20.000000 -8.000000 -3.925875E+01
20.000000 -10.000000 -3.089040E+01
20.000000 -12.000000 2.952272E+01
20.000000 -14.000000 1.166495E+02
20.000000 -16.000000 1.769020E+02
20.000000 -18.000000 1.710859E+02
20.000000 -20.000000 1.182228E+02
20.000000 -22.000000 6.406664E+01
20.000000 -24.000000 3.378050E+01
20.000000 -26.000000 2.522928E+01
20.000000 -28.000000 1.572200E+01
20.000000 -30.000000 1.151460E+01
20.000000 -32.000000 2.225640E+01
20.000000 -34.000000 4.047134E+01
20.000000 -36.000000 5.264493E+01
20.000000 -38.000000 5.704759E+01
20.000000 -40.000000 6.227641E+01
22.000000 40.000000 -3.213967E+01
22.000000 38.000000 -2.484794E+01
22.000000 36.000000 -1.790657E+01
22.000000 34.000000 -9.398647E+00
22.000000 32.000000 6.411533E-01
22.000000 30.000000 8.220995E+00
22.000000 28.000000 9.615284E+00
22.000000 26.000000 5.612265E+00
22.000000 24.000000 -4.207325E-01
22.000000 22.000000 -6.424834E+00
22.000000 20.000000 -1.793737E+00
22.000000 18.000000 1.435660E+01
22.000000 16.000000 3.221068E+01
22.000000 14.000000 4.067380E+01
22.000000 12.000000 3.080342E+01
22.000000 10.000000 6.955864E+00
22.000000 8.000000 -1.537046E+01
22.000000 6.000000 -2.338199E+01
22.000000 4.000000 -2.163370E+01
22.000000 2.000000 -2.752723E+01
22.000000 0.000000 -4.497877E+01
22.000000 -2.000000 -6.347719E+01
22.000000 -4.000000 -6.928830E+01
22.000000 -6.000000 -6.697855E+01
22.000000 -8.000000 -6.506808E+01
22.000000 -10.000000 -4.540678E+01
22.000000 -12.000000 2.956315E+01
22.000000 -14.000000 1.257331E+02
22.000000 -16.000000 1.872488E+02
22.000000 -18.000000 1.736614E+02
22.000000 -20.000000 1.105329E+02
22.000000 -22.000000 5.095938E+01
22.000000 -24.000000 2.003678E+01
22.000000 -26.000000 1.464095E+01
22.000000 -28.000000 1.138847E+01
22.000000 -30.000000 1.042301E+01
22.000000 -32.000000 1.885531E+01
22.000000 -34.000000 3.300912E+01
22.000000 -36.000000 4.281832E+01
22.000000 -38.000000 4.829957E+01
22.000000 -40.000000 5.540018E+01
24.000000 40.000000 -3.605673E+01
24.000000 38.000000 -2.518469E+01
24.000000 36.000000 -1.244646E+01
24.000000 34.000000 1.619015E+00
24.000000 32.000000 1.478013E+01
24.000000 30.000000 2.172992E+01
24.000000 28.000000 1.979336E+01
24.000000 26.000000 1.273382E+01
24.000000 24.000000 7.109730E+00
24.000000 22.000000 3.252197E+00
24.000000 20.000000 1.042914E+01
24.000000 18.000000 2.683733E+01
24.000000 16.000000 4.422604E+01
24.000000 14.000000 5.225860E+01
24.000000 12.000000 4.160707E+01
24.000000 10.000000 1.798175E+01
24.000000 8.000000 -2.567124E+00
24.000000 6.000000 -7.837063E+00
24.000000 4.000000 -7.739608E+00
24.000000 2.000000 -2.236846E+01
24.000000 0.000000 -5.235899E+01
24.000000 -2.000000 -8.095546E+01
24.000000 -4.000000 -9.170712E+01
24.000000 -6.000000 -8.820400E+01
24.000000 -8.000000 -8.064173E+01
24.000000 -10.000000 -5.882165E+01
24.000000 -12.000000 1.680510E+01
24.000000 -14.000000 1.097544E+02
24.000000 -16.000000 1.660690E+02
24.000000 -18.000000 1.481728E+02
24.000000 -20.000000 8.420509E+01
24.000000 -22.000000 2.878579E+01
24.000000 -24.000000 5.467009E+00
24.000000 -26.000000 8.625124E+00
24.000000 -28.000000 1.048505E+01
24.000000 -30.000000 1.050321E+01
24.000000 -32.000000 1.499923E+01
24.000000 -34.000000 2.549657E+01
24.000000 -36.000000 3.518445E+01
24.000000 -38.000000 4.161198E+01
24.000000 -40.000000 4.781038E+01
26.000000 40.000000 -4.007467E+01
26.000000 38.000000 -2.756424E+01
26.000000 36.000000 -1.049750E+01
26.000000 34.000000 8.224398E+00
26.000000 32.000000 2.472694E+01
26.000000 30.000000 3.220683E+01
26.000000 28.000000 2.705988E+01
26.000000 26.000000 1.610637E+01
26.000000 24.000000 1.112674E+01
26.000000 22.000000 1.131618E+01
26.000000 20.000000 2.042362E+01
26.000000 18.000000 3.222202E+01
26.000000 16.000000 4.260600E+01
26.000000 14.000000 4.628275E+01
26.000000 12.000000 3.628714E+01
26.000000 10.000000 1.875501E+01
26.000000 8.000000 8.290867E+00
26.000000 6.000000 1.210575E+01
26.000000 4.000000 1.134766E+01
26.000000 2.000000 -1.405908E+01
26.000000 0.000000 -5.479728E+01
26.000000 -2.000000 -8.837136E+01
26.000000 -4.000000 -9.709075E+01
26.000000 -6.000000 -8.767956E+01
26.000000 -8.000000 -7.558815E+01
26.000000 -10.000000 -5.494583E+01
26.000000 -12.000000 7.297640E+00
26.000000 -14.000000 8.284745E+01
26.000000 -16.000000 1.250062E+02
26.000000 -18.000000 1.037010E+02
26.000000 -20.000000 4.580728E+01
26.000000 -22.000000 7.187729E-01
26.000000 -24.000000 -9.442423E+00
26.000000 -26.000000 5.002430E+00
26.000000 -28.000000 1.079565E+01
26.000000 -30.000000 9.538895E+00
26.000000 -32.000000 1.006857E+01
26.000000 -34.000000 1.853554E+01
26.000000 -36.000000 2.943920E+01
26.000000 -38.000000 3.615529E+01
26.000000 -40.000000 3.954329E+01
28.000000 40.000000 -4.318893E+01
28.000000 38.000000 -3.160643E+01
28.000000 36.000000 -1.456428E+01
28.000000 34.000000 6.581181E+00
28.000000 32.000000 2.716669E+01
28.000000 30.000000 3.627330E+01
28.000000 28.000000 2.968498E+01
28.000000 26.000000 1.643468E+01
28.000000 24.000000 1.115116E+01
28.000000 22.000000 1.339284E+01
28.000000 20.000000 2.144985E+01
28.000000 18.000000 2.637649E+01
28.000000 16.000000 2.651604E+01
28.000000 14.000000 2.343491E+01
28.000000 12.000000 1.520009E+01
28.000000 10.000000 6.610284E+00
28.000000 8.000000 1.020026E+01
28.000000 6.000000 2.583022E+01
28.000000 4.000000 2.630268E+01
28.000000 2.000000 -7.045991E+00
28.000000 0.000000 -5.424772E+01
28.000000 -2.000000 -8.850892E+01
28.000000 -4.000000 -9.001345E+01
28.000000 -6.000000 -7.017726E+01
28.000000 -8.000000 -5.297582E+01
28.000000 -10.000000 -3.387461E+01
28.000000 -12.000000 8.381593E+00
28.000000 -14.000000 5.924759E+01
28.000000 -16.000000 8.236043E+01
28.000000 -18.000000 5.661035E+01
28.000000 -20.000000 6.032336E+00
28.000000 -22.000000 -2.706258E+01
28.000000 -24.000000 -2.272528E+01
28.000000 -26.000000 1.423742E+00
28.000000 -28.000000 1.095497E+01
28.000000 -30.000000 8.489183E+00
28.000000 -32.000000 5.748234E+00
28.000000 -34.000000 1.268524E+01
28.000000 -36.000000 2.316737E+01
28.000000 -38.000000 2.948982E+01
28.000000 -40.000000 3.069460E+01
30.000000 40.000000 -4.830718E+01
30.000000 38.000000 -3.893424E+01
30.000000 36.000000 -2.414554E+01
30.000000 34.000000 -2.554424E+00
30.000000 32.000000 2.165670E+01
30.000000 30.000000 3.304863E+01
30.000000 28.000000 2.698350E+01
30.000000 26.000000 1.338168E+01
30.000000 24.000000 6.762363E+00
30.000000 22.000000 8.566189E+00
30.000000 20.000000 1.515594E+01
30.000000 18.000000 1.494328E+01
30.000000 16.000000 6.635969E+00
30.000000 14.000000 -3.494061E+00
30.000000 12.000000 -1.062355E+01
30.000000 10.000000 -1.213812E+01
30.000000 8.000000 1.694500E+00
30.000000 6.000000 2.308453E+01
30.000000 4.000000 2.670889E+01
30.000000 2.000000 -5.906544E+00
30.000000 0.000000 -5.375234E+01
30.000000 -2.000000 -8.559002E+01
30.000000 -4.000000 -7.823267E+01
30.000000 -6.000000 -4.830104E+01
30.000000 -8.000000 -2.667186E+01
30.000000 -10.000000 -9.873007E+00
30.000000 -12.000000 1.443044E+01
30.000000 -14.000000 4.249017E+01
30.000000 -16.000000 4.786263E+01
30.000000 -18.000000 1.911005E+01
30.000000 -20.000000 -2.381293E+01
30.000000 -22.000000 -4.508407E+01
30.000000 -24.000000 -2.906093E+01
30.000000 -26.000000 1.949921E-01
30.000000 -28.000000 1.069232E+01
30.000000 -30.000000 7.600965E+00
30.000000 -32.000000 2.308413E+00
30.000000 -34.000000 7.379732E+00
30.000000 -36.000000 1.551067E+01
30.000000 -38.000000 2.080972E+01
30.000000 -40.000000 2.083724E+01
32.000000 40.000000 -5.841748E+01
32.000000 38.000000 -5.116727E+01
32.000000 36.000000 -3.805139E+01
32.000000 34.000000 -1.709542E+01
32.000000 32.000000 9.114145E+00
32.000000 30.000000 2.273016E+01
32.000000 28.000000 1.823649E+01
32.000000 26.000000 5.105745E+00
32.000000 24.000000 -3.847456E+00
32.000000 22.000000 -3.185659E+00
32.000000 20.000000 4.473885E+00
32.000000 18.000000 5.684631E+00
32.000000 16.000000 -2.162878E+00
32.000000 14.000000 -1.379054E+01
32.000000 12.000000 -2.040985E+01
32.000000 10.000000 -2.197331E+01
32.000000 8.000000 -1.168050E+01
32.000000 6.000000 1.169762E+00
32.000000 4.000000 3.329566E+00
32.000000 2.000000 -2.078613E+01
32.000000 0.000000 -5.769730E+01
32.000000 -2.000000 -7.917059E+01
32.000000 -4.000000 -6.389584E+01
32.000000 -6.000000 -3.029201E+01
32.000000 -8.000000 -8.898984E+00
32.000000 -10.000000 4.090953E+00
32.000000 -12.000000 1.499033E+01
32.000000 -14.000000 2.706210E+01
32.000000 -16.000000 2.167697E+01
32.000000 -18.000000 -5.904549E+00
32.000000 -20.000000 -3.962602E+01
32.000000 -22.000000 -5.030845E+01
32.000000 -24.000000 -2.793920E+01
32.000000 -26.000000 1.994053E+00
32.000000 -28.000000 1.053992E+01
32.000000 -30.000000 7.438399E+00
32.000000 -32.000000 -1.009560E-01
32.000000 -34.000000 2.279251E+00
32.000000 -36.000000 7.294912E+00
32.000000 -38.000000 1.105512E+01
32.000000 -40.000000 1.007722E+01
34.000000 40.000000 -7.263469E+01
34.000000 38.000000 -6.827825E+01
34.000000 36.000000 -5.721696E+01
34.000000 34.000000 -3.714554E+01
34.000000 32.000000 -9.691996E+00
34.000000 30.000000 6.140793E+00
34.000000 28.000000 3.834837E+00
34.000000 26.000000 -8.841944E+00
34.000000 24.000000 -2.086356E+01
34.000000 22.000000 -2.140464E+01
34.000000 20.000000 -1.104354E+01
34.000000 18.000000 -1.517933E+00
34.000000 16.000000 1.127485E+00
34.000000 14.000000 -1.925688E+00
34.000000 12.000000 -4.479974E+00
34.000000 10.000000 -8.121365E+00
34.000000 8.000000 -1.348133E+01
34.000000 6.000000 -2.274878E+01
34.000000 4.000000 -3.339276E+01
34.000000 2.000000 -4.958503E+01
34.000000 0.000000 -6.671851E+01
34.000000 -2.000000 -6.909730E+01
34.000000 -4.000000 -4.857298E+01
34.000000 -6.000000 -2.035428E+01
34.000000 -8.000000 -6.184409E+00
34.000000 -10.000000 9.265391E-01
34.000000 -12.000000 4.295956E+00
34.000000 -14.000000 8.392332E+00
34.000000 -16.000000 -7.485104E-02
34.000000 -18.000000 -2.205641E+01
34.000000 -20.000000 -4.410230E+01
34.000000 -22.000000 -4.740598E+01
34.000000 -24.000000 -2.466851E+01
34.000000 -26.000000 2.697845E+00
34.000000 -28.000000 1.018106E+01
34.000000 -30.000000 7.636518E+00
34.000000 -32.000000 -8.618832E-01
34.000000 -34.000000 -1.623106E+00
34.000000 -36.000000 1.054211E-01
34.000000 -38.000000 2.258654E+00
34.000000 -40.000000 -3.245449E-01
36.000000 40.000000 -8.771119E+01
36.000000 38.000000 -8.876790E+01
36.000000 36.000000 -8.200449E+01
36.000000 34.000000 -6.276892E+01
36.000000 32.000000 -3.328428E+01
36.000000 30.000000 -1.485403E+01
36.000000 28.000000 -1.464460E+01
36.000000 26.000000 -2.705777E+01
36.000000 24.000000 -4.253322E+01
36.000000 22.000000 -4.472515E+01
36.000000 20.000000 -3.274561E+01
36.000000 18.000000 -1.350305E+01
36.000000 16.000000 4.242630E+00
36.000000 14.000000 1.734512E+01
36.000000 12.000000 2.586110E+01
36.000000 10.000000 2.605647E+01
36.000000 8.000000 6.952132E+00
36.000000 6.000000 -2.256580E+01
36.000000 4.000000 -5.162065E+01
36.000000 2.000000 -6.918380E+01
36.000000 0.000000 -7.549691E+01
36.000000 -2.000000 -6.509572E+01
36.000000 -4.000000 -4.182342E+01
36.000000 -6.000000 -2.307653E+01
36.000000 -8.000000 -1.814469E+01
36.000000 -10.000000 -1.784292E+01
36.000000 -12.000000 -1.650153E+01
36.000000 -14.000000 -1.303885E+01
36.000000 -16.000000 -1.767297E+01
36.000000 -18.000000 -3.108378E+01
36.000000 -20.000000 -4.236902E+01
36.000000 -22.000000 -4.175725E+01
36.000000 -24.000000 -2.252959E+01
36.000000 -26.000000 1.712520E+00
36.000000 -28.000000 1.001120E+01
36.000000 -30.000000 7.786264E+00
36.000000 -32.000000 -2.442074E-01
36.000000 -34.000000 -3.526680E+00
36.000000 -36.000000 -4.881556E+00
36.000000 -38.000000 -4.726187E+00
36.000000 -40.000000 -9.200748E+00
38.000000 40.000000 -9.942332E+01
38.000000 38.000000 -1.094479E+02
38.000000 36.000000 -1.104074E+02
38.000000 34.000000 -9.295575E+01
38.000000 32.000000 -6.025733E+01
38.000000 30.000000 -3.831646E+01
38.000000 28.000000 -3.410387E+01
38.000000 26.000000 -4.459747E+01
38.000000 24.000000 -6.258659E+01
38.000000 22.000000 -6.821476E+01
38.000000 20.000000 -5.787960E+01
38.000000 18.000000 -3.204526E+01
38.000000 16.000000 -2.465706E-01
38.000000 14.000000 2.890681E+01
38.000000 12.000000 5.099333E+01
38.000000 10.000000 5.906508E+01
38.000000 8.000000 3.371101E+01
38.000000 6.000000 -6.754969E+00
38.000000 4.000000 -4.956708E+01
38.000000 2.000000 -7.280525E+01
38.000000 0.000000 -7.775129E+01
38.000000 -2.000000 -6.439696E+01
38.000000 -4.000000 -4.223838E+01
38.000000 -6.000000 -3.204775E+01
38.000000 -8.000000 -3.394169E+01
38.000000 -10.000000 -3.880650E+01
38.000000 -12.000000 -3.647867E+01
38.000000 -14.000000 -3.064782E+01
38.000000 -16.000000 -2.837757E+01
38.000000 -18.000000 -3.220331E+01
38.000000 -20.000000 -3.632085E+01
38.000000 -22.000000 -3.447262E+01
38.000000 -24.000000 -1.922436E+01
38.000000 -26.000000 1.510176E+00
38.000000 -28.000000 1.010205E+01
38.000000 -30.000000 8.963685E+00
38.000000 -32.000000 2.674934E+00
38.000000 -34.000000 -2.265615E+00
38.000000 -36.000000 -7.563131E+00
38.000000 -38.000000 -1.132481E+01
38.000000 -40.000000 -1.724344E+01
40.000000 40.000000 -1.048952E+02
40.000000 38.000000 -1.250920E+02
40.000000 36.000000 -1.362079E+02
40.000000 34.000000 -1.238661E+02
40.000000 32.000000 -8.901086E+01
40.000000 30.000000 -6.080660E+01
40.000000 28.000000 -4.858533E+01
40.000000 26.000000 -5.324017E+01
40.000000 24.000000 -7.118192E+01
40.000000 22.000000 -8.349272E+01
40.000000 20.000000 -8.116177E+01
40.000000 18.000000 -5.725115E+01
40.000000 16.000000 -1.841659E+01
40.000000 14.000000 2.220557E+01
40.000000 12.000000 5.339980E+01
40.000000 10.000000 6.648355E+01
40.000000 8.000000 4.147204E+01
40.000000 6.000000 1.394563E+00
40.000000 4.000000 -4.174925E+01
40.000000 2.000000 -6.675272E+01
40.000000 0.000000 -7.304543E+01
40.000000 -2.000000 -6.209926E+01
40.000000 -4.000000 -4.340218E+01
40.000000 -6.000000 -3.540845E+01
40.000000 -8.000000 -3.997775E+01
40.000000 -10.000000 -4.696684E+01
40.000000 -12.000000 -4.347183E+01
40.000000 -14.000000 -3.682838E+01
40.000000 -16.000000 -2.990898E+01
40.000000 -18.000000 -2.595239E+01
40.000000 -20.000000 -2.501453E+01
40.000000 -22.000000 -2.382231E+01
40.000000 -24.000000 -1.201548E+01
40.000000 -26.000000 4.958655E+00
40.000000 -28.000000 1.320579E+01
40.000000 -30.000000 1.560278E+01
40.000000 -32.000000 1.264981E+01
40.000000 -34.000000 4.729963E+00
40.000000 -36.000000 -8.445061E+00
40.000000 -38.000000 -1.898507E+01
40.000000 -40.000000 -2.775367E+01
42.000000 40.000000 -1.034622E+02
42.000000 38.000000 -1.311621E+02
42.000000 36.000000 -1.522823E+02
42.000000 34.000000 -1.487751E+02
42.000000 32.000000 -1.148588E+02
42.000000 30.000000 -7.794192E+01
42.000000 28.000000 -5.509731E+01
42.000000 26.000000 -5.207757E+01
42.000000 24.000000 -6.779950E+01
42.000000 22.000000 -8.752453E+01
42.000000 20.000000 -9.374916E+01
42.000000 18.000000 -7.668253E+01
42.000000 16.000000 -4.177338E+01
42.000000 14.000000 -1.284161E+00
42.000000 12.000000 2.914157E+01
42.000000 10.000000 4.124138E+01
42.000000 8.000000 2.349191E+01
42.000000 6.000000 -6.544291E+00
42.000000 4.000000 -3.928844E+01
42.000000 2.000000 -5.931450E+01
42.000000 0.000000 -6.462768E+01
42.000000 -2.000000 -5.518498E+01
42.000000 -4.000000 -3.802776E+01
42.000000 -6.000000 -2.860929E+01
42.000000 -8.000000 -3.314053E+01
42.000000 -10.000000 -3.913597E+01
42.000000 -12.000000 -3.584990E+01
42.000000 -14.000000 -3.067112E+01
42.000000 -16.000000 -2.387125E+01
42.000000 -18.000000 -1.671194E+01
42.000000 -20.000000 -1.281799E+01
42.000000 -22.000000 -1.298065E+01
42.000000 -24.000000 -3.367895E+00
42.000000 -26.000000 1.272124E+01
42.000000 -28.000000 2.167607E+01
42.000000 -30.000000 3.031811E+01
42.000000 -32.000000 3.290028E+01
42.000000 -34.000000 1.991494E+01
42.000000 -36.000000 -8.574942E+00
