-24.000000 -12.000000 -5.917883E-01
-24.000000 -14.000000 -9.994790E+00
-24.000000 -16.000000 -2.019457E+01
-24.000000 -18.000000 -2.516587E+01
-24.000000 -20.000000 -2.368162E+01
-24.000000 -22.000000 -1.807943E+01
-24.000000 -24.000000 -3.151012E+00
-24.000000 -26.000000 1.621441E+01
-24.000000 -28.000000 2.727951E+01
-24.000000 -30.000000 2.637999E+01
-24.000000 -32.000000 1.731395E+01
-24.000000 -34.000000 1.289277E+01
-24.000000 -36.000000 2.467772E+01
-24.000000 -38.000000 4.085830E+01
-24.000000 -40.000000 5.667337E+01
-22.000000 40.000000 -5.574933E+00
-22.000000 38.000000 9.173300E+00
-22.000000 36.000000 2.329141E+01
-22.000000 34.000000 3.321931E+01
-22.000000 32.000000 2.401592E+01
-22.000000 30.000000 1.831719E+01
-22.000000 28.000000 2.831194E+01
-22.000000 26.000000 4.194522E+01
-22.000000 24.000000 4.998036E+01
-22.000000 22.000000 3.978114E+01
-22.000000 20.000000 2.433456E+01
-22.000000 18.000000 1.593416E+01
-22.000000 16.000000 2.681955E+01
-22.000000 14.000000 4.515021E+01
-22.000000 12.000000 4.823624E+01
-22.000000 10.000000 2.915853E+01
-22.000000 8.000000 3.057515E+00
-22.000000 6.000000 -4.368523E+00
-22.000000 4.000000 1.102560E+01
-22.000000 2.000000 1.798558E+01
-22.000000 0.000000 4.778168E+00
-22.000000 -2.000000 -1.810608E+01
-22.000000 -4.000000 -3.558989E+01
-22.000000 -6.000000 -3.868877E+01
-22.000000 -8.000000 -2.939673E+01
-22.000000 -10.000000 -1.460848E+01
-22.000000 -12.000000 -7.947171E+00
-22.000000 -14.000000 -1.149623E+01
-22.000000 -16.000000 -1.769344E+01
-22.000000 -18.000000 -2.055584E+01
-22.000000 -20.000000 -1.909202E+01
-22.000000 -22.000000 -1.545766E+01
-22.000000 -24.000000 -4.508986E+00
-22.000000 -26.000000 1.248411E+01
-22.000000 -28.000000 2.528629E+01
-22.000000 -30.000000 2.678768E+01
-22.000000 -32.000000 1.926969E+01
-22.000000 -34.000000 1.482886E+01
-22.000000 -36.000000 2.624884E+01
-22.000000 -38.000000 4.148508E+01
-22.000000 -40.000000 5.610836E+01
-20.000000 40.000000 -9.180625E+00
-20.000000 38.000000 3.222952E+00
-20.000000 36.000000 1.410117E+01
-20.000000 34.000000 2.299862E+01
-20.000000 32.000000 1.757390E+01
-20.000000 30.000000 1.413749E+01
-20.000000 28.000000 2.038663E+01
-20.000000 26.000000 2.829724E+01
-20.000000 24.000000 3.114605E+01
-20.000000 22.000000 2.110290E+01
-20.000000 20.000000 5.245358E+00
-20.000000 18.000000 -4.090119E+00
-20.000000 16.000000 8.146066E+00
-20.000000 14.000000 2.958286E+01
-20.000000 12.000000 3.824633E+01
-20.000000 10.000000 2.529285E+01
-20.000000 8.000000 4.352403E+00
-20.000000 6.000000 5.287442E-01
-20.000000 4.000000 1.713688E+01
-20.000000 2.000000 2.470602E+01
-20.000000 0.000000 1.328405E+01
-20.000000 -2.000000 -9.182571E+00
-20.000000 -4.000000 -3.022252E+01
-20.000000 -6.000000 -4.077261E+01
-20.000000 -8.000000 -3.924710E+01
-20.000000 -10.000000 -2.951016E+01
-20.000000 -12.000000 -1.914383E+01
-20.000000 -14.000000 -1.645260E+01
-20.000000 -16.000000 -1.537471E+01
-20.000000 -18.000000 -1.132784E+01
-20.000000 -20.000000 -6.562115E+00
-20.000000 -22.000000 -5.275714E+00
-20.000000 -24.000000 -7.660170E-01
-20.000000 -26.000000 1.160170E+01
-20.000000 -28.000000 2.409082E+01
-20.000000 -30.000000 2.774552E+01
-20.000000 -32.000000 2.167616E+01
-20.000000 -34.000000 1.713866E+01
-20.000000 -36.000000 2.703613E+01
-20.000000 -38.000000 3.986739E+01
-20.000000 -40.000000 5.243626E+01
-18.000000 40.000000 -1.095443E+01
-18.000000 38.000000 -5.965259E-01
-18.000000 36.000000 7.616548E+00
-18.000000 34.000000 1.390151E+01
-18.000000 32.000000 8.018521E+00
-18.000000 30.000000 3.987152E+00
-18.000000 28.000000 6.184070E+00
-18.000000 26.000000 8.266537E+00
-18.000000 24.000000 5.492610E+00
-18.000000 22.000000 -3.431149E+00
-18.000000 20.000000 -1.975584E+01
-18.000000 18.000000 -3.202827E+01
-18.000000 16.000000 -2.163543E+01
-18.000000 14.000000 2.848843E+00
-18.000000 12.000000 2.155686E+01
-18.000000 10.000000 2.040270E+01
-18.000000 8.000000 8.197794E+00
-18.000000 6.000000 9.724240E+00
-18.000000 4.000000 2.589922E+01
-18.000000 2.000000 3.280204E+01
-18.000000 0.000000 2.439337E+01
-18.000000 -2.000000 5.193680E+00
-18.000000 -4.000000 -1.617099E+01
-18.000000 -6.000000 -3.208610E+01
-18.000000 -8.000000 -3.806247E+01
-18.000000 -10.000000 -3.551344E+01
-18.000000 -12.000000 -2.677953E+01
-18.000000 -14.000000 -2.061434E+01
-18.000000 -16.000000 -1.386374E+01
-18.000000 -18.000000 -4.604460E+00
-18.000000 -20.000000 3.271313E+00
-18.000000 -22.000000 3.512665E+00
-18.000000 -24.000000 3.628081E+00
-18.000000 -26.000000 1.154273E+01
-18.000000 -28.000000 2.252009E+01
-18.000000 -30.000000 2.815489E+01
-18.000000 -32.000000 2.446228E+01
-18.000000 -34.000000 1.979320E+01
-18.000000 -36.000000 2.611187E+01
-18.000000 -38.000000 3.563696E+01
-18.000000 -40.000000 4.669676E+01
-16.000000 40.000000 -1.330294E+01
-16.000000 38.000000 -3.357432E+00
-16.000000 36.000000 3.243981E+00
-16.000000 34.000000 5.921040E+00
-16.000000 32.000000 -2.066783E+00
-16.000000 30.000000 -7.707957E+00
-16.000000 28.000000 -8.487633E+00
-16.000000 26.000000 -1.021049E+01
-16.000000 24.000000 -1.569078E+01
-16.000000 22.000000 -2.226330E+01
-16.000000 20.000000 -3.924393E+01
-16.000000 18.000000 -5.766185E+01
-16.000000 16.000000 -5.367538E+01
-16.000000 14.000000 -2.838196E+01
-16.000000 12.000000 6.203070E-01
-16.000000 10.000000 1.298624E+01
-16.000000 8.000000 1.026184E+01
-16.000000 6.000000 1.411464E+01
-16.000000 4.000000 2.756630E+01
-16.000000 2.000000 3.499916E+01
-16.000000 0.000000 3.132586E+01
-16.000000 -2.000000 1.804920E+01
-16.000000 -4.000000 2.701124E+00
-16.000000 -6.000000 -1.135480E+01
-16.000000 -8.000000 -2.252898E+01
-16.000000 -10.000000 -2.771187E+01
-16.000000 -12.000000 -2.488347E+01
-16.000000 -14.000000 -1.965176E+01
-16.000000 -16.000000 -1.249701E+01
-16.000000 -18.000000 -2.821876E+00
-16.000000 -20.000000 4.645082E+00
-16.000000 -22.000000 3.401898E+00
-16.000000 -24.000000 1.242381E+00
-16.000000 -26.000000 7.749578E+00
-16.000000 -28.000000 1.924659E+01
-16.000000 -30.000000 2.675293E+01
-16.000000 -32.000000 2.508072E+01
-16.000000 -34.000000 2.032383E+01
-16.000000 -36.000000 2.295364E+01
-16.000000 -38.000000 2.942538E+01
-16.000000 -40.000000 3.976723E+01
-14.000000 40.000000 -1.706579E+01
-14.000000 38.000000 -5.573398E+00
-14.000000 36.000000 -3.763199E-02
-14.000000 34.000000 -1.434032E+00
-14.000000 32.000000 -1.159546E+01
-14.000000 30.000000 -1.769805E+01
-14.000000 28.000000 -1.967311E+01
-14.000000 26.000000 -2.127960E+01
-14.000000 24.000000 -2.455850E+01
-14.000000 22.000000 -2.883513E+01
-14.000000 20.000000 -4.735305E+01
-14.000000 18.000000 -7.256078E+01
-14.000000 16.000000 -7.609003E+01
-14.000000 14.000000 -5.320215E+01
-14.000000 12.000000 -1.715822E+01
-14.000000 10.000000 7.008925E+00
-14.000000 8.000000 1.221661E+01
-14.000000 6.000000 1.623057E+01
-14.000000 4.000000 2.387311E+01
-14.000000 2.000000 2.801283E+01
-14.000000 0.000000 2.578221E+01
-14.000000 -2.000000 1.999929E+01
-14.000000 -4.000000 1.620702E+01
-14.000000 -6.000000 1.088423E+01
-14.000000 -8.000000 -5.470653E-01
-14.000000 -10.000000 -1.036664E+01
-14.000000 -12.000000 -1.487399E+01
-14.000000 -14.000000 -1.334838E+01
-14.000000 -16.000000 -8.411732E+00
-14.000000 -18.000000 -2.205820E+00
-14.000000 -20.000000 -1.703129E-01
-14.000000 -22.000000 -5.506042E+00
-14.000000 -24.000000 -9.190066E+00
-14.000000 -26.000000 -9.791031E-01
-14.000000 -28.000000 1.312984E+01
-14.000000 -30.000000 2.122327E+01
-14.000000 -32.000000 1.944263E+01
-14.000000 -34.000000 1.509075E+01
-14.000000 -36.000000 1.718783E+01
-14.000000 -38.000000 2.292979E+01
-14.000000 -40.000000 3.361452E+01
-12.000000 40.000000 -2.377533E+01
-12.000000 38.000000 -1.037808E+01
-12.000000 36.000000 -3.557209E+00
-12.000000 34.000000 -5.767830E+00
-12.000000 32.000000 -1.802035E+01
-12.000000 30.000000 -2.540213E+01
-12.000000 28.000000 -2.609760E+01
-12.000000 26.000000 -2.376278E+01
-12.000000 24.000000 -2.068122E+01
-12.000000 22.000000 -2.136942E+01
-12.000000 20.000000 -3.910223E+01
-12.000000 18.000000 -6.765683E+01
-12.000000 16.000000 -7.772949E+01
-12.000000 14.000000 -6.084928E+01
-12.000000 12.000000 -2.586226E+01
-12.000000 10.000000 1.588355E+00
-12.000000 8.000000 1.151154E+01
-12.000000 6.000000 1.734715E+01
-12.000000 4.000000 2.066408E+01
-12.000000 2.000000 1.798758E+01
-12.000000 0.000000 1.209867E+01
-12.000000 -2.000000 1.102203E+01
-12.000000 -4.000000 1.667376E+01
-12.000000 -6.000000 1.958215E+01
-12.000000 -8.000000 1.182512E+01
-12.000000 -10.000000 2.779300E+00
-12.000000 -12.000000 -5.276907E+00
-12.000000 -14.000000 -5.894249E+00
-12.000000 -16.000000 -2.113754E+00
-12.000000 -18.000000 -1.325125E+00
-12.000000 -20.000000 -6.996497E+00
-12.000000 -22.000000 -1.732220E+01
-12.000000 -24.000000 -2.120523E+01
-12.000000 -26.000000 -1.045579E+01
-12.000000 -28.000000 4.853261E+00
-12.000000 -30.000000 1.080689E+01
-12.000000 -32.000000 6.686496E+00
-12.000000 -34.000000 2.686314E+00
-12.000000 -36.000000 7.432710E+00
-12.000000 -38.000000 1.656602E+01
-12.000000 -40.000000 3.015206E+01
-10.000000 40.000000 -3.158212E+01
-10.000000 38.000000 -1.813624E+01
-10.000000 36.000000 -9.076345E+00
-10.000000 34.000000 -9.273404E+00
-10.000000 32.000000 -2.276592E+01
-10.000000 30.000000 -3.132588E+01
-10.000000 28.000000 -2.824434E+01
-10.000000 26.000000 -1.922199E+01
-10.000000 24.000000 -8.469114E+00
-10.000000 22.000000 -5.905057E+00
-10.000000 20.000000 -2.003203E+01
-10.000000 18.000000 -4.599481E+01
-10.000000 16.000000 -5.907944E+01
-10.000000 14.000000 -4.877946E+01
-10.000000 12.000000 -2.189464E+01
-10.000000 10.000000 4.146252E-01
-10.000000 8.000000 8.617279E+00
-10.000000 6.000000 1.451391E+01
-10.000000 4.000000 1.712401E+01
-10.000000 2.000000 1.028234E+01
-10.000000 0.000000 4.168520E-01
-10.000000 -2.000000 -6.378880E-01
-10.000000 -4.000000 6.474975E+00
-10.000000 -6.000000 1.200653E+01
-10.000000 -8.000000 8.673104E+00
-10.000000 -10.000000 3.153913E+00
-10.000000 -12.000000 -3.683874E+00
-10.000000 -14.000000 -4.215921E+00
-10.000000 -16.000000 -8.068051E-01
-10.000000 -18.000000 -3.404124E+00
-10.000000 -20.000000 -1.305948E+01
-10.000000 -22.000000 -2.574115E+01
-10.000000 -24.000000 -2.914598E+01
-10.000000 -26.000000 -1.637239E+01
-10.000000 -28.000000 -2.436387E+00
-10.000000 -30.000000 -1.090257E+00
-10.000000 -32.000000 -9.169928E+00
-10.000000 -34.000000 -1.320632E+01
-10.000000 -36.000000 -3.964233E+00
-10.000000 -38.000000 1.104697E+01
-10.000000 -40.000000 2.865235E+01
-8.000000 40.000000 -3.735488E+01
-8.000000 38.000000 -2.493875E+01
-8.000000 36.000000 -1.536202E+01
-8.000000 34.000000 -1.493505E+01
-8.000000 32.000000 -2.910960E+01
-8.000000 30.000000 -3.654937E+01
-8.000000 28.000000 -2.703771E+01
-8.000000 26.000000 -1.057830E+01
-8.000000 24.000000 5.787334E+00
-8.000000 22.000000 9.204294E+00
-8.000000 20.000000 -1.165966E+00
-8.000000 18.000000 -2.153293E+01
-8.000000 16.000000 -3.321457E+01
-8.000000 14.000000 -2.576992E+01
-8.000000 12.000000 -8.761476E+00
-8.000000 10.000000 3.015503E+00
-8.000000 8.000000 2.595737E+00
-8.000000 6.000000 4.651699E+00
-8.000000 4.000000 7.436010E+00
-8.000000 2.000000 1.743273E+00
-8.000000 0.000000 -7.208180E+00
-8.000000 -2.000000 -7.650489E+00
-8.000000 -4.000000 -1.608185E+00
-8.000000 -6.000000 1.777804E+00
-8.000000 -8.000000 -1.312852E+00
-8.000000 -10.000000 -4.681545E+00
-8.000000 -12.000000 -9.356099E+00
-8.000000 -14.000000 -1.064623E+01
-8.000000 -16.000000 -7.877217E+00
-8.000000 -18.000000 -1.064160E+01
-8.000000 -20.000000 -1.953910E+01
-8.000000 -22.000000 -2.967789E+01
-8.000000 -24.000000 -3.055992E+01
-8.000000 -26.000000 -1.722544E+01
-8.000000 -28.000000 -6.948889E+00
-8.000000 -30.000000 -1.088101E+01
-8.000000 -32.000000 -2.237012E+01
-8.000000 -34.000000 -2.598367E+01
-8.000000 -36.000000 -1.222738E+01
-8.000000 -38.000000 7.375774E+00
-8.000000 -40.000000 2.737782E+01
-6.000000 40.000000 -4.118600E+01
-6.000000 38.000000 -2.912745E+01
-6.000000 36.000000 -2.030171E+01
-6.000000 34.000000 -2.066717E+01
-6.000000 32.000000 -3.388157E+01
-6.000000 30.000000 -3.797254E+01
-6.000000 28.000000 -2.221796E+01
-6.000000 26.000000 -1.791180E+00
-6.000000 24.000000 1.560058E+01
-6.000000 22.000000 1.723670E+01
-6.000000 20.000000 7.803385E+00
-6.000000 18.000000 -9.050753E+00
-6.000000 16.000000 -1.801059E+01
-6.000000 14.000000 -1.033781E+01
-6.000000 12.000000 1.773712E+00
-6.000000 10.000000 5.076788E+00
-6.000000 8.000000 -4.393547E+00
-6.000000 6.000000 -8.179753E+00
-6.000000 4.000000 -5.925075E+00
-6.000000 2.000000 -7.365510E+00
-6.000000 0.000000 -1.017677E+01
-6.000000 -2.000000 -6.991413E+00
-6.000000 -4.000000 -1.766302E+00
-6.000000 -6.000000 -3.298162E+00
-6.000000 -8.000000 -9.220205E+00
-6.000000 -10.000000 -1.201455E+01
-6.000000 -12.000000 -1.671370E+01
-6.000000 -14.000000 -2.067195E+01
-6.000000 -16.000000 -2.016054E+01
-6.000000 -18.000000 -2.217989E+01
-6.000000 -20.000000 -2.659051E+01
-6.000000 -22.000000 -2.956287E+01
-6.000000 -24.000000 -2.661828E+01
-6.000000 -26.000000 -1.489190E+01
-6.000000 -28.000000 -8.611256E+00
-6.000000 -30.000000 -1.572945E+01
-6.000000 -32.000000 -2.833437E+01
-6.000000 -34.000000 -3.063270E+01
-6.000000 -36.000000 -1.453477E+01
-6.000000 -38.000000 5.528246E+00
-6.000000 -40.000000 2.548705E+01
-4.000000 40.000000 -4.436911E+01
-4.000000 38.000000 -3.177594E+01
-4.000000 36.000000 -2.380608E+01
-4.000000 34.000000 -2.325043E+01
-4.000000 32.000000 -3.182944E+01
-4.000000 30.000000 -3.086519E+01
-4.000000 28.000000 -1.368792E+01
-4.000000 26.000000 3.934771E+00
-4.000000 24.000000 1.627325E+01
-4.000000 22.000000 1.275096E+01
-4.000000 20.000000 -6.805420E-02
-4.000000 18.000000 -1.584771E+01
-4.000000 16.000000 -2.124547E+01
-4.000000 14.000000 -1.168022E+01
-4.000000 12.000000 8.989296E-01
-4.000000 10.000000 2.034304E+00
-4.000000 8.000000 -9.455893E+00
-4.000000 6.000000 -1.416332E+01
-4.000000 4.000000 -1.085368E+01
-4.000000 2.000000 -1.044099E+01
-4.000000 0.000000 -9.921438E+00
-4.000000 -2.000000 -5.011201E+00
-4.000000 -4.000000 -5.360298E-01
-4.000000 -6.000000 -5.891522E+00
-4.000000 -8.000000 -1.417307E+01
-4.000000 -10.000000 -1.796214E+01
-4.000000 -12.000000 -2.409495E+01
-4.000000 -14.000000 -2.975654E+01
-4.000000 -16.000000 -3.018641E+01
-4.000000 -18.000000 -2.955727E+01
-4.000000 -20.000000 -2.751277E+01
-4.000000 -22.000000 -2.432579E+01
-4.000000 -24.000000 -1.941892E+01
-4.000000 -26.000000 -1.043778E+01
-4.000000 -28.000000 -6.561510E+00
-4.000000 -30.000000 -1.371146E+01
-4.000000 -32.000000 -2.552853E+01
-4.000000 -34.000000 -2.741199E+01
-4.000000 -36.000000 -1.250395E+01
-4.000000 -38.000000 4.980817E+00
-4.000000 -40.000000 2.311831E+01
-2.000000 40.000000 -4.708763E+01
-2.000000 38.000000 -3.343583E+01
-2.000000 36.000000 -2.541525E+01
-2.000000 34.000000 -2.168559E+01
-2.000000 32.000000 -2.408289E+01
-2.000000 30.000000 -1.933731E+01
-2.000000 28.000000 -5.703022E+00
-2.000000 26.000000 4.329538E+00
-2.000000 24.000000 7.192459E+00
-2.000000 22.000000 -2.879114E+00
-2.000000 20.000000 -1.915456E+01
-2.000000 18.000000 -3.360297E+01
-2.000000 16.000000 -3.569319E+01
-2.000000 14.000000 -2.474892E+01
-2.000000 12.000000 -1.039210E+01
-2.000000 10.000000 -6.592839E+00
-2.000000 8.000000 -1.248305E+01
-2.000000 6.000000 -1.103552E+01
-2.000000 4.000000 -5.431515E+00
-2.000000 2.000000 -7.081656E+00
-2.000000 0.000000 -1.039101E+01
-2.000000 -2.000000 -9.365208E+00
-2.000000 -4.000000 -5.395537E+00
-2.000000 -6.000000 -9.978841E+00
-2.000000 -8.000000 -1.842083E+01
-2.000000 -10.000000 -2.361464E+01
-2.000000 -12.000000 -2.986055E+01
-2.000000 -14.000000 -3.433365E+01
-2.000000 -16.000000 -3.142183E+01
-2.000000 -18.000000 -2.519733E+01
-2.000000 -20.000000 -1.833717E+01
-2.000000 -22.000000 -1.397357E+01
-2.000000 -24.000000 -1.026663E+01
-2.000000 -26.000000 -3.466283E+00
-2.000000 -28.000000 -6.106372E-01
-2.000000 -30.000000 -6.667521E+00
-2.000000 -32.000000 -1.685618E+01
-2.000000 -34.000000 -1.990378E+01
-2.000000 -36.000000 -8.854339E+00
-2.000000 -38.000000 5.198836E+00
-2.000000 -40.000000 2.142949E+01
0.000000 40.000000 -4.929701E+01
0.000000 38.000000 -3.504321E+01
0.000000 36.000000 -2.539802E+01
0.000000 34.000000 -1.733156E+01
0.000000 32.000000 -1.546902E+01
0.000000 30.000000 -1.073130E+01
0.000000 28.000000 -2.278301E+00
0.000000 26.000000 5.464306E-01
0.000000 24.000000 -6.021439E+00
0.000000 22.000000 -2.171262E+01
0.000000 20.000000 -3.897601E+01
0.000000 18.000000 -4.877913E+01
0.000000 16.000000 -4.574722E+01
0.000000 14.000000 -3.481068E+01
0.000000 12.000000 -2.311730E+01
0.000000 10.000000 -1.994904E+01
0.000000 8.000000 -2.093648E+01
0.000000 6.000000 -1.331809E+01
0.000000 4.000000 -4.900885E+00
0.000000 2.000000 -8.540401E+00
0.000000 0.000000 -1.631757E+01
0.000000 -2.000000 -1.918678E+01
0.000000 -4.000000 -1.556801E+01
0.000000 -6.000000 -1.567995E+01
0.000000 -8.000000 -1.982090E+01
0.000000 -10.000000 -2.301979E+01
0.000000 -12.000000 -2.716271E+01
0.000000 -14.000000 -2.917584E+01
0.000000 -16.000000 -2.287086E+01
0.000000 -18.000000 -1.195669E+01
0.000000 -20.000000 -3.359450E+00
0.000000 -22.000000 -1.075931E+00
0.000000 -24.000000 -1.048660E-01
0.000000 -26.000000 4.817824E+00
0.000000 -28.000000 7.524262E+00
0.000000 -30.000000 1.641487E+00
0.000000 -32.000000 -8.456273E+00
0.000000 -34.000000 -1.266979E+01
0.000000 -36.000000 -4.589725E+00
0.000000 -38.000000 7.175814E+00
0.000000 -40.000000 2.222820E+01
2.000000 40.000000 -5.130713E+01
2.000000 38.000000 -3.655514E+01
2.000000 36.000000 -2.437431E+01
2.000000 34.000000 -1.324529E+01
2.000000 32.000000 -1.054309E+01
2.000000 30.000000 -7.986526E+00
2.000000 28.000000 -3.233505E+00
2.000000 26.000000 -4.490726E+00
2.000000 24.000000 -1.707089E+01
2.000000 22.000000 -3.581753E+01
2.000000 20.000000 -5.202125E+01
2.000000 18.000000 -5.444966E+01
2.000000 16.000000 -4.456966E+01
2.000000 14.000000 -3.481670E+01
2.000000 12.000000 -3.080307E+01
2.000000 10.000000 -3.444606E+01
2.000000 8.000000 -3.662620E+01
2.000000 6.000000 -2.928656E+01
2.000000 4.000000 -1.901148E+01
2.000000 2.000000 -2.185250E+01
2.000000 0.000000 -3.136245E+01
2.000000 -2.000000 -3.431142E+01
2.000000 -4.000000 -2.727133E+01
2.000000 -6.000000 -1.901079E+01
2.000000 -8.000000 -1.440867E+01
2.000000 -10.000000 -1.028808E+01
2.000000 -12.000000 -1.208532E+01
2.000000 -14.000000 -1.360449E+01
2.000000 -16.000000 -6.738673E+00
2.000000 -18.000000 5.053927E+00
2.000000 -20.000000 1.197738E+01
2.000000 -22.000000 1.016594E+01
2.000000 -24.000000 7.892790E+00
2.000000 -26.000000 1.146264E+01
2.000000 -28.000000 1.472192E+01
2.000000 -30.000000 8.622730E+00
2.000000 -32.000000 -4.045790E+00
2.000000 -34.000000 -9.050949E+00
2.000000 -36.000000 -7.874899E-01
2.000000 -38.000000 1.174274E+01
2.000000 -40.000000 2.674581E+01
4.000000 40.000000 -5.299411E+01
4.000000 38.000000 -3.784142E+01
4.000000 36.000000 -2.411624E+01
4.000000 34.000000 -1.268604E+01
4.000000 32.000000 -1.123853E+01
4.000000 30.000000 -1.026695E+01
4.000000 28.000000 -6.701252E+00
4.000000 26.000000 -8.836287E+00
4.000000 24.000000 -2.273175E+01
4.000000 22.000000 -4.026556E+01
4.000000 20.000000 -5.318806E+01
4.000000 18.000000 -4.915112E+01
4.000000 16.000000 -3.586113E+01
4.000000 14.000000 -2.910811E+01
4.000000 12.000000 -3.313436E+01
4.000000 10.000000 -4.352826E+01
4.000000 8.000000 -4.860122E+01
4.000000 6.000000 -4.543895E+01
4.000000 4.000000 -3.723551E+01
4.000000 2.000000 -3.963206E+01
4.000000 0.000000 -4.947224E+01
4.000000 -2.000000 -5.075178E+01
4.000000 -4.000000 -3.891996E+01
4.000000 -6.000000 -2.155958E+01
4.000000 -8.000000 -7.094342E+00
4.000000 -10.000000 5.842695E+00
4.000000 -12.000000 6.643944E+00
4.000000 -14.000000 5.114296E+00
4.000000 -16.000000 1.091842E+01
4.000000 -18.000000 1.973836E+01
4.000000 -20.000000 2.265203E+01
4.000000 -22.000000 1.622441E+01
4.000000 -24.000000 1.066237E+01
4.000000 -26.000000 1.407434E+01
4.000000 -28.000000 1.780406E+01
4.000000 -30.000000 1.130658E+01
4.000000 -32.000000 -2.899413E+00
4.000000 -34.000000 -7.070932E+00
4.000000 -36.000000 3.659130E+00
4.000000 -38.000000 1.854687E+01
4.000000 -40.000000 3.391838E+01
6.000000 40.000000 -5.472405E+01
6.000000 38.000000 -4.054987E+01
6.000000 36.000000 -2.740600E+01
6.000000 34.000000 -1.669989E+01
6.000000 32.000000 -1.562309E+01
6.000000 30.000000 -1.461051E+01
6.000000 28.000000 -1.022314E+01
6.000000 26.000000 -9.998444E+00
6.000000 24.000000 -1.894453E+01
6.000000 22.000000 -3.150572E+01
6.000000 20.000000 -4.162346E+01
6.000000 18.000000 -3.791043E+01
6.000000 16.000000 -2.692369E+01
6.000000 14.000000 -2.265847E+01
6.000000 12.000000 -2.881421E+01
6.000000 10.000000 -4.058040E+01
6.000000 8.000000 -4.673355E+01
6.000000 6.000000 -4.592677E+01
6.000000 4.000000 -4.283344E+01
6.000000 2.000000 -4.805352E+01
6.000000 0.000000 -5.864233E+01
6.000000 -2.000000 -5.977606E+01
6.000000 -4.000000 -4.762773E+01
6.000000 -6.000000 -2.694771E+01
6.000000 -8.000000 -7.470056E+00
6.000000 -10.000000 9.940667E+00
6.000000 -12.000000 1.412802E+01
6.000000 -14.000000 1.456359E+01
6.000000 -16.000000 1.885276E+01
6.000000 -18.000000 2.427552E+01
6.000000 -20.000000 2.409251E+01
6.000000 -22.000000 1.524474E+01
6.000000 -24.000000 8.074477E+00
6.000000 -26.000000 1.145729E+01
6.000000 -28.000000 1.570198E+01
6.000000 -30.000000 8.894643E+00
6.000000 -32.000000 -3.379752E+00
6.000000 -34.000000 -3.339889E+00
6.000000 -36.000000 1.125161E+01
6.000000 -38.000000 2.698867E+01
6.000000 -40.000000 4.148826E+01
8.000000 40.000000 -5.736111E+01
8.000000 38.000000 -4.476673E+01
8.000000 36.000000 -3.305274E+01
8.000000 34.000000 -2.279778E+01
8.000000 32.000000 -2.075731E+01
8.000000 30.000000 -1.885477E+01
8.000000 28.000000 -1.295353E+01
8.000000 26.000000 -7.902708E+00
8.000000 24.000000 -7.895872E+00
8.000000 22.000000 -1.440582E+01
8.000000 20.000000 -2.305488E+01
8.000000 18.000000 -2.515498E+01
8.000000 16.000000 -1.883966E+01
8.000000 14.000000 -1.349856E+01
8.000000 12.000000 -1.477813E+01
8.000000 10.000000 -2.287801E+01
8.000000 8.000000 -3.108112E+01
8.000000 6.000000 -3.284575E+01
8.000000 4.000000 -3.430583E+01
8.000000 2.000000 -4.130162E+01
8.000000 0.000000 -5.155313E+01
8.000000 -2.000000 -5.498439E+01
8.000000 -4.000000 -4.935507E+01
8.000000 -6.000000 -3.477814E+01
8.000000 -8.000000 -1.937919E+01
8.000000 -10.000000 -3.735885E+00
8.000000 -12.000000 4.273450E+00
8.000000 -14.000000 8.091078E+00
8.000000 -16.000000 1.298121E+01
8.000000 -18.000000 1.779526E+01
8.000000 -20.000000 1.687353E+01
8.000000 -22.000000 8.097140E+00
8.000000 -24.000000 1.297203E+00
8.000000 -26.000000 4.299707E+00
8.000000 -28.000000 8.336569E+00
8.000000 -30.000000 2.350807E+00
8.000000 -32.000000 -5.115821E+00
8.000000 -34.000000 1.513241E+00
8.000000 -36.000000 2.053850E+01
8.000000 -38.000000 3.557605E+01
8.000000 -40.000000 4.827747E+01
10.000000 40.000000 -6.059490E+01
10.000000 38.000000 -4.873628E+01
10.000000 36.000000 -3.742189E+01
10.000000 34.000000 -2.685713E+01
10.000000 32.000000 -2.392379E+01
10.000000 30.000000 -2.145684E+01
10.000000 28.000000 -1.372768E+01
10.000000 26.000000 -3.926916E+00
10.000000 24.000000 3.176590E+00
10.000000 22.000000 3.872147E-01
10.000000 20.000000 -7.797403E+00
10.000000 18.000000 -1.405991E+01
10.000000 16.000000 -1.038695E+01
10.000000 14.000000 -2.800314E+00
10.000000 12.000000 5.807190E-01
10.000000 10.000000 -3.979700E+00
10.000000 8.000000 -1.429516E+01
10.000000 6.000000 -1.670492E+01
10.000000 4.000000 -1.544528E+01
10.000000 2.000000 -1.804238E+01
10.000000 0.000000 -2.613677E+01
10.000000 -2.000000 -3.486773E+01
10.000000 -4.000000 -4.041649E+01
10.000000 -6.000000 -4.042358E+01
10.000000 -8.000000 -3.683196E+01
10.000000 -10.000000 -2.822147E+01
10.000000 -12.000000 -1.841837E+01
10.000000 -14.000000 -1.086467E+01
10.000000 -16.000000 -2.854832E+00
10.000000 -18.000000 3.317156E+00
10.000000 -20.000000 3.257355E+00
10.000000 -22.000000 -2.997362E+00
10.000000 -24.000000 -6.838251E+00
10.000000 -26.000000 -4.435776E+00
10.000000 -28.000000 -2.504476E+00
10.000000 -30.000000 -6.956747E+00
10.000000 -32.000000 -8.796943E+00
10.000000 -34.000000 3.816692E+00
10.000000 -36.000000 2.716966E+01
10.000000 -38.000000 4.244279E+01
10.000000 -40.000000 5.436076E+01
12.000000 40.000000 -6.310687E+01
12.000000 38.000000 -5.107404E+01
12.000000 36.000000 -3.885031E+01
12.000000 34.000000 -2.680686E+01
12.000000 32.000000 -2.244200E+01
12.000000 30.000000 -1.906844E+01
12.000000 28.000000 -9.919142E+00
12.000000 26.000000 1.032629E+00
12.000000 24.000000 8.564451E+00
12.000000 22.000000 4.611780E+00
12.000000 20.000000 -4.948029E+00
12.000000 18.000000 -1.072737E+01
12.000000 16.000000 -5.228472E+00
12.000000 14.000000 3.076088E+00
12.000000 12.000000 5.499973E+00
12.000000 10.000000 -3.959103E-01
12.000000 8.000000 -1.011268E+01
12.000000 6.000000 -7.728536E+00
12.000000 4.000000 6.938679E+00
12.000000 2.000000 1.654657E+01
12.000000 0.000000 1.319943E+01
12.000000 -2.000000 -1.242786E+00
12.000000 -4.000000 -1.850975E+01
12.000000 -6.000000 -3.695970E+01
12.000000 -8.000000 -4.961260E+01
12.000000 -10.000000 -5.222203E+01
12.000000 -12.000000 -4.562129E+01
12.000000 -14.000000 -3.631434E+01
12.000000 -16.000000 -2.460706E+01
12.000000 -18.000000 -1.604656E+01
12.000000 -20.000000 -1.267679E+01
12.000000 -22.000000 -1.422900E+01
12.000000 -24.000000 -1.447458E+01
12.000000 -26.000000 -1.187629E+01
12.000000 -28.000000 -1.093380E+01
12.000000 -30.000000 -1.510261E+01
12.000000 -32.000000 -1.514313E+01
12.000000 -34.000000 6.579099E-01
12.000000 -36.000000 2.859749E+01
12.000000 -38.000000 4.625782E+01
12.000000 -40.000000 5.919712E+01
14.000000 40.000000 -6.490929E+01
14.000000 38.000000 -5.017007E+01
14.000000 36.000000 -3.592275E+01
14.000000 34.000000 -2.269426E+01
14.000000 32.000000 -1.670571E+01
14.000000 30.000000 -1.101173E+01
14.000000 28.000000 -1.872673E+00
14.000000 26.000000 5.314848E+00
14.000000 24.000000 7.202513E+00
14.000000 22.000000 -1.992729E+00
14.000000 20.000000 -1.481720E+01
14.000000 18.000000 -1.959363E+01
14.000000 16.000000 -1.089305E+01
14.000000 14.000000 -1.410877E+00
14.000000 12.000000 -1.202374E-01
14.000000 10.000000 -8.289436E+00
14.000000 8.000000 -1.494542E+01
14.000000 6.000000 -4.484932E+00
14.000000 4.000000 2.524719E+01
14.000000 2.000000 4.715574E+01
14.000000 0.000000 4.945693E+01
14.000000 -2.000000 3.282999E+01
14.000000 -4.000000 7.796098E+00
14.000000 -6.000000 -2.514788E+01
14.000000 -8.000000 -5.229165E+01
14.000000 -10.000000 -6.749841E+01
14.000000 -12.000000 -6.865929E+01
14.000000 -14.000000 -6.158660E+01
14.000000 -16.000000 -4.725988E+01
14.000000 -18.000000 -3.461283E+01
14.000000 -20.000000 -2.622484E+01
14.000000 -22.000000 -2.225720E+01
14.000000 -24.000000 -1.805982E+01
14.000000 -26.000000 -1.346594E+01
14.000000 -28.000000 -1.243701E+01
14.000000 -30.000000 -1.827319E+01
14.000000 -32.000000 -2.143418E+01
14.000000 -34.000000 -6.053853E+00
14.000000 -36.000000 2.471783E+01
14.000000 -38.000000 4.512397E+01
14.000000 -40.000000 6.044258E+01
16.000000 40.000000 -6.645590E+01
16.000000 38.000000 -4.702660E+01
16.000000 36.000000 -3.021482E+01
16.000000 34.000000 -1.625063E+01
16.000000 32.000000 -9.901058E+00
16.000000 30.000000 -2.433233E+00
16.000000 28.000000 5.908611E+00
16.000000 26.000000 8.276279E+00
16.000000 24.000000 3.639582E+00
16.000000 22.000000 -1.098206E+01
16.000000 20.000000 -2.798481E+01
16.000000 18.000000 -3.475965E+01
16.000000 16.000000 -2.478875E+01
16.000000 14.000000 -1.189951E+01
16.000000 12.000000 -6.565842E+00
16.000000 10.000000 -1.251501E+01
16.000000 8.000000 -1.668333E+01
16.000000 6.000000 -1.874201E+00
16.000000 4.000000 3.334752E+01
16.000000 2.000000 5.978201E+01
16.000000 0.000000 6.334712E+01
16.000000 -2.000000 4.596037E+01
16.000000 -4.000000 2.166978E+01
16.000000 -6.000000 -1.228402E+01
16.000000 -8.000000 -4.560269E+01
16.000000 -10.000000 -6.978056E+01
16.000000 -12.000000 -8.016141E+01
16.000000 -14.000000 -7.888869E+01
16.000000 -16.000000 -6.449626E+01
16.000000 -18.000000 -4.789427E+01
16.000000 -20.000000 -3.445706E+01
16.000000 -22.000000 -2.567369E+01
16.000000 -24.000000 -1.709817E+01
16.000000 -26.000000 -8.641529E+00
16.000000 -28.000000 -6.603820E+00
16.000000 -30.000000 -1.475577E+01
16.000000 -32.000000 -2.307289E+01
16.000000 -34.000000 -1.177501E+01
16.000000 -36.000000 1.651831E+01
16.000000 -38.000000 3.785178E+01
16.000000 -40.000000 5.702956E+01
18.000000 40.000000 -6.724701E+01
18.000000 38.000000 -4.480236E+01
18.000000 36.000000 -2.633422E+01
18.000000 34.000000 -1.108626E+01
18.000000 32.000000 -5.880045E+00
18.000000 30.000000 1.897907E-01
18.000000 28.000000 7.262566E+00
18.000000 26.000000 8.532310E+00
18.000000 24.000000 2.356745E+00
18.000000 22.000000 -1.329509E+01
18.000000 20.000000 -3.263121E+01
18.000000 18.000000 -4.308865E+01
18.000000 16.000000 -3.433721E+01
18.000000 14.000000 -1.863366E+01
18.000000 12.000000 -7.892624E+00
18.000000 10.000000 -9.585930E+00
18.000000 8.000000 -1.344704E+01
18.000000 6.000000 6.113338E-01
18.000000 4.000000 3.175856E+01
18.000000 2.000000 5.500341E+01
18.000000 0.000000 5.389045E+01
18.000000 -2.000000 3.329827E+01
18.000000 -4.000000 1.621573E+01
18.000000 -6.000000 -6.653723E+00
18.000000 -8.000000 -3.586889E+01
18.000000 -10.000000 -6.003258E+01
18.000000 -12.000000 -7.615351E+01
18.000000 -14.000000 -8.235187E+01
18.000000 -16.000000 -7.193863E+01
18.000000 -18.000000 -5.371802E+01
18.000000 -20.000000 -3.653597E+01
18.000000 -22.000000 -2.624125E+01
18.000000 -24.000000 -1.604185E+01
18.000000 -26.000000 -2.402801E+00
18.000000 -28.000000 3.397675E+00
18.000000 -30.000000 -5.723372E+00
18.000000 -32.000000 -1.917620E+01
18.000000 -34.000000 -1.450140E+01
18.000000 -36.000000 6.705776E+00
18.000000 -38.000000 2.720734E+01
18.000000 -40.000000 5.070378E+01
20.000000 40.000000 -6.737316E+01
20.000000 38.000000 -4.370172E+01
20.000000 36.000000 -2.470563E+01
20.000000 34.000000 -9.799881E+00
20.000000 32.000000 -7.662529E+00
20.000000 30.000000 -5.565943E+00
20.000000 28.000000 -9.653530E-01
20.000000 26.000000 1.863918E+00
20.000000 24.000000 8.232441E-01
20.000000 22.000000 -8.479744E+00
20.000000 20.000000 -2.497073E+01
20.000000 18.000000 -3.826582E+01
20.000000 16.000000 -3.360070E+01
20.000000 14.000000 -1.874157E+01
20.000000 12.000000 -5.393511E+00
20.000000 10.000000 -2.997385E+00
20.000000 8.000000 -7.261305E+00
20.000000 6.000000 4.366781E+00
20.000000 4.000000 2.694551E+01
20.000000 2.000000 3.995560E+01
20.000000 0.000000 3.106582E+01
20.000000 -2.000000 8.490909E+00
20.000000 -4.000000 -2.545778E+00
20.000000 -6.000000 -1.125041E+01
20.000000 -8.000000 -2.736499E+01
20.000000 -10.000000 -4.206728E+01
20.000000 -12.000000 -5.690364E+01
20.000000 -14.000000 -6.884856E+01
20.000000 -16.000000 -6.649284E+01
20.000000 -18.000000 -5.074056E+01
20.000000 -20.000000 -3.346288E+01
20.000000 -22.000000 -2.565804E+01
20.000000 -24.000000 -1.604173E+01
20.000000 -26.000000 1.323482E+00
20.000000 -28.000000 1.170890E+01
20.000000 -30.000000 3.935688E+00
20.000000 -32.000000 -1.372667E+01
20.000000 -34.000000 -1.657806E+01
20.000000 -36.000000 -2.290830E+00
20.000000 -38.000000 1.794992E+01
20.000000 -40.000000 4.473044E+01
22.000000 40.000000 -6.639929E+01
22.000000 38.000000 -4.261553E+01
22.000000 36.000000 -2.436087E+01
22.000000 34.000000 -1.348301E+01
22.000000 32.000000 -1.677999E+01
22.000000 30.000000 -1.783449E+01
22.000000 28.000000 -1.500965E+01
22.000000 26.000000 -1.024023E+01
22.000000 24.000000 -4.123556E+00
22.000000 22.000000 -3.823545E+00
22.000000 20.000000 -1.273011E+01
22.000000 18.000000 -2.459889E+01
22.000000 16.000000 -2.510623E+01
22.000000 14.000000 -1.516410E+01
22.000000 12.000000 -5.534500E+00
22.000000 10.000000 -4.350281E+00
22.000000 8.000000 -8.658703E+00
22.000000 6.000000 3.381681E+00
22.000000 4.000000 2.228425E+01
22.000000 2.000000 2.605008E+01
22.000000 0.000000 1.038464E+01
22.000000 -2.000000 -1.131686E+01
22.000000 -4.000000 -1.953128E+01
22.000000 -6.000000 -1.659017E+01
22.000000 -8.000000 -1.755233E+01
22.000000 -10.000000 -1.992350E+01
22.000000 -12.000000 -2.954934E+01
22.000000 -14.000000 -4.260730E+01
22.000000 -16.000000 -4.627333E+01
22.000000 -18.000000 -3.663119E+01
22.000000 -20.000000 -2.582482E+01
22.000000 -22.000000 -2.362016E+01
22.000000 -24.000000 -1.658975E+01
22.000000 -26.000000 1.412198E+00
22.000000 -28.000000 1.422397E+01
22.000000 -30.000000 7.931666E+00
22.000000 -32.000000 -1.155447E+01
22.000000 -34.000000 -1.967333E+01
22.000000 -36.000000 -8.400918E+00
22.000000 -38.000000 1.299496E+01
22.000000 -40.000000 4.106687E+01
24.000000 40.000000 -6.333218E+01
24.000000 38.000000 -4.167638E+01
24.000000 36.000000 -2.610722E+01
24.000000 34.000000 -2.075306E+01
24.000000 32.000000 -3.029906E+01
24.000000 30.000000 -3.228686E+01
24.000000 28.000000 -2.781785E+01
24.000000 26.000000 -2.003948E+01
24.000000 24.000000 -1.007024E+01
24.000000 22.000000 -4.194258E+00
24.000000 20.000000 -6.854700E+00
24.000000 18.000000 -1.363333E+01
24.000000 16.000000 -1.628721E+01
24.000000 14.000000 -1.459947E+01
24.000000 12.000000 -1.609800E+01
24.000000 10.000000 -2.294369E+01
24.000000 8.000000 -2.477875E+01
24.000000 6.000000 -7.379904E+00
24.000000 4.000000 1.753107E+01
24.000000 2.000000 2.199841E+01
24.000000 0.000000 5.348651E+00
24.000000 -2.000000 -1.469026E+01
24.000000 -4.000000 -2.140997E+01
24.000000 -6.000000 -1.369011E+01
24.000000 -8.000000 -6.504517E+00
24.000000 -10.000000 -5.919070E-01
24.000000 -12.000000 -4.128843E+00
24.000000 -14.000000 -1.156927E+01
24.000000 -16.000000 -1.501883E+01
24.000000 -18.000000 -1.328800E+01
24.000000 -20.000000 -1.385340E+01
24.000000 -22.000000 -1.972760E+01
24.000000 -24.000000 -1.708488E+01
24.000000 -26.000000 -1.162436E+00
24.000000 -28.000000 1.080287E+01
24.000000 -30.000000 4.092802E+00
24.000000 -32.000000 -1.480541E+01
24.000000 -34.000000 -2.297942E+01
24.000000 -36.000000 -1.002487E+01
24.000000 -38.000000 1.235386E+01
24.000000 -40.000000 3.979120E+01
26.000000 40.000000 -6.049401E+01
26.000000 38.000000 -4.083767E+01
26.000000 36.000000 -2.831922E+01
26.000000 34.000000 -2.608859E+01
26.000000 32.000000 -3.874107E+01
26.000000 30.000000 -4.115531E+01
26.000000 28.000000 -3.458033E+01
26.000000 26.000000 -2.492510E+01
26.000000 24.000000 -1.528909E+01
26.000000 22.000000 -9.553226E+00
26.000000 20.000000 -1.012678E+01
26.000000 18.000000 -1.384375E+01
26.000000 16.000000 -1.788651E+01
26.000000 14.000000 -2.410717E+01
26.000000 12.000000 -3.476149E+01
26.000000 10.000000 -4.507610E+01
26.000000 8.000000 -3.932880E+01
26.000000 6.000000 -1.594522E+01
26.000000 4.000000 1.644565E+01
26.000000 2.000000 2.645065E+01
26.000000 0.000000 1.535022E+01
26.000000 -2.000000 -2.104784E+00
26.000000 -4.000000 -1.151167E+01
26.000000 -6.000000 -9.063140E+00
26.000000 -8.000000 -2.943844E+00
26.000000 -10.000000 7.388144E+00
26.000000 -12.000000 1.339242E+01
26.000000 -14.000000 1.632992E+01
26.000000 -16.000000 1.615760E+01
26.000000 -18.000000 1.060607E+01
26.000000 -20.000000 3.003979E-02
26.000000 -22.000000 -1.406306E+01
26.000000 -24.000000 -1.755756E+01
26.000000 -26.000000 -5.888265E+00
26.000000 -28.000000 3.370225E+00
26.000000 -30.000000 -4.121866E+00
26.000000 -32.000000 -2.119569E+01
26.000000 -34.000000 -2.572811E+01
26.000000 -36.000000 -8.419849E+00
26.000000 -38.000000 1.445289E+01
26.000000 -40.000000 4.078162E+01
28.000000 40.000000 -6.044959E+01
28.000000 38.000000 -4.002783E+01
28.000000 36.000000 -2.827788E+01
28.000000 34.000000 -2.492201E+01
28.000000 32.000000 -3.613343E+01
28.000000 30.000000 -3.942382E+01
28.000000 28.000000 -3.450740E+01
28.000000 26.000000 -2.816990E+01
28.000000 24.000000 -2.239940E+01
28.000000 22.000000 -1.848075E+01
28.000000 20.000000 -1.797859E+01
28.000000 18.000000 -2.070853E+01
28.000000 16.000000 -2.496523E+01
28.000000 14.000000 -3.284167E+01
28.000000 12.000000 -4.334268E+01
28.000000 10.000000 -4.991800E+01
28.000000 8.000000 -3.892404E+01
28.000000 6.000000 -1.323633E+01
28.000000 4.000000 2.265373E+01
28.000000 2.000000 3.775845E+01
28.000000 0.000000 3.172965E+01
28.000000 -2.000000 1.310741E+01
28.000000 -4.000000 -3.542176E+00
28.000000 -6.000000 -1.108766E+01
28.000000 -8.000000 -9.299789E+00
28.000000 -10.000000 2.839339E+00
28.000000 -12.000000 1.689916E+01
28.000000 -14.000000 2.824597E+01
28.000000 -16.000000 3.198466E+01
28.000000 -18.000000 2.446951E+01
28.000000 -20.000000 9.371817E+00
28.000000 -22.000000 -9.338978E+00
28.000000 -24.000000 -1.816696E+01
28.000000 -26.000000 -1.149019E+01
28.000000 -28.000000 -4.761529E+00
28.000000 -30.000000 -1.164677E+01
28.000000 -32.000000 -2.554348E+01
28.000000 -34.000000 -2.648631E+01
28.000000 -36.000000 -6.101884E+00
28.000000 -38.000000 1.734201E+01
28.000000 -40.000000 4.370798E+01
30.000000 40.000000 -6.191241E+01
30.000000 38.000000 -3.947400E+01
30.000000 36.000000 -2.499382E+01
30.000000 34.000000 -1.696854E+01
30.000000 32.000000 -2.558053E+01
30.000000 30.000000 -3.101439E+01
30.000000 28.000000 -3.121669E+01
30.000000 26.000000 -3.065292E+01
30.000000 24.000000 -2.969849E+01
30.000000 22.000000 -2.698862E+01
30.000000 20.000000 -2.530276E+01
30.000000 18.000000 -2.638603E+01
30.000000 16.000000 -2.753237E+01
30.000000 14.000000 -2.871798E+01
30.000000 12.000000 -3.001514E+01
30.000000 10.000000 -3.073816E+01
30.000000 8.000000 -2.187833E+01
30.000000 6.000000 3.543043E-01
30.000000 4.000000 3.357324E+01
30.000000 2.000000 5.027150E+01
30.000000 0.000000 4.498179E+01
30.000000 -2.000000 2.265521E+01
30.000000 -4.000000 -1.769749E+00
30.000000 -6.000000 -1.870635E+01
30.000000 -8.000000 -2.033919E+01
30.000000 -10.000000 -8.897536E+00
30.000000 -12.000000 6.951799E+00
30.000000 -14.000000 1.977145E+01
30.000000 -16.000000 2.509244E+01
30.000000 -18.000000 2.153510E+01
30.000000 -20.000000 9.811160E+00
30.000000 -22.000000 -8.503023E+00
30.000000 -24.000000 -1.990336E+01
30.000000 -26.000000 -1.654174E+01
30.000000 -28.000000 -9.209578E+00
30.000000 -30.000000 -1.315652E+01
30.000000 -32.000000 -2.411131E+01
30.000000 -34.000000 -2.493266E+01
30.000000 -36.000000 -5.026122E+00
30.000000 -38.000000 1.948077E+01
30.000000 -40.000000 4.744874E+01
32.000000 40.000000 -6.210094E+01
32.000000 38.000000 -3.720732E+01
32.000000 36.000000 -1.762133E+01
32.000000 34.000000 -4.301704E+00
32.000000 32.000000 -1.147414E+01
32.000000 30.000000 -2.048109E+01
32.000000 28.000000 -2.760912E+01
32.000000 26.000000 -3.254384E+01
32.000000 24.000000 -3.666697E+01
32.000000 22.000000 -3.467972E+01
32.000000 20.000000 -3.142228E+01
32.000000 18.000000 -3.017416E+01
32.000000 16.000000 -2.721515E+01
32.000000 14.000000 -1.927038E+01
32.000000 12.000000 -9.211497E+00
32.000000 10.000000 -7.221069E-01
32.000000 8.000000 7.521100E+00
32.000000 6.000000 2.490479E+01
32.000000 4.000000 4.835815E+01
32.000000 2.000000 5.959482E+01
32.000000 0.000000 5.299938E+01
32.000000 -2.000000 2.975541E+01
32.000000 -4.000000 9.453297E-02
32.000000 -6.000000 -2.495559E+01
32.000000 -8.000000 -2.996595E+01
32.000000 -10.000000 -2.074312E+01
32.000000 -12.000000 -7.423372E+00
32.000000 -14.000000 1.655917E+00
32.000000 -16.000000 5.627728E+00
32.000000 -18.000000 6.073897E+00
32.000000 -20.000000 1.130150E+00
32.000000 -22.000000 -1.270881E+01
32.000000 -24.000000 -2.269304E+01
32.000000 -26.000000 -1.922164E+01
32.000000 -28.000000 -8.190567E+00
32.000000 -30.000000 -7.893968E+00
32.000000 -32.000000 -1.780842E+01
32.000000 -34.000000 -2.103469E+01
32.000000 -36.000000 -3.858519E+00
32.000000 -38.000000 2.092836E+01
32.000000 -40.000000 4.969190E+01
34.000000 40.000000 -5.874926E+01
34.000000 38.000000 -3.112668E+01
34.000000 36.000000 -7.075125E+00
34.000000 34.000000 9.256407E+00
34.000000 32.000000 1.698944E+00
34.000000 30.000000 -1.027145E+01
34.000000 28.000000 -2.267609E+01
34.000000 26.000000 -3.261447E+01
34.000000 24.000000 -4.193745E+01
34.000000 22.000000 -4.147387E+01
34.000000 20.000000 -3.821844E+01
34.000000 18.000000 -3.552084E+01
34.000000 16.000000 -2.891119E+01
34.000000 14.000000 -1.415479E+01
34.000000 12.000000 4.126801E+00
34.000000 10.000000 2.072523E+01
34.000000 8.000000 3.198768E+01
34.000000 6.000000 4.792926E+01
34.000000 4.000000 6.148080E+01
34.000000 2.000000 6.470210E+01
34.000000 0.000000 5.735396E+01
34.000000 -2.000000 3.737963E+01
34.000000 -4.000000 8.492145E+00
34.000000 -6.000000 -2.051197E+01
34.000000 -8.000000 -3.153944E+01
34.000000 -10.000000 -2.821114E+01
34.000000 -12.000000 -1.965666E+01
34.000000 -14.000000 -1.411868E+01
34.000000 -16.000000 -1.069697E+01
34.000000 -18.000000 -9.306757E+00
34.000000 -20.000000 -1.090981E+01
34.000000 -22.000000 -1.929175E+01
34.000000 -24.000000 -2.265262E+01
34.000000 -26.000000 -1.425724E+01
34.000000 -28.000000 -4.737711E-01
34.000000 -30.000000 1.581216E+00
34.000000 -32.000000 -9.488387E+00
34.000000 -34.000000 -1.597561E+01
34.000000 -36.000000 -2.362747E+00
34.000000 -38.000000 2.061447E+01
34.000000 -40.000000 4.865240E+01
36.000000 40.000000 -5.093937E+01
36.000000 38.000000 -2.199511E+01
36.000000 36.000000 3.316347E+00
36.000000 34.000000 1.957872E+01
36.000000 32.000000 1.096559E+01
36.000000 30.000000 -1.658443E+00
36.000000 28.000000 -1.510549E+01
36.000000 26.000000 -2.694275E+01
36.000000 24.000000 -3.953763E+01
36.000000 22.000000 -4.388375E+01
36.000000 20.000000 -4.604371E+01
36.000000 18.000000 -4.481417E+01
36.000000 16.000000 -3.552284E+01
36.000000 14.000000 -1.763678E+01
36.000000 12.000000 4.425513E+00
36.000000 10.000000 2.493000E+01
36.000000 8.000000 4.041174E+01
36.000000 6.000000 5.741137E+01
36.000000 4.000000 6.567644E+01
36.000000 2.000000 6.289090E+01
36.000000 0.000000 5.492765E+01
36.000000 -2.000000 4.147219E+01
36.000000 -4.000000 2.054237E+01
36.000000 -6.000000 -6.503902E+00
36.000000 -8.000000 -2.417827E+01
36.000000 -10.000000 -2.822072E+01
36.000000 -12.000000 -2.342001E+01
36.000000 -14.000000 -1.858303E+01
36.000000 -16.000000 -1.436318E+01
36.000000 -18.000000 -1.356118E+01
36.000000 -20.000000 -1.700064E+01
36.000000 -22.000000 -2.277571E+01
36.000000 -24.000000 -1.804131E+01
36.000000 -26.000000 -1.896530E+00
36.000000 -28.000000 1.310062E+01
36.000000 -30.000000 1.305939E+01
36.000000 -32.000000 -1.641067E+00
36.000000 -34.000000 -1.220785E+01
36.000000 -36.000000 -2.656163E+00
36.000000 -38.000000 1.775033E+01
36.000000 -40.000000 4.566670E+01
38.000000 40.000000 -4.045407E+01
38.000000 38.000000 -1.141937E+01
38.000000 36.000000 1.233013E+01
38.000000 34.000000 2.590802E+01
38.000000 32.000000 1.572495E+01
38.000000 30.000000 3.646622E+00
38.000000 28.000000 -7.103178E+00
38.000000 26.000000 -1.498430E+01
38.000000 24.000000 -2.667169E+01
38.000000 22.000000 -3.897517E+01
38.000000 20.000000 -5.147809E+01
38.000000 18.000000 -5.656278E+01
38.000000 16.000000 -4.667300E+01
38.000000 14.000000 -2.648099E+01
38.000000 12.000000 -1.678239E+00
38.000000 10.000000 1.947437E+01
38.000000 8.000000 3.618696E+01
38.000000 6.000000 5.235295E+01
38.000000 4.000000 5.874421E+01
38.000000 2.000000 5.477083E+01
38.000000 0.000000 4.861945E+01
38.000000 -2.000000 4.249381E+01
38.000000 -4.000000 3.053568E+01
38.000000 -6.000000 7.226637E+00
38.000000 -8.000000 -1.367905E+01
38.000000 -10.000000 -2.086435E+01
38.000000 -12.000000 -1.796802E+01
38.000000 -14.000000 -1.229819E+01
38.000000 -16.000000 -6.420599E+00
38.000000 -18.000000 -6.354675E+00
38.000000 -20.000000 -1.296425E+01
38.000000 -22.000000 -1.989542E+01
38.000000 -24.000000 -1.275573E+01
38.000000 -26.000000 8.289081E+00
38.000000 -28.000000 2.578681E+01
38.000000 -30.000000 2.401048E+01
38.000000 -32.000000 5.186308E+00
38.000000 -34.000000 -9.285648E+00
38.000000 -36.000000 -3.848837E+00
38.000000 -38.000000 1.493182E+01
38.000000 -40.000000 4.337403E+01
40.000000 40.000000 -3.031986E+01
40.000000 38.000000 -1.279779E+00
40.000000 36.000000 1.986189E+01
40.000000 34.000000 2.888807E+01
40.000000 32.000000 1.583859E+01
40.000000 30.000000 4.290373E+00
40.000000 28.000000 -1.098890E+00
40.000000 26.000000 -1.664921E+00
40.000000 24.000000 -9.790348E+00
40.000000 22.000000 -2.845747E+01
40.000000 20.000000 -4.984423E+01
40.000000 18.000000 -6.202831E+01
40.000000 16.000000 -5.252403E+01
40.000000 14.000000 -2.911560E+01
40.000000 12.000000 -2.198918E+00
40.000000 10.000000 1.627347E+01
40.000000 8.000000 3.002454E+01
40.000000 6.000000 4.288011E+01
40.000000 4.000000 4.873693E+01
40.000000 2.000000 4.664424E+01
40.000000 0.000000 4.344945E+01
40.000000 -2.000000 4.152127E+01
40.000000 -4.000000 3.379694E+01
40.000000 -6.000000 1.358960E+01
40.000000 -8.000000 -5.672239E+00
40.000000 -10.000000 -1.260455E+01
40.000000 -12.000000 -1.240946E+01
40.000000 -14.000000 -7.117664E+00
40.000000 -16.000000 1.869432E+00
40.000000 -18.000000 3.840479E+00
40.000000 -20.000000 -2.644895E+00
40.000000 -22.000000 -1.162855E+01
40.000000 -24.000000 -7.698668E+00
40.000000 -26.000000 1.299965E+01
40.000000 -28.000000 3.250253E+01
40.000000 -30.000000 3.102398E+01
40.000000 -32.000000 1.100679E+01
40.000000 -34.000000 -4.714366E+00
40.000000 -36.000000 -2.317863E+00
40.000000 -38.000000 1.460566E+01
40.000000 -40.000000 4.235870E+01
42.000000 40.000000 -2.145930E+01
42.000000 38.000000 6.398151E+00
42.000000 36.000000 2.391173E+01
42.000000 34.000000 2.770219E+01
42.000000 32.000000 1.125133E+01
42.000000 30.000000 5.386505E-01
42.000000 28.000000 2.738729E+00
42.000000 26.000000 9.748228E+00
42.000000 24.000000 5.228565E+00
42.000000 22.000000 -1.543336E+01
42.000000 20.000000 -3.994638E+01
42.000000 18.000000 -5.449839E+01
42.000000 16.000000 -4.325084E+01
42.000000 14.000000 -1.623077E+01
42.000000 12.000000 1.038336E+01
42.000000 10.000000 2.294944E+01
42.000000 8.000000 2.910362E+01
42.000000 6.000000 3.820655E+01
42.000000 4.000000 4.383959E+01
42.000000 2.000000 4.090729E+01
42.000000 0.000000 3.570842E+01
42.000000 -2.000000 3.283301E+01
42.000000 -4.000000 2.786875E+01
42.000000 -6.000000 1.289671E+01
42.000000 -8.000000 -1.758090E+00
42.000000 -10.000000 -7.345350E+00
42.000000 -12.000000 -1.046697E+01
42.000000 -14.000000 -8.352962E+00
42.000000 -16.000000 2.208990E+00
42.000000 -18.000000 8.896103E+00
42.000000 -20.000000 6.530534E+00
42.000000 -22.000000 -2.884835E+00
42.000000 -24.000000 -2.917767E+00
42.000000 -26.000000 1.371999E+01
42.000000 -28.000000 3.206597E+01
42.000000 -30.000000 3.252359E+01
42.000000 -32.000000 1.604866E+01
42.000000 -34.000000 2.865866E+00
42.000000 -36.000000 4.102658E+00
42.000000 -38.000000 1.788320E+01
42.000000 -40.000000 4.269738E+01
44.000000 40.000000 -1.412460E+01
44.000000 38.000000 1.039743E+01
44.000000 36.000000 2.296954E+01
44.000000 34.000000 2.151079E+01
44.000000 32.000000 2.213766E+00
44.000000 30.000000 -5.723461E+00
44.000000 28.000000 6.094118E+00
44.000000 26.000000 2.070903E+01
44.000000 24.000000 1.978071E+01
44.000000 22.000000 7.988949E-01
44.000000 20.000000 -2.093082E+01
44.000000 18.000000 -3.100617E+01
44.000000 16.000000 -1.724891E+01
44.000000 14.000000 9.895586E+00
44.000000 12.000000 3.115389E+01
44.000000 10.000000 3.489242E+01
44.000000 8.000000 2.888300E+01
44.000000 6.000000 3.239156E+01
44.000000 4.000000 3.842089E+01
44.000000 2.000000 3.406607E+01
44.000000 0.000000 2.346726E+01
44.000000 -2.000000 1.654161E+01
44.000000 -4.000000 1.436418E+01
44.000000 -6.000000 9.068357E+00
44.000000 -8.000000 1.648050E+00
44.000000 -10.000000 -2.830670E+00
44.000000 -12.000000 -8.526984E+00
44.000000 -14.000000 -1.061578E+01
44.000000 -16.000000 -1.468753E+00
44.000000 -18.000000 8.786756E+00
44.000000 -20.000000 1.041342E+01
44.000000 -22.000000 1.737962E+00
44.000000 -24.000000 2.355289E-02
44.000000 -26.000000 1.218969E+01
44.000000 -28.000000 2.751395E+01
44.000000 -30.000000 3.122128E+01
44.000000 -32.000000 2.097554E+01
44.000000 -34.000000 1.146070E+01
44.000000 -36.000000 1.338199E+01
44.000000 -38.000000 2.414169E+01
44.000000 -40.000000 4.432580E+01
46.000000 40.000000 -9.559288E+00
46.000000 38.000000 9.864700E+00
46.000000 36.000000 1.727942E+01
