-16.000000 28.000000 -6.676589E+01
-16.000000 26.000000 -6.880389E+01
-16.000000 24.000000 -7.362950E+01
-16.000000 22.000000 -6.759375E+01
-16.000000 20.000000 -6.022265E+01
-16.000000 18.000000 -5.452845E+01
-16.000000 16.000000 -5.731076E+01
-16.000000 14.000000 -7.278950E+01
-16.000000 12.000000 -9.078704E+01
-16.000000 10.000000 -9.497536E+01
-16.000000 8.000000 -6.745043E+01
-16.000000 6.000000 -2.582576E+01
-16.000000 4.000000 1.939423E+00
-16.000000 2.000000 2.917038E+00
-16.000000 0.000000 -8.199734E+00
-16.000000 -2.000000 -1.774908E+01
-16.000000 -4.000000 -1.775784E+00
-16.000000 -6.000000 2.604413E+01
-16.000000 -8.000000 3.557941E+01
-16.000000 -10.000000 3.799675E+01
-16.000000 -12.000000 3.200648E+01
-16.000000 -14.000000 2.104793E+01
-16.000000 -16.000000 6.435486E+00
-16.000000 -18.000000 3.165609E+00
-16.000000 -20.000000 9.362806E+00
-16.000000 -22.000000 1.162172E+01
-16.000000 -24.000000 1.397638E+00
-16.000000 -26.000000 -1.315538E+01
-16.000000 -28.000000 -2.432635E+01
-16.000000 -30.000000 -2.992282E+01
-16.000000 -32.000000 -2.341620E+01
-16.000000 -34.000000 -1.650039E+01
-16.000000 -36.000000 -1.811976E+01
-16.000000 -38.000000 -1.767617E+01
-16.000000 -40.000000 -1.376623E+01
-14.000000 40.000000 -2.443438E+01
-14.000000 38.000000 -3.622901E+01
-14.000000 36.000000 -6.214775E+01
-14.000000 34.000000 -7.159461E+01
-14.000000 32.000000 -6.086493E+01
-14.000000 30.000000 -6.407057E+01
-14.000000 28.000000 -6.478485E+01
-14.000000 26.000000 -6.413762E+01
-14.000000 24.000000 -6.470460E+01
-14.000000 22.000000 -5.239477E+01
-14.000000 20.000000 -3.989418E+01
-14.000000 18.000000 -2.696467E+01
-14.000000 16.000000 -2.752875E+01
-14.000000 14.000000 -4.782154E+01
-14.000000 12.000000 -7.597474E+01
-14.000000 10.000000 -8.943481E+01
-14.000000 8.000000 -6.795573E+01
-14.000000 6.000000 -2.767490E+01
-14.000000 4.000000 4.980545E+00
-14.000000 2.000000 1.295727E+01
-14.000000 0.000000 3.456795E+00
-14.000000 -2.000000 -1.073098E+01
-14.000000 -4.000000 -3.785851E+00
-14.000000 -6.000000 1.004887E+01
-14.000000 -8.000000 6.796307E+00
-14.000000 -10.000000 -1.759771E+00
-14.000000 -12.000000 -8.412350E+00
-14.000000 -14.000000 -1.174067E+01
-14.000000 -16.000000 -1.443708E+01
-14.000000 -18.000000 -1.184762E+01
-14.000000 -20.000000 -7.085620E+00
-14.000000 -22.000000 -9.232369E+00
-14.000000 -24.000000 -2.390529E+01
-14.000000 -26.000000 -4.150078E+01
-14.000000 -28.000000 -5.143801E+01
-14.000000 -30.000000 -5.033422E+01
-14.000000 -32.000000 -3.705374E+01
-14.000000 -34.000000 -2.140591E+01
-14.000000 -36.000000 -1.620830E+01
-14.000000 -38.000000 -1.455773E+01
-14.000000 -40.000000 -9.531606E+00
-12.000000 40.000000 -3.625612E+01
-12.000000 38.000000 -4.099860E+01
-12.000000 36.000000 -6.190807E+01
-12.000000 34.000000 -5.660112E+01
-12.000000 32.000000 -3.285574E+01
-12.000000 30.000000 -4.192103E+01
-12.000000 28.000000 -4.839194E+01
-12.000000 26.000000 -4.422547E+01
-12.000000 24.000000 -3.284474E+01
-12.000000 22.000000 -1.602955E+01
-12.000000 20.000000 -4.316036E+00
-12.000000 18.000000 1.005539E+01
-12.000000 16.000000 5.770893E+00
-12.000000 14.000000 -2.143938E+01
-12.000000 12.000000 -6.303278E+01
-12.000000 10.000000 -8.805019E+01
-12.000000 8.000000 -7.655361E+01
-12.000000 6.000000 -4.289824E+01
-12.000000 4.000000 -9.328255E+00
-12.000000 2.000000 6.619865E+00
-12.000000 0.000000 -2.839771E+00
-12.000000 -2.000000 -2.686271E+01
-12.000000 -4.000000 -3.388810E+01
-12.000000 -6.000000 -3.408005E+01
-12.000000 -8.000000 -4.288268E+01
-12.000000 -10.000000 -5.106279E+01
-12.000000 -12.000000 -4.356528E+01
-12.000000 -14.000000 -3.600731E+01
-12.000000 -16.000000 -3.470032E+01
-12.000000 -18.000000 -3.368693E+01
-12.000000 -20.000000 -2.971091E+01
-12.000000 -22.000000 -3.421947E+01
-12.000000 -24.000000 -4.851551E+01
-12.000000 -26.000000 -6.787338E+01
-12.000000 -28.000000 -7.159688E+01
-12.000000 -30.000000 -5.786329E+01
-12.000000 -32.000000 -3.420178E+01
-12.000000 -34.000000 -1.153697E+01
-12.000000 -36.000000 -4.309288E+00
-12.000000 -38.000000 -8.269545E+00
-12.000000 -40.000000 -9.813781E+00
-10.000000 40.000000 -5.137273E+01
-10.000000 38.000000 -5.262538E+01
-10.000000 36.000000 -5.679652E+01
-10.000000 34.000000 -3.652712E+01
-10.000000 32.000000 -7.535583E+00
-10.000000 30.000000 -1.033565E+01
-10.000000 28.000000 -1.914952E+01
-10.000000 26.000000 -1.643558E+01
-10.000000 24.000000 2.311596E+00
-10.000000 22.000000 2.011806E+01
-10.000000 20.000000 3.000816E+01
-10.000000 18.000000 3.552115E+01
-10.000000 16.000000 1.778412E+01
-10.000000 14.000000 -2.032188E+01
-10.000000 12.000000 -7.023254E+01
-10.000000 10.000000 -9.337387E+01
-10.000000 8.000000 -7.487993E+01
-10.000000 6.000000 -3.782127E+01
-10.000000 4.000000 -1.367844E+01
-10.000000 2.000000 -1.204085E+01
-10.000000 0.000000 -3.374195E+01
-10.000000 -2.000000 -6.641665E+01
-10.000000 -4.000000 -7.650385E+01
-10.000000 -6.000000 -7.976247E+01
-10.000000 -8.000000 -8.844147E+01
-10.000000 -10.000000 -9.307394E+01
-10.000000 -12.000000 -6.758557E+01
-10.000000 -14.000000 -5.022127E+01
-10.000000 -16.000000 -5.495321E+01
-10.000000 -18.000000 -5.901327E+01
-10.000000 -20.000000 -4.894283E+01
-10.000000 -22.000000 -5.003440E+01
-10.000000 -24.000000 -6.000690E+01
-10.000000 -26.000000 -7.963982E+01
-10.000000 -28.000000 -7.361425E+01
-10.000000 -30.000000 -4.787559E+01
-10.000000 -32.000000 -1.700033E+01
-10.000000 -34.000000 4.765126E+00
-10.000000 -36.000000 6.187690E+00
-10.000000 -38.000000 -5.125696E+00
-10.000000 -40.000000 -1.368013E+01
-8.000000 40.000000 -5.976242E+01
-8.000000 38.000000 -6.345380E+01
-8.000000 36.000000 -5.246190E+01
-8.000000 34.000000 -1.928278E+01
-8.000000 32.000000 9.550705E+00
-8.000000 30.000000 1.646686E+01
-8.000000 28.000000 8.641716E+00
-8.000000 26.000000 4.482777E+00
-8.000000 24.000000 1.890978E+01
-8.000000 22.000000 3.252688E+01
-8.000000 20.000000 3.527497E+01
-8.000000 18.000000 2.311721E+01
-8.000000 16.000000 -9.024036E+00
-8.000000 14.000000 -5.347897E+01
-8.000000 12.000000 -1.005074E+02
-8.000000 10.000000 -1.123173E+02
-8.000000 8.000000 -6.942957E+01
-8.000000 6.000000 -1.057842E+01
-8.000000 4.000000 -3.009125E+00
-8.000000 2.000000 -4.505901E+01
-8.000000 0.000000 -8.988860E+01
-8.000000 -2.000000 -1.155732E+02
-8.000000 -4.000000 -1.033787E+02
-8.000000 -6.000000 -8.595328E+01
-8.000000 -8.000000 -8.894197E+01
-8.000000 -10.000000 -9.483699E+01
-8.000000 -12.000000 -7.591389E+01
-8.000000 -14.000000 -6.301809E+01
-8.000000 -16.000000 -7.005054E+01
-8.000000 -18.000000 -6.912803E+01
-8.000000 -20.000000 -4.941478E+01
-8.000000 -22.000000 -4.216677E+01
-8.000000 -24.000000 -4.830927E+01
-8.000000 -26.000000 -6.275012E+01
-8.000000 -28.000000 -5.257278E+01
-8.000000 -30.000000 -2.791205E+01
-8.000000 -32.000000 -2.049847E-01
-8.000000 -34.000000 1.396337E+01
-8.000000 -36.000000 4.945008E+00
-8.000000 -38.000000 -1.136943E+01
-8.000000 -40.000000 -2.090376E+01
-6.000000 40.000000 -5.752450E+01
-6.000000 38.000000 -6.348957E+01
-6.000000 36.000000 -4.549936E+01
-6.000000 34.000000 -5.870113E+00
-6.000000 32.000000 2.161543E+01
-6.000000 30.000000 2.886425E+01
-6.000000 28.000000 1.841694E+01
-6.000000 26.000000 3.928711E+00
-6.000000 24.000000 7.975559E+00
-6.000000 22.000000 1.309796E+01
-6.000000 20.000000 -3.063335E+00
-6.000000 18.000000 -3.343161E+01
-6.000000 16.000000 -6.798832E+01
-6.000000 14.000000 -1.098446E+02
-6.000000 12.000000 -1.449676E+02
-6.000000 10.000000 -1.426136E+02
-6.000000 8.000000 -7.988003E+01
-6.000000 6.000000 -4.381386E+00
-6.000000 4.000000 -5.392754E+00
-6.000000 2.000000 -7.044779E+01
-6.000000 0.000000 -1.241329E+02
-6.000000 -2.000000 -1.343794E+02
-6.000000 -4.000000 -9.396514E+01
-6.000000 -6.000000 -5.204394E+01
-6.000000 -8.000000 -4.926442E+01
-6.000000 -10.000000 -5.993744E+01
-6.000000 -12.000000 -6.446331E+01
-6.000000 -14.000000 -6.483780E+01
-6.000000 -16.000000 -6.534958E+01
-6.000000 -18.000000 -5.292274E+01
-6.000000 -20.000000 -2.832384E+01
-6.000000 -22.000000 -1.554372E+01
-6.000000 -24.000000 -1.991123E+01
-6.000000 -26.000000 -3.106939E+01
-6.000000 -28.000000 -2.941951E+01
-6.000000 -30.000000 -1.414907E+01
-6.000000 -32.000000 5.260176E+00
-6.000000 -34.000000 1.197760E+01
-6.000000 -36.000000 -3.092196E+00
-6.000000 -38.000000 -2.063035E+01
-6.000000 -40.000000 -2.779490E+01
-4.000000 40.000000 -4.278480E+01
-4.000000 38.000000 -4.842490E+01
-4.000000 36.000000 -3.369723E+01
-4.000000 34.000000 -2.750893E+00
-4.000000 32.000000 1.649961E+01
-4.000000 30.000000 1.781738E+01
-4.000000 28.000000 4.185658E+00
-4.000000 26.000000 -1.760926E+01
-4.000000 24.000000 -2.265316E+01
-4.000000 22.000000 -2.544667E+01
-4.000000 20.000000 -5.220955E+01
-4.000000 18.000000 -8.884585E+01
-4.000000 16.000000 -1.207696E+02
-4.000000 14.000000 -1.565600E+02
-4.000000 12.000000 -1.815235E+02
-4.000000 10.000000 -1.725423E+02
-4.000000 8.000000 -1.004840E+02
-4.000000 6.000000 -1.895999E+01
-4.000000 4.000000 -9.852467E+00
-4.000000 2.000000 -6.689058E+01
-4.000000 0.000000 -1.176635E+02
-4.000000 -2.000000 -1.173282E+02
-4.000000 -4.000000 -6.176801E+01
-4.000000 -6.000000 -1.131954E+01
-4.000000 -8.000000 -1.050845E+01
-4.000000 -10.000000 -2.598526E+01
-4.000000 -12.000000 -4.340780E+01
-4.000000 -14.000000 -4.842258E+01
-4.000000 -16.000000 -4.443594E+01
-4.000000 -18.000000 -2.768487E+01
-4.000000 -20.000000 -4.108818E+00
-4.000000 -22.000000 9.275156E+00
-4.000000 -24.000000 4.842577E+00
-4.000000 -26.000000 -1.001587E+01
-4.000000 -28.000000 -1.935541E+01
-4.000000 -30.000000 -1.157506E+01
-4.000000 -32.000000 -4.109097E-01
-4.000000 -34.000000 7.129688E-01
-4.000000 -36.000000 -1.153670E+01
-4.000000 -38.000000 -2.209684E+01
-4.000000 -40.000000 -2.679578E+01
-2.000000 40.000000 -2.435935E+01
-2.000000 38.000000 -3.379257E+01
-2.000000 36.000000 -2.792262E+01
-2.000000 34.000000 -1.230767E+01
-2.000000 32.000000 -4.409153E+00
-2.000000 30.000000 -7.747902E+00
-2.000000 28.000000 -2.114001E+01
-2.000000 26.000000 -4.067155E+01
-2.000000 24.000000 -4.958531E+01
-2.000000 22.000000 -5.601661E+01
-2.000000 20.000000 -7.192900E+01
-2.000000 18.000000 -9.604997E+01
-2.000000 16.000000 -1.220996E+02
-2.000000 14.000000 -1.513801E+02
-2.000000 12.000000 -1.753587E+02
-2.000000 10.000000 -1.752820E+02
-2.000000 8.000000 -1.119632E+02
-2.000000 6.000000 -3.190824E+01
-2.000000 4.000000 -6.718906E+00
-2.000000 2.000000 -4.581822E+01
-2.000000 0.000000 -8.369123E+01
-2.000000 -2.000000 -8.388701E+01
-2.000000 -4.000000 -3.743061E+01
-2.000000 -6.000000 3.872066E+00
-2.000000 -8.000000 9.595871E-02
-2.000000 -10.000000 -1.317569E+01
-2.000000 -12.000000 -2.665660E+01
-2.000000 -14.000000 -2.937681E+01
-2.000000 -16.000000 -2.649945E+01
-2.000000 -18.000000 -1.476341E+01
-2.000000 -20.000000 3.909454E-01
-2.000000 -22.000000 1.078127E+01
-2.000000 -24.000000 5.654243E+00
-2.000000 -26.000000 -7.610751E+00
-2.000000 -28.000000 -1.782386E+01
-2.000000 -30.000000 -1.557433E+01
-2.000000 -32.000000 -1.189564E+01
-2.000000 -34.000000 -1.368022E+01
-2.000000 -36.000000 -1.678906E+01
-2.000000 -38.000000 -1.421826E+01
-2.000000 -40.000000 -1.594290E+01
0.000000 40.000000 -1.226770E+01
0.000000 38.000000 -2.908002E+01
0.000000 36.000000 -3.131968E+01
0.000000 34.000000 -2.683208E+01
0.000000 32.000000 -2.630437E+01
0.000000 30.000000 -3.320684E+01
0.000000 28.000000 -4.743620E+01
0.000000 26.000000 -5.637548E+01
0.000000 24.000000 -5.752464E+01
0.000000 22.000000 -5.594404E+01
0.000000 20.000000 -5.197791E+01
0.000000 18.000000 -5.381116E+01
0.000000 16.000000 -6.763084E+01
0.000000 14.000000 -9.290016E+01
0.000000 12.000000 -1.242353E+02
0.000000 10.000000 -1.389702E+02
0.000000 8.000000 -9.608212E+01
0.000000 6.000000 -2.797979E+01
0.000000 4.000000 1.123367E+00
0.000000 2.000000 -2.357669E+01
0.000000 0.000000 -5.242915E+01
0.000000 -2.000000 -6.123210E+01
0.000000 -4.000000 -3.131821E+01
0.000000 -6.000000 -4.164806E+00
0.000000 -8.000000 -1.053255E+01
0.000000 -10.000000 -1.676026E+01
0.000000 -12.000000 -1.983196E+01
0.000000 -14.000000 -2.219184E+01
0.000000 -16.000000 -2.328232E+01
0.000000 -18.000000 -2.007461E+01
0.000000 -20.000000 -1.519339E+01
0.000000 -22.000000 -9.317114E+00
0.000000 -24.000000 -1.375113E+01
0.000000 -26.000000 -1.794123E+01
0.000000 -28.000000 -2.171200E+01
0.000000 -30.000000 -2.152511E+01
0.000000 -32.000000 -2.149169E+01
0.000000 -34.000000 -2.054757E+01
0.000000 -36.000000 -1.258712E+01
0.000000 -38.000000 -1.340610E+00
0.000000 -40.000000 -1.057545E+00
2.000000 40.000000 -2.535801E+00
2.000000 38.000000 -2.314440E+01
2.000000 36.000000 -3.161885E+01
2.000000 34.000000 -3.538322E+01
2.000000 32.000000 -4.043613E+01
2.000000 30.000000 -5.355359E+01
2.000000 28.000000 -6.898805E+01
2.000000 26.000000 -6.951823E+01
2.000000 24.000000 -6.167878E+01
2.000000 22.000000 -4.590956E+01
2.000000 20.000000 -2.394711E+01
2.000000 18.000000 -5.144329E+00
2.000000 16.000000 -7.497753E+00
2.000000 14.000000 -2.870803E+01
2.000000 12.000000 -6.809101E+01
2.000000 10.000000 -9.357558E+01
2.000000 8.000000 -6.644317E+01
2.000000 6.000000 -4.408253E+00
2.000000 4.000000 2.576362E+01
2.000000 2.000000 5.493607E+00
2.000000 0.000000 -2.707349E+01
2.000000 -2.000000 -4.797973E+01
2.000000 -4.000000 -3.607758E+01
2.000000 -6.000000 -2.223013E+01
2.000000 -8.000000 -2.580665E+01
2.000000 -10.000000 -2.537928E+01
2.000000 -12.000000 -2.083471E+01
2.000000 -14.000000 -2.180930E+01
2.000000 -16.000000 -2.507406E+01
2.000000 -18.000000 -2.887408E+01
2.000000 -20.000000 -2.983100E+01
2.000000 -22.000000 -2.662280E+01
2.000000 -24.000000 -3.103502E+01
2.000000 -26.000000 -3.101219E+01
2.000000 -28.000000 -2.629040E+01
2.000000 -30.000000 -2.166842E+01
2.000000 -32.000000 -1.920619E+01
2.000000 -34.000000 -1.348507E+01
2.000000 -36.000000 1.089335E+00
2.000000 -38.000000 1.231861E+01
2.000000 -40.000000 1.194034E+01
4.000000 40.000000 7.469975E+00
4.000000 38.000000 -1.370527E+01
4.000000 36.000000 -2.584609E+01
4.000000 34.000000 -3.427877E+01
4.000000 32.000000 -3.992973E+01
4.000000 30.000000 -5.503532E+01
4.000000 28.000000 -6.770605E+01
4.000000 26.000000 -6.688352E+01
4.000000 24.000000 -5.949107E+01
4.000000 22.000000 -4.031286E+01
4.000000 20.000000 -1.756191E+01
4.000000 18.000000 3.707161E-01
4.000000 16.000000 -2.872810E+00
4.000000 14.000000 -2.438727E+01
4.000000 12.000000 -6.420354E+01
4.000000 10.000000 -8.810552E+01
4.000000 8.000000 -6.208021E+01
4.000000 6.000000 4.906830E+00
4.000000 4.000000 4.688376E+01
4.000000 2.000000 3.466085E+01
4.000000 0.000000 1.117790E+00
4.000000 -2.000000 -3.037074E+01
4.000000 -4.000000 -3.895044E+01
4.000000 -6.000000 -3.680751E+01
4.000000 -8.000000 -3.548010E+01
4.000000 -10.000000 -2.996713E+01
4.000000 -12.000000 -1.880237E+01
4.000000 -14.000000 -1.355591E+01
4.000000 -16.000000 -1.260908E+01
4.000000 -18.000000 -1.569509E+01
4.000000 -20.000000 -1.524720E+01
4.000000 -22.000000 -1.479844E+01
4.000000 -24.000000 -2.293801E+01
4.000000 -26.000000 -2.757468E+01
4.000000 -28.000000 -1.852112E+01
4.000000 -30.000000 -8.501564E+00
4.000000 -32.000000 -1.546203E+00
4.000000 -34.000000 5.269866E+00
4.000000 -36.000000 1.575650E+01
4.000000 -38.000000 2.159325E+01
4.000000 -40.000000 1.747449E+01
6.000000 40.000000 1.429022E+01
6.000000 38.000000 -7.405647E+00
6.000000 36.000000 -2.112261E+01
6.000000 34.000000 -2.761331E+01
6.000000 32.000000 -2.363677E+01
6.000000 30.000000 -2.972778E+01
6.000000 28.000000 -3.742746E+01
6.000000 26.000000 -3.989490E+01
6.000000 24.000000 -4.083708E+01
6.000000 22.000000 -3.730864E+01
6.000000 20.000000 -3.212346E+01
6.000000 18.000000 -3.389024E+01
6.000000 16.000000 -5.235496E+01
6.000000 14.000000 -8.447126E+01
6.000000 12.000000 -1.222084E+02
6.000000 10.000000 -1.394160E+02
6.000000 8.000000 -1.021542E+02
6.000000 6.000000 -2.733945E+01
6.000000 4.000000 3.127259E+01
6.000000 2.000000 3.465738E+01
6.000000 0.000000 9.831314E+00
6.000000 -2.000000 -1.968586E+01
6.000000 -4.000000 -3.239606E+01
6.000000 -6.000000 -3.246459E+01
6.000000 -8.000000 -3.138517E+01
6.000000 -10.000000 -2.868566E+01
6.000000 -12.000000 -1.230169E+01
6.000000 -14.000000 1.831108E+00
6.000000 -16.000000 1.460556E+01
6.000000 -18.000000 2.321822E+01
6.000000 -20.000000 3.098956E+01
6.000000 -22.000000 2.960282E+01
6.000000 -24.000000 1.549809E+01
6.000000 -26.000000 4.907024E+00
6.000000 -28.000000 8.652582E+00
6.000000 -30.000000 1.900560E+01
6.000000 -32.000000 2.650161E+01
6.000000 -34.000000 3.060710E+01
6.000000 -36.000000 2.888112E+01
6.000000 -38.000000 2.367153E+01
6.000000 -40.000000 9.599170E+00
8.000000 40.000000 2.057745E+01
8.000000 38.000000 -4.742273E+00
8.000000 36.000000 -2.277958E+01
8.000000 34.000000 -2.236003E+01
8.000000 32.000000 -7.684555E-01
8.000000 30.000000 7.397358E+00
8.000000 28.000000 4.199543E+00
8.000000 26.000000 -2.922592E+00
8.000000 24.000000 -1.459251E+01
8.000000 22.000000 -3.593722E+01
8.000000 20.000000 -5.385724E+01
8.000000 18.000000 -7.665710E+01
8.000000 16.000000 -1.115408E+02
8.000000 14.000000 -1.549189E+02
8.000000 12.000000 -1.909615E+02
8.000000 10.000000 -2.061043E+02
8.000000 8.000000 -1.609797E+02
8.000000 6.000000 -8.557769E+01
8.000000 4.000000 -1.750436E+01
8.000000 2.000000 -7.138710E-01
8.000000 0.000000 -1.380629E+01
8.000000 -2.000000 -2.766023E+01
8.000000 -4.000000 -2.179883E+01
8.000000 -6.000000 -9.093170E+00
8.000000 -8.000000 -8.161076E+00
8.000000 -10.000000 -1.513478E+01
8.000000 -12.000000 -4.969179E+00
8.000000 -14.000000 1.220202E+01
8.000000 -16.000000 3.600263E+01
8.000000 -18.000000 5.734668E+01
8.000000 -20.000000 6.994442E+01
8.000000 -22.000000 6.986814E+01
8.000000 -24.000000 5.809546E+01
8.000000 -26.000000 4.860282E+01
8.000000 -28.000000 4.271591E+01
8.000000 -30.000000 4.895816E+01
8.000000 -32.000000 5.229402E+01
8.000000 -34.000000 5.093278E+01
8.000000 -36.000000 3.942344E+01
8.000000 -38.000000 2.324524E+01
8.000000 -40.000000 -3.541624E+00
10.000000 40.000000 3.322387E+01
10.000000 38.000000 -3.533857E+00
10.000000 36.000000 -3.678881E+01
10.000000 34.000000 -3.103643E+01
10.000000 32.000000 1.339452E+01
10.000000 30.000000 3.768044E+01
10.000000 28.000000 3.742527E+01
10.000000 26.000000 2.634215E+01
10.000000 24.000000 1.534710E+00
10.000000 22.000000 -3.844415E+01
10.000000 20.000000 -7.049588E+01
10.000000 18.000000 -1.012261E+02
10.000000 16.000000 -1.373886E+02
10.000000 14.000000 -1.782162E+02
10.000000 12.000000 -2.061574E+02
10.000000 10.000000 -2.211464E+02
10.000000 8.000000 -1.892005E+02
10.000000 6.000000 -1.322024E+02
10.000000 4.000000 -7.114188E+01
10.000000 2.000000 -4.756258E+01
10.000000 0.000000 -5.195660E+01
10.000000 -2.000000 -4.909907E+01
10.000000 -4.000000 -1.448673E+01
10.000000 -6.000000 2.612389E+01
10.000000 -8.000000 2.925670E+01
10.000000 -10.000000 1.047379E+01
10.000000 -12.000000 8.182678E-01
10.000000 -14.000000 9.125916E+00
10.000000 -16.000000 3.404007E+01
10.000000 -18.000000 5.619461E+01
10.000000 -20.000000 6.325269E+01
10.000000 -22.000000 6.367808E+01
10.000000 -24.000000 6.468776E+01
10.000000 -26.000000 6.487733E+01
10.000000 -28.000000 5.910009E+01
10.000000 -30.000000 6.037909E+01
10.000000 -32.000000 5.762456E+01
10.000000 -34.000000 5.375149E+01
10.000000 -36.000000 4.435965E+01
10.000000 -38.000000 2.832543E+01
10.000000 -40.000000 -4.670291E+00
12.000000 40.000000 4.793588E+01
12.000000 38.000000 -8.054886E-01
12.000000 36.000000 -4.831354E+01
12.000000 34.000000 -4.756502E+01
12.000000 32.000000 4.754402E+00
12.000000 30.000000 3.792626E+01
12.000000 28.000000 4.049910E+01
12.000000 26.000000 2.983426E+01
12.000000 24.000000 -7.791077E+00
12.000000 22.000000 -4.615443E+01
12.000000 20.000000 -6.954749E+01
12.000000 18.000000 -8.510402E+01
12.000000 16.000000 -1.006463E+02
12.000000 14.000000 -1.269876E+02
12.000000 12.000000 -1.451878E+02
12.000000 10.000000 -1.598973E+02
12.000000 8.000000 -1.597905E+02
12.000000 6.000000 -1.365306E+02
12.000000 4.000000 -9.832010E+01
12.000000 2.000000 -7.624837E+01
12.000000 0.000000 -7.818453E+01
12.000000 -2.000000 -7.136758E+01
12.000000 -4.000000 -1.292636E+01
12.000000 -6.000000 6.354158E+01
12.000000 -8.000000 6.397657E+01
12.000000 -10.000000 2.692852E+01
12.000000 -12.000000 -7.788898E+00
12.000000 -14.000000 -1.616489E+01
12.000000 -16.000000 7.281565E+00
12.000000 -18.000000 2.094121E+01
12.000000 -20.000000 1.373008E+01
12.000000 -22.000000 1.459715E+01
12.000000 -24.000000 3.261702E+01
12.000000 -26.000000 4.661572E+01
12.000000 -28.000000 4.810548E+01
12.000000 -30.000000 4.527717E+01
12.000000 -32.000000 3.914356E+01
12.000000 -34.000000 4.093663E+01
12.000000 -36.000000 4.467064E+01
12.000000 -38.000000 3.798935E+01
12.000000 -40.000000 5.510928E+00
14.000000 40.000000 5.586900E+01
14.000000 38.000000 4.818460E+00
14.000000 36.000000 -4.076017E+01
14.000000 34.000000 -5.418726E+01
14.000000 32.000000 -2.337394E+01
14.000000 30.000000 8.707809E-02
14.000000 28.000000 8.298443E+00
14.000000 26.000000 4.004261E+00
14.000000 24.000000 -3.651553E+01
14.000000 22.000000 -4.764446E+01
14.000000 20.000000 -2.833171E+01
14.000000 18.000000 -1.465559E+01
14.000000 16.000000 -1.665543E+01
14.000000 14.000000 -3.971415E+01
14.000000 12.000000 -6.624231E+01
14.000000 10.000000 -8.762198E+01
14.000000 8.000000 -1.007513E+02
14.000000 6.000000 -8.382710E+01
14.000000 4.000000 -6.210257E+01
14.000000 2.000000 -6.407579E+01
14.000000 0.000000 -8.732737E+01
14.000000 -2.000000 -9.697569E+01
14.000000 -4.000000 -3.843846E+01
14.000000 -6.000000 5.548505E+01
14.000000 -8.000000 5.928160E+01
14.000000 -10.000000 1.245179E+01
14.000000 -12.000000 -3.463104E+01
14.000000 -14.000000 -4.947888E+01
14.000000 -16.000000 -1.848499E+01
14.000000 -18.000000 -7.117474E+00
14.000000 -20.000000 -1.998317E+01
14.000000 -22.000000 -1.688713E+01
14.000000 -24.000000 5.028195E+00
14.000000 -26.000000 2.402290E+01
14.000000 -28.000000 2.245525E+01
14.000000 -30.000000 1.401262E+01
14.000000 -32.000000 8.906333E+00
14.000000 -34.000000 1.906941E+01
14.000000 -36.000000 3.519934E+01
14.000000 -38.000000 3.913967E+01
14.000000 -40.000000 1.140543E+01
16.000000 40.000000 6.476853E+01
16.000000 38.000000 1.075353E+01
16.000000 36.000000 -3.499169E+01
16.000000 34.000000 -6.119546E+01
16.000000 32.000000 -5.076035E+01
16.000000 30.000000 -3.737264E+01
16.000000 28.000000 -2.519458E+01
16.000000 26.000000 -2.093631E+01
16.000000 24.000000 -5.263497E+01
16.000000 22.000000 -3.391291E+01
16.000000 20.000000 2.886223E+01
16.000000 18.000000 6.775540E+01
16.000000 16.000000 6.167294E+01
16.000000 14.000000 2.085202E+01
16.000000 12.000000 -3.079497E+01
16.000000 10.000000 -6.705610E+01
16.000000 8.000000 -7.119941E+01
16.000000 6.000000 -2.945597E+01
16.000000 4.000000 -2.666809E+00
16.000000 2.000000 -2.678476E+01
16.000000 0.000000 -6.937902E+01
16.000000 -2.000000 -1.025314E+02
16.000000 -4.000000 -8.315528E+01
16.000000 -6.000000 -2.088230E+01
16.000000 -8.000000 -4.814671E+00
16.000000 -10.000000 -3.194326E+01
16.000000 -12.000000 -6.180531E+01
16.000000 -14.000000 -5.404829E+01
16.000000 -16.000000 -7.101698E+00
16.000000 -18.000000 1.499278E+01
16.000000 -20.000000 1.328358E+01
16.000000 -22.000000 1.081824E+01
16.000000 -24.000000 7.136337E+00
16.000000 -26.000000 6.246421E+00
16.000000 -28.000000 -5.104052E+00
16.000000 -30.000000 -1.822990E+01
16.000000 -32.000000 -2.048313E+01
16.000000 -34.000000 -3.478588E+00
16.000000 -36.000000 1.795234E+01
16.000000 -38.000000 2.581122E+01
16.000000 -40.000000 2.695959E+00
18.000000 40.000000 7.412681E+01
18.000000 38.000000 1.409726E+01
18.000000 36.000000 -3.551178E+01
18.000000 34.000000 -6.377254E+01
18.000000 32.000000 -5.588913E+01
18.000000 30.000000 -4.318879E+01
18.000000 28.000000 -3.142939E+01
18.000000 26.000000 -2.280089E+01
18.000000 24.000000 -3.131850E+01
18.000000 22.000000 -4.878620E+00
18.000000 20.000000 5.574414E+01
18.000000 18.000000 9.713366E+01
18.000000 16.000000 7.658700E+01
18.000000 14.000000 1.104431E+01
18.000000 12.000000 -6.032538E+01
18.000000 10.000000 -1.089271E+02
18.000000 8.000000 -9.794158E+01
18.000000 6.000000 -3.804766E+01
18.000000 4.000000 1.799721E+00
18.000000 2.000000 -5.973297E+00
18.000000 0.000000 -3.019984E+01
18.000000 -2.000000 -6.696331E+01
18.000000 -4.000000 -8.927514E+01
18.000000 -6.000000 -7.588968E+01
18.000000 -8.000000 -6.309010E+01
18.000000 -10.000000 -6.804876E+01
18.000000 -12.000000 -7.047633E+01
18.000000 -14.000000 -2.998360E+01
18.000000 -16.000000 4.002139E+01
18.000000 -18.000000 7.536173E+01
18.000000 -20.000000 7.886742E+01
18.000000 -22.000000 6.091583E+01
18.000000 -24.000000 2.749088E+01
18.000000 -26.000000 -4.147080E+00
18.000000 -28.000000 -2.803168E+01
18.000000 -30.000000 -4.345285E+01
18.000000 -32.000000 -4.358230E+01
18.000000 -34.000000 -1.965524E+01
18.000000 -36.000000 5.095635E+00
18.000000 -38.000000 8.685783E+00
18.000000 -40.000000 -1.713949E+01
20.000000 40.000000 7.535146E+01
20.000000 38.000000 1.463972E+01
20.000000 36.000000 -2.789034E+01
20.000000 34.000000 -4.390790E+01
20.000000 32.000000 -3.117308E+01
20.000000 30.000000 -1.956434E+01
20.000000 28.000000 -1.239970E+01
20.000000 26.000000 -7.699865E+00
20.000000 24.000000 -5.499189E+00
20.000000 22.000000 1.023351E+01
20.000000 20.000000 3.910812E+01
20.000000 18.000000 5.540294E+01
20.000000 16.000000 2.722474E+01
20.000000 14.000000 -3.877014E+01
20.000000 12.000000 -1.134272E+02
20.000000 10.000000 -1.719616E+02
20.000000 8.000000 -1.502544E+02
20.000000 6.000000 -8.460976E+01
20.000000 4.000000 -2.770516E+01
20.000000 2.000000 1.933359E+00
20.000000 0.000000 2.276730E+01
20.000000 -2.000000 6.404753E+00
20.000000 -4.000000 -4.212134E+01
20.000000 -6.000000 -7.396111E+01
20.000000 -8.000000 -7.814060E+01
20.000000 -10.000000 -7.494958E+01
20.000000 -12.000000 -6.513354E+01
20.000000 -14.000000 -8.000481E+00
20.000000 -16.000000 7.448162E+01
20.000000 -18.000000 1.074600E+02
20.000000 -20.000000 1.076318E+02
20.000000 -22.000000 8.259847E+01
20.000000 -24.000000 4.208242E+01
20.000000 -26.000000 -1.659862E+00
20.000000 -28.000000 -3.514640E+01
20.000000 -30.000000 -5.278447E+01
20.000000 -32.000000 -5.355420E+01
20.000000 -34.000000 -2.704415E+01
20.000000 -36.000000 -1.224324E+00
20.000000 -38.000000 -2.457298E+00
20.000000 -40.000000 -3.647257E+01
22.000000 40.000000 7.225540E+01
22.000000 38.000000 1.467187E+01
22.000000 36.000000 -1.841802E+01
22.000000 34.000000 -2.256077E+01
22.000000 32.000000 -5.143185E+00
22.000000 30.000000 4.327414E+00
22.000000 28.000000 5.756620E+00
22.000000 26.000000 1.574312E+00
22.000000 24.000000 1.904907E-01
22.000000 22.000000 1.600796E+00
22.000000 20.000000 3.763119E+00
22.000000 18.000000 -9.143543E-01
22.000000 16.000000 -1.427135E+01
22.000000 14.000000 -5.318261E+01
22.000000 12.000000 -1.147836E+02
22.000000 10.000000 -1.773039E+02
22.000000 8.000000 -1.653797E+02
22.000000 6.000000 -1.075293E+02
22.000000 4.000000 -4.179270E+01
22.000000 2.000000 2.776014E+00
22.000000 0.000000 4.367958E+01
22.000000 -2.000000 4.305646E+01
22.000000 -4.000000 -3.239906E+00
22.000000 -6.000000 -4.283029E+01
22.000000 -8.000000 -4.952064E+01
22.000000 -10.000000 -4.755290E+01
22.000000 -12.000000 -4.129936E+01
22.000000 -14.000000 -3.424625E-01
22.000000 -16.000000 5.668541E+01
22.000000 -18.000000 7.300949E+01
22.000000 -20.000000 6.902787E+01
22.000000 -22.000000 5.314041E+01
22.000000 -24.000000 3.165260E+01
22.000000 -26.000000 5.582862E+00
22.000000 -28.000000 -2.107220E+01
22.000000 -30.000000 -3.758026E+01
22.000000 -32.000000 -4.053721E+01
22.000000 -34.000000 -1.711846E+01
22.000000 -36.000000 7.483518E-01
22.000000 -38.000000 -9.042171E+00
22.000000 -40.000000 -5.321718E+01
24.000000 40.000000 6.644067E+01
24.000000 38.000000 1.358111E+01
24.000000 36.000000 -1.571836E+01
24.000000 34.000000 -2.108199E+01
24.000000 32.000000 -3.320570E+00
24.000000 30.000000 4.852478E+00
24.000000 28.000000 4.163345E+00
24.000000 26.000000 -4.329756E+00
24.000000 24.000000 -9.279881E+00
24.000000 22.000000 -1.370784E+01
24.000000 20.000000 -1.553262E+01
24.000000 18.000000 -1.981924E+01
24.000000 16.000000 -1.411003E+01
24.000000 14.000000 -2.188327E+01
24.000000 12.000000 -6.037078E+01
24.000000 10.000000 -1.101060E+02
24.000000 8.000000 -1.123331E+02
24.000000 6.000000 -6.920838E+01
24.000000 4.000000 -2.279351E+01
24.000000 2.000000 -3.195009E+00
24.000000 0.000000 1.270445E+01
24.000000 -2.000000 5.448206E+00
24.000000 -4.000000 -7.481222E+00
24.000000 -6.000000 -8.292805E+00
24.000000 -8.000000 -4.870732E+00
24.000000 -10.000000 -4.606364E+00
24.000000 -12.000000 -1.044588E+01
24.000000 -14.000000 -6.750965E-01
24.000000 -16.000000 1.295326E+01
24.000000 -18.000000 2.937291E+00
24.000000 -20.000000 -6.063860E+00
24.000000 -22.000000 -8.296739E+00
24.000000 -24.000000 2.618757E+00
24.000000 -26.000000 8.996027E+00
24.000000 -28.000000 8.929000E-01
24.000000 -30.000000 -5.535556E+00
24.000000 -32.000000 -5.790179E+00
24.000000 -34.000000 1.335588E+01
24.000000 -36.000000 1.448770E+01
24.000000 -38.000000 -1.358880E+01
24.000000 -40.000000 -7.191935E+01
26.000000 40.000000 5.683716E+01
26.000000 38.000000 7.862685E+00
26.000000 36.000000 -2.169885E+01
26.000000 34.000000 -3.655498E+01
26.000000 32.000000 -2.052575E+01
26.000000 30.000000 -1.241944E+01
26.000000 28.000000 -1.080418E+01
26.000000 26.000000 -1.864767E+01
26.000000 24.000000 -2.596463E+01
26.000000 22.000000 -2.877721E+01
26.000000 20.000000 -2.173522E+01
26.000000 18.000000 -1.111890E+01
26.000000 16.000000 6.845556E+00
26.000000 14.000000 1.792631E+01
26.000000 12.000000 -3.015064E+00
26.000000 10.000000 -3.654271E+01
26.000000 8.000000 -4.607068E+01
26.000000 6.000000 -1.703134E+01
26.000000 4.000000 4.270153E-01
26.000000 2.000000 -1.426582E+01
26.000000 0.000000 -3.062274E+01
26.000000 -2.000000 -4.091075E+01
26.000000 -4.000000 -2.167150E+01
26.000000 -6.000000 8.245866E+00
26.000000 -8.000000 1.540667E+01
26.000000 -10.000000 1.219672E+01
26.000000 -12.000000 2.910807E+00
26.000000 -14.000000 1.087672E+00
26.000000 -16.000000 -4.875354E+00
26.000000 -18.000000 -2.859257E+01
26.000000 -20.000000 -4.728965E+01
26.000000 -22.000000 -4.923459E+01
26.000000 -24.000000 -1.959167E+01
26.000000 -26.000000 9.100419E+00
26.000000 -28.000000 1.835131E+01
26.000000 -30.000000 2.573629E+01
26.000000 -32.000000 3.248913E+01
26.000000 -34.000000 4.568884E+01
26.000000 -36.000000 2.813662E+01
26.000000 -38.000000 -1.795638E+01
26.000000 -40.000000 -8.885274E+01
28.000000 40.000000 4.598854E+01
28.000000 38.000000 -7.262826E+00
28.000000 36.000000 -4.251074E+01
28.000000 34.000000 -6.372373E+01
28.000000 32.000000 -4.291526E+01
28.000000 30.000000 -2.948893E+01
28.000000 28.000000 -2.416187E+01
28.000000 26.000000 -3.194520E+01
28.000000 24.000000 -4.411493E+01
28.000000 22.000000 -4.618115E+01
28.000000 20.000000 -3.236417E+01
28.000000 18.000000 -8.178987E+00
28.000000 16.000000 1.679927E+01
28.000000 14.000000 3.327253E+01
28.000000 12.000000 2.119989E+01
28.000000 10.000000 1.689129E+00
28.000000 8.000000 -6.384790E+00
28.000000 6.000000 9.395678E+00
28.000000 4.000000 -1.566480E+00
28.000000 2.000000 -4.227396E+01
28.000000 0.000000 -7.746360E+01
28.000000 -2.000000 -7.871386E+01
28.000000 -4.000000 -3.577524E+01
28.000000 -6.000000 6.764010E+00
28.000000 -8.000000 1.059904E+01
28.000000 -10.000000 2.899684E+00
28.000000 -12.000000 5.038746E+00
28.000000 -14.000000 1.468114E+01
28.000000 -16.000000 1.735516E+01
28.000000 -18.000000 5.315920E-01
28.000000 -20.000000 -2.555487E+01
28.000000 -22.000000 -3.672873E+01
28.000000 -24.000000 -1.207907E+01
28.000000 -26.000000 1.838743E+01
28.000000 -28.000000 3.262727E+01
28.000000 -30.000000 4.348507E+01
28.000000 -32.000000 5.274328E+01
28.000000 -34.000000 6.072989E+01
28.000000 -36.000000 3.122513E+01
28.000000 -38.000000 -2.387525E+01
28.000000 -40.000000 -1.002713E+02
30.000000 40.000000 3.643712E+01
30.000000 38.000000 -3.204210E+01
30.000000 36.000000 -7.802922E+01
30.000000 34.000000 -9.623709E+01
30.000000 32.000000 -6.114277E+01
30.000000 30.000000 -3.471005E+01
30.000000 28.000000 -2.633913E+01
30.000000 26.000000 -3.674218E+01
30.000000 24.000000 -5.435002E+01
30.000000 22.000000 -5.764432E+01
30.000000 20.000000 -4.329301E+01
30.000000 18.000000 -1.769401E+01
30.000000 16.000000 1.454485E+00
30.000000 14.000000 5.307975E+00
30.000000 12.000000 -1.095780E+01
30.000000 10.000000 -2.440044E+01
30.000000 8.000000 -1.665157E+01
30.000000 6.000000 3.076973E+00
30.000000 4.000000 -1.435940E+01
30.000000 2.000000 -6.603348E+01
30.000000 0.000000 -1.078716E+02
30.000000 -2.000000 -9.884329E+01
30.000000 -4.000000 -4.187018E+01
30.000000 -6.000000 6.390077E+00
30.000000 -8.000000 6.149992E+00
30.000000 -10.000000 -7.855772E+00
30.000000 -12.000000 2.175992E+00
30.000000 -14.000000 2.641312E+01
30.000000 -16.000000 4.732377E+01
30.000000 -18.000000 4.773732E+01
30.000000 -20.000000 2.667088E+01
30.000000 -22.000000 1.190820E+01
30.000000 -24.000000 2.465559E+01
30.000000 -26.000000 4.082142E+01
30.000000 -28.000000 4.140455E+01
30.000000 -30.000000 4.322185E+01
30.000000 -32.000000 4.840663E+01
30.000000 -34.000000 5.534106E+01
30.000000 -36.000000 2.557724E+01
30.000000 -38.000000 -2.987470E+01
30.000000 -40.000000 -1.065960E+02
32.000000 40.000000 3.430575E+01
32.000000 38.000000 -5.983032E+01
32.000000 36.000000 -1.217108E+02
32.000000 34.000000 -1.259495E+02
32.000000 32.000000 -6.760950E+01
32.000000 30.000000 -2.597094E+01
32.000000 28.000000 -1.767256E+01
32.000000 26.000000 -3.281530E+01
32.000000 24.000000 -5.543417E+01
32.000000 22.000000 -6.020740E+01
32.000000 20.000000 -4.921558E+01
32.000000 18.000000 -3.027482E+01
32.000000 16.000000 -2.529246E+01
32.000000 14.000000 -4.158156E+01
32.000000 12.000000 -7.150038E+01
32.000000 10.000000 -8.898211E+01
32.000000 8.000000 -6.048555E+01
32.000000 6.000000 -2.100382E+01
32.000000 4.000000 -2.366440E+01
32.000000 2.000000 -7.187911E+01
32.000000 0.000000 -1.118945E+02
32.000000 -2.000000 -9.723668E+01
32.000000 -4.000000 -3.714730E+01
32.000000 -6.000000 1.116224E+01
32.000000 -8.000000 1.134995E+01
32.000000 -10.000000 -4.217928E+00
32.000000 -12.000000 4.007350E+00
32.000000 -14.000000 3.025843E+01
32.000000 -16.000000 5.978887E+01
32.000000 -18.000000 7.485775E+01
32.000000 -20.000000 6.733566E+01
32.000000 -22.000000 5.564594E+01
32.000000 -24.000000 5.680249E+01
32.000000 -26.000000 5.443244E+01
32.000000 -28.000000 3.745397E+01
32.000000 -30.000000 2.805989E+01
32.000000 -32.000000 2.772871E+01
32.000000 -34.000000 3.593691E+01
32.000000 -36.000000 1.316606E+01
32.000000 -38.000000 -3.402764E+01
32.000000 -40.000000 -1.049773E+02
34.000000 40.000000 4.193864E+01
34.000000 38.000000 -7.980160E+01
34.000000 36.000000 -1.593563E+02
34.000000 34.000000 -1.437451E+02
34.000000 32.000000 -5.757399E+01
34.000000 30.000000 -6.289102E+00
34.000000 28.000000 -5.128439E+00
34.000000 26.000000 -2.534680E+01
34.000000 24.000000 -4.871526E+01
34.000000 22.000000 -5.190499E+01
34.000000 20.000000 -4.645415E+01
34.000000 18.000000 -3.494141E+01
34.000000 16.000000 -4.094344E+01
34.000000 14.000000 -7.072225E+01
34.000000 12.000000 -1.096621E+02
34.000000 10.000000 -1.331599E+02
34.000000 8.000000 -9.639723E+01
34.000000 6.000000 -4.063335E+01
34.000000 4.000000 -2.630472E+01
34.000000 2.000000 -6.048374E+01
34.000000 0.000000 -9.121917E+01
34.000000 -2.000000 -8.194057E+01
34.000000 -4.000000 -3.218410E+01
34.000000 -6.000000 1.101354E+01
34.000000 -8.000000 1.609951E+01
34.000000 -10.000000 1.154667E+01
34.000000 -12.000000 1.945021E+01
34.000000 -14.000000 3.636916E+01
34.000000 -16.000000 5.772103E+01
34.000000 -18.000000 7.334638E+01
34.000000 -20.000000 7.290793E+01
34.000000 -22.000000 6.176949E+01
34.000000 -24.000000 5.196335E+01
34.000000 -26.000000 3.574803E+01
34.000000 -28.000000 1.678521E+01
34.000000 -30.000000 6.070299E+00
34.000000 -32.000000 4.849317E+00
34.000000 -34.000000 1.628250E+01
34.000000 -36.000000 2.668336E+00
34.000000 -38.000000 -3.396084E+01
34.000000 -40.000000 -9.581359E+01
36.000000 40.000000 4.442303E+01
36.000000 38.000000 -7.332222E+01
36.000000 36.000000 -1.472344E+02
36.000000 34.000000 -1.251520E+02
36.000000 32.000000 -3.915385E+01
36.000000 30.000000 2.921673E+00
36.000000 28.000000 -3.974938E+00
36.000000 26.000000 -2.273977E+01
36.000000 24.000000 -3.405669E+01
36.000000 22.000000 -2.928955E+01
36.000000 20.000000 -2.796618E+01
36.000000 18.000000 -2.166487E+01
36.000000 16.000000 -3.375206E+01
36.000000 14.000000 -6.815186E+01
36.000000 12.000000 -1.064430E+02
36.000000 10.000000 -1.304388E+02
36.000000 8.000000 -9.570147E+01
36.000000 6.000000 -3.837923E+01
36.000000 4.000000 -1.576130E+01
36.000000 2.000000 -3.379139E+01
36.000000 0.000000 -5.266209E+01
36.000000 -2.000000 -5.901155E+01
36.000000 -4.000000 -3.214684E+01
36.000000 -6.000000 4.036274E+00
36.000000 -8.000000 1.662855E+01
36.000000 -10.000000 2.969300E+01
36.000000 -12.000000 3.714419E+01
36.000000 -14.000000 3.708976E+01
36.000000 -16.000000 3.993578E+01
36.000000 -18.000000 5.017597E+01
36.000000 -20.000000 5.209974E+01
36.000000 -22.000000 3.995455E+01
36.000000 -24.000000 2.070282E+01
36.000000 -26.000000 -2.547419E+00
36.000000 -28.000000 -9.547473E+00
36.000000 -30.000000 -1.265319E+01
36.000000 -32.000000 -1.041274E+01
36.000000 -34.000000 6.009812E+00
36.000000 -36.000000 7.747011E-01
36.000000 -38.000000 -3.084743E+01
36.000000 -40.000000 -8.591902E+01
38.000000 40.000000 3.650647E+01
38.000000 38.000000 -4.002895E+01
38.000000 36.000000 -8.075660E+01
38.000000 34.000000 -6.737442E+01
38.000000 32.000000 -1.921951E+01
38.000000 30.000000 -7.795019E+00
38.000000 28.000000 -1.696309E+01
38.000000 26.000000 -2.236971E+01
38.000000 24.000000 -9.114415E+00
38.000000 22.000000 7.189455E+00
38.000000 20.000000 8.822366E+00
38.000000 18.000000 4.955004E+00
38.000000 16.000000 -9.683828E+00
38.000000 14.000000 -4.004730E+01
38.000000 12.000000 -7.163711E+01
38.000000 10.000000 -8.287929E+01
38.000000 8.000000 -5.010832E+01
38.000000 6.000000 -3.259620E+00
38.000000 4.000000 7.110124E+00
38.000000 2.000000 -1.544050E+01
38.000000 0.000000 -3.543289E+01
38.000000 -2.000000 -4.579712E+01
38.000000 -4.000000 -2.995192E+01
38.000000 -6.000000 1.063520E+00
38.000000 -8.000000 1.954252E+01
38.000000 -10.000000 3.943990E+01
38.000000 -12.000000 4.071589E+01
38.000000 -14.000000 2.486694E+01
38.000000 -16.000000 1.075063E+01
38.000000 -18.000000 1.717484E+01
38.000000 -20.000000 2.512890E+01
38.000000 -22.000000 1.936756E+01
38.000000 -24.000000 -3.801812E+00
38.000000 -26.000000 -2.769942E+01
38.000000 -28.000000 -2.531786E+01
38.000000 -30.000000 -2.145398E+01
38.000000 -32.000000 -1.456203E+01
38.000000 -34.000000 5.317259E+00
38.000000 -36.000000 3.564250E+00
38.000000 -38.000000 -2.775496E+01
38.000000 -40.000000 -7.838840E+01
40.000000 40.000000 3.551596E+01
40.000000 38.000000 -1.879412E+00
40.000000 36.000000 -1.527266E+01
40.000000 34.000000 -7.901285E+00
40.000000 32.000000 7.908090E+00
40.000000 30.000000 -9.282691E+00
40.000000 28.000000 -2.435899E+01
40.000000 26.000000 -1.658121E+01
40.000000 24.000000 1.208188E+01
40.000000 22.000000 3.526047E+01
40.000000 20.000000 3.830934E+01
40.000000 18.000000 2.618590E+01
40.000000 16.000000 1.397061E+01
40.000000 14.000000 -4.226492E+00
40.000000 12.000000 -2.256057E+01
40.000000 10.000000 -1.884453E+01
40.000000 8.000000 1.025465E+01
40.000000 6.000000 4.437200E+01
40.000000 4.000000 2.936433E+01
40.000000 2.000000 -1.220696E+01
40.000000 0.000000 -4.146704E+01
40.000000 -2.000000 -4.441266E+01
40.000000 -4.000000 -1.923925E+01
40.000000 -6.000000 1.694701E+01
40.000000 -8.000000 3.675233E+01
40.000000 -10.000000 4.447568E+01
40.000000 -12.000000 3.198251E+01
40.000000 -14.000000 1.142845E+01
40.000000 -16.000000 -1.058095E+01
40.000000 -18.000000 -1.544064E+01
40.000000 -20.000000 -6.380224E+00
40.000000 -22.000000 -3.282414E+00
40.000000 -24.000000 -1.617087E+01
40.000000 -26.000000 -2.992269E+01
40.000000 -28.000000 -2.822495E+01
40.000000 -30.000000 -1.914132E+01
40.000000 -32.000000 -3.767697E+00
40.000000 -34.000000 1.857763E+01
40.000000 -36.000000 1.338843E+01
40.000000 -38.000000 -2.068773E+01
40.000000 -40.000000 -7.160430E+01
42.000000 40.000000 4.930001E+01
42.000000 38.000000 2.842601E+01
42.000000 36.000000 2.398190E+01
42.000000 34.000000 3.144530E+01
42.000000 32.000000 3.528335E+01
42.000000 30.000000 8.069336E+00
42.000000 28.000000 -1.370885E+01
42.000000 26.000000 -9.452201E+00
42.000000 24.000000 1.463172E+01
42.000000 22.000000 3.666723E+01
42.000000 20.000000 4.078731E+01
42.000000 18.000000 2.851708E+01
42.000000 16.000000 1.947859E+01
42.000000 14.000000 1.230010E+01
42.000000 12.000000 6.470091E+00
42.000000 10.000000 1.285095E+01
42.000000 8.000000 3.517510E+01
42.000000 6.000000 5.868738E+01
42.000000 4.000000 3.880626E+01
42.000000 2.000000 -3.076555E+00
42.000000 0.000000 -3.187756E+01
42.000000 -2.000000 -3.022032E+01
42.000000 -4.000000 4.507028E+00
42.000000 -6.000000 4.680651E+01
42.000000 -8.000000 5.921037E+01
42.000000 -10.000000 5.376512E+01
42.000000 -12.000000 3.088381E+01
42.000000 -14.000000 6.451018E+00
42.000000 -16.000000 -2.114806E+01
42.000000 -18.000000 -3.940307E+01
42.000000 -20.000000 -3.107401E+01
42.000000 -22.000000 -1.879784E+01
42.000000 -24.000000 -1.745975E+01
42.000000 -26.000000 -2.423436E+01
42.000000 -28.000000 -2.487016E+01
42.000000 -30.000000 -9.188805E+00
42.000000 -32.000000 1.723777E+01
42.000000 -34.000000 4.340051E+01
42.000000 -36.000000 3.346552E+01
42.000000 -38.000000 -6.582435E+00
42.000000 -40.000000 -6.241400E+01
44.000000 40.000000 7.087642E+01
44.000000 38.000000 4.539599E+01
44.000000 36.000000 3.633458E+01
44.000000 34.000000 4.709494E+01
44.000000 32.000000 5.353704E+01
44.000000 30.000000 3.210614E+01
44.000000 28.000000 8.124392E+00
44.000000 26.000000 -6.510374E+00
44.000000 24.000000 -1.363048E+00
44.000000 22.000000 1.310780E+01
44.000000 20.000000 1.816333E+01
44.000000 18.000000 1.235110E+01
44.000000 16.000000 8.684192E+00
44.000000 14.000000 1.040676E+01
44.000000 12.000000 1.137717E+01
44.000000 10.000000 1.391887E+01
44.000000 8.000000 3.038984E+01
44.000000 6.000000 4.721559E+01
44.000000 4.000000 4.239007E+01
44.000000 2.000000 1.891448E+01
44.000000 0.000000 5.735435E-01
44.000000 -2.000000 4.518566E+00
44.000000 -4.000000 3.531619E+01
44.000000 -6.000000 7.304597E+01
44.000000 -8.000000 7.461422E+01
44.000000 -10.000000 5.862788E+01
44.000000 -12.000000 3.081152E+01
44.000000 -14.000000 2.265205E-01
44.000000 -16.000000 -3.287007E+01
44.000000 -18.000000 -5.283760E+01
44.000000 -20.000000 -4.175261E+01
44.000000 -22.000000 -2.081366E+01
44.000000 -24.000000 -7.233137E+00
44.000000 -26.000000 -1.005357E+01
44.000000 -28.000000 -1.030997E+01
44.000000 -30.000000 8.483192E+00
44.000000 -32.000000 4.045762E+01
44.000000 -34.000000 6.896702E+01
44.000000 -36.000000 5.540554E+01
44.000000 -38.000000 9.925789E+00
44.000000 -40.000000 -4.824717E+01
46.000000 40.000000 8.810082E+01
46.000000 38.000000 4.731656E+01
46.000000 36.000000 2.719773E+01
46.000000 34.000000 4.010558E+01
46.000000 32.000000 6.005382E+01
46.000000 30.000000 5.404312E+01
46.000000 28.000000 3.004916E+01
46.000000 26.000000 3.300352E-01
46.000000 24.000000 -1.065557E+01
46.000000 22.000000 -5.420659E+00
46.000000 20.000000 -4.287861E+00
46.000000 18.000000 -7.315383E+00
46.000000 16.000000 -5.894666E+00
46.000000 14.000000 3.442356E+00
46.000000 12.000000 8.768260E+00
46.000000 10.000000 9.785219E+00
46.000000 8.000000 2.483264E+01
46.000000 6.000000 4.443814E+01
46.000000 4.000000 5.156189E+01
46.000000 2.000000 4.091887E+01
46.000000 0.000000 2.913795E+01
46.000000 -2.000000 2.845588E+01
46.000000 -4.000000 4.815368E+01
46.000000 -6.000000 7.576485E+01
46.000000 -8.000000 7.306191E+01
46.000000 -10.000000 5.182580E+01
46.000000 -12.000000 2.678141E+01
46.000000 -14.000000 -4.575610E+00
46.000000 -16.000000 -3.832034E+01
46.000000 -18.000000 -5.084036E+01
46.000000 -20.000000 -3.790066E+01
46.000000 -22.000000 -1.318356E+01
46.000000 -24.000000 8.361478E+00
46.000000 -26.000000 1.575346E+01
46.000000 -28.000000 1.861287E+01
46.000000 -30.000000 3.276327E+01
46.000000 -32.000000 5.893746E+01
46.000000 -34.000000 8.328011E+01
46.000000 -36.000000 6.764794E+01
46.000000 -38.000000 2.357869E+01
46.000000 -40.000000 -2.890139E+01
48.000000 40.000000 9.967467E+01
48.000000 38.000000 4.501409E+01
48.000000 36.000000 1.297904E+01
48.000000 34.000000 2.328325E+01
48.000000 32.000000 5.555301E+01
48.000000 30.000000 6.605892E+01
48.000000 28.000000 4.855281E+01
48.000000 26.000000 1.774101E+01
48.000000 24.000000 1.355648E-01
48.000000 22.000000 -1.065736E+00
48.000000 20.000000 -9.928036E-01
48.000000 18.000000 -3.959288E+00
48.000000 16.000000 -6.269160E+00
48.000000 14.000000 -2.595947E+00
48.000000 12.000000 1.125660E+00
48.000000 10.000000 1.279408E+00
48.000000 8.000000 2.086565E+01
48.000000 6.000000 5.197050E+01
48.000000 4.000000 6.369774E+01
48.000000 2.000000 5.158747E+01
48.000000 0.000000 3.660523E+01
48.000000 -2.000000 2.847462E+01
48.000000 -4.000000 3.908089E+01
48.000000 -6.000000 5.765558E+01
48.000000 -8.000000 5.587925E+01
48.000000 -10.000000 3.691222E+01
48.000000 -12.000000 2.400836E+01
48.000000 -14.000000 7.004673E+00
48.000000 -16.000000 -2.108279E+01
48.000000 -18.000000 -3.349288E+01
48.000000 -20.000000 -2.078100E+01
48.000000 -22.000000 2.924002E+00
48.000000 -24.000000 2.319155E+01
48.000000 -26.000000 3.564534E+01
48.000000 -28.000000 4.344742E+01
48.000000 -30.000000 5.296940E+01
48.000000 -32.000000 6.882783E+01
48.000000 -34.000000 8.542566E+01
48.000000 -36.000000 7.183402E+01
48.000000 -38.000000 3.576390E+01
48.000000 -40.000000 -6.348747E+00
50.000000 40.000000 1.110873E+02
50.000000 38.000000 5.137604E+01
50.000000 36.000000 1.068111E+01
50.000000 34.000000 1.247658E+01
50.000000 32.000000 4.592123E+01
50.000000 30.000000 6.445981E+01
50.000000 28.000000 5.802071E+01
50.000000 26.000000 3.612773E+01
50.000000 24.000000 1.880624E+01
50.000000 22.000000 1.436765E+01
50.000000 20.000000 1.913008E+01
50.000000 18.000000 2.107719E+01
50.000000 16.000000 1.421928E+01
50.000000 14.000000 4.100898E+00
50.000000 12.000000 -3.919329E+00
50.000000 10.000000 -8.707626E+00
50.000000 8.000000 1.287650E+01
50.000000 6.000000 5.046564E+01
50.000000 4.000000 6.471568E+01
50.000000 2.000000 5.168969E+01
50.000000 0.000000 3.286391E+01
50.000000 -2.000000 1.763472E+01
50.000000 -4.000000 1.983432E+01
50.000000 -6.000000 2.870609E+01
50.000000 -8.000000 2.943467E+01
50.000000 -10.000000 2.411145E+01
50.000000 -12.000000 3.120512E+01
50.000000 -14.000000 3.215657E+01
50.000000 -16.000000 1.541274E+01
50.000000 -18.000000 2.033845E+00
50.000000 -20.000000 9.533731E+00
50.000000 -22.000000 2.545003E+01
50.000000 -24.000000 3.356193E+01
50.000000 -26.000000 3.669454E+01
50.000000 -28.000000 4.650418E+01
50.000000 -30.000000 5.745371E+01
50.000000 -32.000000 7.062645E+01
50.000000 -34.000000 8.389759E+01
50.000000 -36.000000 7.621846E+01
50.000000 -38.000000 4.886525E+01
50.000000 -40.000000 1.504153E+01
52.000000 40.000000 1.223104E+02
52.000000 38.000000 7.269264E+01
52.000000 36.000000 3.507056E+01
52.000000 34.000000 2.606930E+01
52.000000 32.000000 4.421753E+01
52.000000 30.000000 5.678582E+01
52.000000 28.000000 5.522327E+01
52.000000 26.000000 4.320113E+01
52.000000 24.000000 3.364992E+01
52.000000 22.000000 2.930001E+01
52.000000 20.000000 3.438019E+01
52.000000 18.000000 3.578844E+01
52.000000 16.000000 2.665042E+01
52.000000 14.000000 1.021734E+01
52.000000 12.000000 -7.355084E+00
52.000000 10.000000 -1.661743E+01
52.000000 8.000000 3.120755E+00
52.000000 6.000000 3.901834E+01
52.000000 4.000000 5.578452E+01
52.000000 2.000000 4.644111E+01
52.000000 0.000000 3.039575E+01
52.000000 -2.000000 1.682343E+01
52.000000 -4.000000 1.792210E+01
52.000000 -6.000000 2.096318E+01
52.000000 -8.000000 2.015225E+01
52.000000 -10.000000 2.282740E+01
52.000000 -12.000000 3.872252E+01
52.000000 -14.000000 4.695213E+01
52.000000 -16.000000 4.415166E+01
52.000000 -18.000000 4.104002E+01
