-16.000000 -6.000000 5.990393E+00
-16.000000 -8.000000 -4.114723E+00
-16.000000 -10.000000 -1.500534E+01
-16.000000 -12.000000 -2.495318E+01
-16.000000 -14.000000 -3.064253E+01
-16.000000 -16.000000 -2.994276E+01
-16.000000 -18.000000 -2.653422E+01
-16.000000 -20.000000 -2.012806E+01
-16.000000 -22.000000 -9.364006E+00
-16.000000 -24.000000 -4.595619E+00
-16.000000 -26.000000 -7.690388E+00
-16.000000 -28.000000 -9.794143E+00
-16.000000 -30.000000 -9.383356E+00
-16.000000 -32.000000 -6.577445E+00
-16.000000 -34.000000 -5.843865E+00
-16.000000 -36.000000 4.197845E+00
-16.000000 -38.000000 2.079529E+01
-16.000000 -40.000000 4.552473E+01
-14.000000 40.000000 -1.351962E+01
-14.000000 38.000000 1.605512E+01
-14.000000 36.000000 4.194259E+01
-14.000000 34.000000 5.903636E+01
-14.000000 32.000000 5.598297E+01
-14.000000 30.000000 5.263531E+01
-14.000000 28.000000 5.603872E+01
-14.000000 26.000000 5.860074E+01
-14.000000 24.000000 5.112454E+01
-14.000000 22.000000 3.932267E+01
-14.000000 20.000000 3.157118E+01
-14.000000 18.000000 3.595696E+01
-14.000000 16.000000 5.828141E+01
-14.000000 14.000000 9.168497E+01
-14.000000 12.000000 1.241407E+02
-14.000000 10.000000 1.373238E+02
-14.000000 8.000000 1.095235E+02
-14.000000 6.000000 6.318364E+01
-14.000000 4.000000 1.859251E+01
-14.000000 2.000000 -1.203693E+00
-14.000000 0.000000 1.690331E+00
-14.000000 -2.000000 1.065479E+01
-14.000000 -4.000000 7.400477E+00
-14.000000 -6.000000 -2.138481E-01
-14.000000 -8.000000 -6.895353E+00
-14.000000 -10.000000 -1.590276E+01
-14.000000 -12.000000 -2.663922E+01
-14.000000 -14.000000 -3.555291E+01
-14.000000 -16.000000 -3.979885E+01
-14.000000 -18.000000 -4.097914E+01
-14.000000 -20.000000 -3.792397E+01
-14.000000 -22.000000 -2.765854E+01
-14.000000 -24.000000 -1.710923E+01
-14.000000 -26.000000 -1.141055E+01
-14.000000 -28.000000 -6.899800E+00
-14.000000 -30.000000 -2.832766E+00
-14.000000 -32.000000 1.036871E+00
-14.000000 -34.000000 -1.979070E-01
-14.000000 -36.000000 7.711418E+00
-14.000000 -38.000000 2.343713E+01
-14.000000 -40.000000 4.781542E+01
-12.000000 40.000000 -1.949222E+01
-12.000000 38.000000 1.016558E+01
-12.000000 36.000000 3.751343E+01
-12.000000 34.000000 5.367886E+01
-12.000000 32.000000 4.675520E+01
-12.000000 30.000000 4.146468E+01
-12.000000 28.000000 4.399030E+01
-12.000000 26.000000 4.684962E+01
-12.000000 24.000000 3.688703E+01
-12.000000 22.000000 2.339397E+01
-12.000000 20.000000 1.570146E+01
-12.000000 18.000000 2.437248E+01
-12.000000 16.000000 5.557580E+01
-12.000000 14.000000 9.905203E+01
-12.000000 12.000000 1.399188E+02
-12.000000 10.000000 1.616007E+02
-12.000000 8.000000 1.317049E+02
-12.000000 6.000000 7.886051E+01
-12.000000 4.000000 2.509880E+01
-12.000000 2.000000 -1.895767E+00
-12.000000 0.000000 -3.661198E+00
-12.000000 -2.000000 4.232881E+00
-12.000000 -4.000000 1.875914E+00
-12.000000 -6.000000 -4.775945E+00
-12.000000 -8.000000 -8.589816E+00
-12.000000 -10.000000 -1.553602E+01
-12.000000 -12.000000 -2.669827E+01
-12.000000 -14.000000 -3.659305E+01
-12.000000 -16.000000 -4.180042E+01
-12.000000 -18.000000 -4.270033E+01
-12.000000 -20.000000 -3.869891E+01
-12.000000 -22.000000 -2.758814E+01
-12.000000 -24.000000 -1.431621E+01
-12.000000 -26.000000 -5.693576E+00
-12.000000 -28.000000 -1.022629E+00
-12.000000 -30.000000 2.615505E+00
-12.000000 -32.000000 4.444496E+00
-12.000000 -34.000000 -1.594892E-01
-12.000000 -36.000000 5.572235E+00
-12.000000 -38.000000 2.196863E+01
-12.000000 -40.000000 4.617049E+01
-10.000000 40.000000 -2.650190E+01
-10.000000 38.000000 4.059706E+00
-10.000000 36.000000 3.447249E+01
-10.000000 34.000000 5.334331E+01
-10.000000 32.000000 4.485131E+01
-10.000000 30.000000 3.731929E+01
-10.000000 28.000000 3.623551E+01
-10.000000 26.000000 3.726619E+01
-10.000000 24.000000 2.675358E+01
-10.000000 22.000000 1.530343E+01
-10.000000 20.000000 1.054654E+01
-10.000000 18.000000 2.389246E+01
-10.000000 16.000000 5.779730E+01
-10.000000 14.000000 9.981063E+01
-10.000000 12.000000 1.350068E+02
-10.000000 10.000000 1.488765E+02
-10.000000 8.000000 1.136281E+02
-10.000000 6.000000 5.894850E+01
-10.000000 4.000000 8.975408E+00
-10.000000 2.000000 -1.383379E+01
-10.000000 0.000000 -1.267187E+01
-10.000000 -2.000000 -1.846602E+00
-10.000000 -4.000000 3.108997E-01
-10.000000 -6.000000 -3.630858E+00
-10.000000 -8.000000 -5.967418E+00
-10.000000 -10.000000 -1.178831E+01
-10.000000 -12.000000 -2.327556E+01
-10.000000 -14.000000 -3.101702E+01
-10.000000 -16.000000 -3.214118E+01
-10.000000 -18.000000 -3.035174E+01
-10.000000 -20.000000 -2.501429E+01
-10.000000 -22.000000 -1.439140E+01
-10.000000 -24.000000 -2.944499E+00
-10.000000 -26.000000 3.438001E+00
-10.000000 -28.000000 4.494462E+00
-10.000000 -30.000000 5.055405E+00
-10.000000 -32.000000 3.432762E+00
-10.000000 -34.000000 -4.318637E+00
-10.000000 -36.000000 -6.236029E-01
-10.000000 -38.000000 1.753057E+01
-10.000000 -40.000000 4.312900E+01
-8.000000 40.000000 -3.325805E+01
-8.000000 38.000000 -1.398672E+00
-8.000000 36.000000 3.190542E+01
-8.000000 34.000000 5.486637E+01
-8.000000 32.000000 4.791829E+01
-8.000000 30.000000 3.909966E+01
-8.000000 28.000000 3.436802E+01
-8.000000 26.000000 3.244840E+01
-8.000000 24.000000 2.222759E+01
-8.000000 22.000000 1.419344E+01
-8.000000 20.000000 1.327758E+01
-8.000000 18.000000 2.887008E+01
-8.000000 16.000000 6.021680E+01
-8.000000 14.000000 9.436865E+01
-8.000000 12.000000 1.155529E+02
-8.000000 10.000000 1.118333E+02
-8.000000 8.000000 7.109237E+01
-8.000000 6.000000 2.011365E+01
-8.000000 4.000000 -1.591906E+01
-8.000000 2.000000 -2.692671E+01
-8.000000 0.000000 -1.999282E+01
-8.000000 -2.000000 -6.230930E+00
-8.000000 -4.000000 1.495714E-01
-8.000000 -6.000000 2.371459E-01
-8.000000 -8.000000 -8.483410E-01
-8.000000 -10.000000 -6.732772E+00
-8.000000 -12.000000 -1.820713E+01
-8.000000 -14.000000 -2.186248E+01
-8.000000 -16.000000 -1.774789E+01
-8.000000 -18.000000 -1.353074E+01
-8.000000 -20.000000 -8.381312E+00
-8.000000 -22.000000 -2.275543E-01
-8.000000 -24.000000 6.219776E+00
-8.000000 -26.000000 7.242173E+00
-8.000000 -28.000000 3.793792E+00
-8.000000 -30.000000 1.594233E+00
-8.000000 -32.000000 -1.133092E+00
-8.000000 -34.000000 -9.711301E+00
-8.000000 -36.000000 -6.809165E+00
-8.000000 -38.000000 1.321739E+01
-8.000000 -40.000000 4.067276E+01
-6.000000 40.000000 -3.708243E+01
-6.000000 38.000000 -4.330402E+00
-6.000000 36.000000 2.935406E+01
-6.000000 34.000000 5.371653E+01
-6.000000 32.000000 4.936753E+01
-6.000000 30.000000 4.241268E+01
-6.000000 28.000000 3.658667E+01
-6.000000 26.000000 3.223880E+01
-6.000000 24.000000 2.204260E+01
-6.000000 22.000000 1.601205E+01
-6.000000 20.000000 1.697639E+01
-6.000000 18.000000 3.177282E+01
-6.000000 16.000000 5.984901E+01
-6.000000 14.000000 8.744543E+01
-6.000000 12.000000 9.533281E+01
-6.000000 10.000000 7.515196E+01
-6.000000 8.000000 3.058820E+01
-6.000000 6.000000 -1.384083E+01
-6.000000 4.000000 -3.377655E+01
-6.000000 2.000000 -3.275286E+01
-6.000000 0.000000 -2.137976E+01
-6.000000 -2.000000 -6.970752E+00
-6.000000 -4.000000 -8.557796E-03
-6.000000 -6.000000 1.177132E+00
-6.000000 -8.000000 2.135231E-01
-6.000000 -10.000000 -5.759732E+00
-6.000000 -12.000000 -1.560567E+01
-6.000000 -14.000000 -1.509077E+01
-6.000000 -16.000000 -8.401969E+00
-6.000000 -18.000000 -4.602829E+00
-6.000000 -20.000000 -1.728692E+00
-6.000000 -22.000000 3.555922E+00
-6.000000 -24.000000 5.577226E+00
-6.000000 -26.000000 1.835495E+00
-6.000000 -28.000000 -4.307060E+00
-6.000000 -30.000000 -7.422056E+00
-6.000000 -32.000000 -8.070561E+00
-6.000000 -34.000000 -1.358512E+01
-6.000000 -36.000000 -8.721658E+00
-6.000000 -38.000000 1.163359E+01
-6.000000 -40.000000 3.949927E+01
-4.000000 40.000000 -3.772892E+01
-4.000000 38.000000 -5.553501E+00
-4.000000 36.000000 2.583837E+01
-4.000000 34.000000 4.960010E+01
-4.000000 32.000000 4.814115E+01
-4.000000 30.000000 4.448104E+01
-4.000000 28.000000 3.968602E+01
-4.000000 26.000000 3.547081E+01
-4.000000 24.000000 2.572314E+01
-4.000000 22.000000 1.763990E+01
-4.000000 20.000000 1.602004E+01
-4.000000 18.000000 2.981000E+01
-4.000000 16.000000 5.875401E+01
-4.000000 14.000000 8.435387E+01
-4.000000 12.000000 8.400032E+01
-4.000000 10.000000 5.121701E+01
-4.000000 8.000000 4.302242E+00
-4.000000 6.000000 -3.179937E+01
-4.000000 4.000000 -3.791066E+01
-4.000000 2.000000 -2.767208E+01
-4.000000 0.000000 -1.431090E+01
-4.000000 -2.000000 -3.039933E+00
-4.000000 -4.000000 -7.164598E-02
-4.000000 -6.000000 -1.764394E+00
-4.000000 -8.000000 -5.046553E+00
-4.000000 -10.000000 -1.192998E+01
-4.000000 -12.000000 -1.961131E+01
-4.000000 -14.000000 -1.760249E+01
-4.000000 -16.000000 -1.259943E+01
-4.000000 -18.000000 -1.101022E+01
-4.000000 -20.000000 -9.755089E+00
-4.000000 -22.000000 -5.985153E+00
-4.000000 -24.000000 -5.223967E+00
-4.000000 -26.000000 -9.880571E+00
-4.000000 -28.000000 -1.636880E+01
-4.000000 -30.000000 -1.905491E+01
-4.000000 -32.000000 -1.581794E+01
-4.000000 -34.000000 -1.612364E+01
-4.000000 -36.000000 -7.004038E+00
-4.000000 -38.000000 1.329213E+01
-4.000000 -40.000000 4.085753E+01
-2.000000 40.000000 -3.837037E+01
-2.000000 38.000000 -6.773758E+00
-2.000000 36.000000 2.250892E+01
-2.000000 34.000000 4.511407E+01
-2.000000 32.000000 4.589637E+01
-2.000000 30.000000 4.489978E+01
-2.000000 28.000000 4.287805E+01
-2.000000 26.000000 4.041874E+01
-2.000000 24.000000 3.119112E+01
-2.000000 22.000000 1.819463E+01
-2.000000 20.000000 1.171695E+01
-2.000000 18.000000 2.461480E+01
-2.000000 16.000000 5.623522E+01
-2.000000 14.000000 8.283070E+01
-2.000000 12.000000 8.031881E+01
-2.000000 10.000000 4.251477E+01
-2.000000 8.000000 -4.812790E+00
-2.000000 6.000000 -3.339799E+01
-2.000000 4.000000 -2.920680E+01
-2.000000 2.000000 -1.321722E+01
-2.000000 0.000000 -8.060002E-01
-2.000000 -2.000000 4.338506E+00
-2.000000 -4.000000 -2.770216E-01
-2.000000 -6.000000 -8.725300E+00
-2.000000 -8.000000 -1.604704E+01
-2.000000 -10.000000 -2.572407E+01
-2.000000 -12.000000 -3.394202E+01
-2.000000 -14.000000 -3.375073E+01
-2.000000 -16.000000 -3.141092E+01
-2.000000 -18.000000 -3.052513E+01
-2.000000 -20.000000 -2.757702E+01
-2.000000 -22.000000 -2.147283E+01
-2.000000 -24.000000 -1.826087E+01
-2.000000 -26.000000 -2.052386E+01
-2.000000 -28.000000 -2.522346E+01
-2.000000 -30.000000 -2.665911E+01
-2.000000 -32.000000 -2.086132E+01
-2.000000 -34.000000 -1.821062E+01
-2.000000 -36.000000 -5.271084E+00
-2.000000 -38.000000 1.600434E+01
-2.000000 -40.000000 4.348201E+01
0.000000 40.000000 -3.944370E+01
0.000000 38.000000 -7.608751E+00
0.000000 36.000000 2.034863E+01
0.000000 34.000000 4.122281E+01
0.000000 32.000000 4.220115E+01
0.000000 30.000000 4.231775E+01
0.000000 28.000000 4.321278E+01
0.000000 26.000000 4.175073E+01
0.000000 24.000000 3.176539E+01
0.000000 22.000000 1.551187E+01
0.000000 20.000000 6.733484E+00
0.000000 18.000000 1.981361E+01
0.000000 16.000000 5.341496E+01
0.000000 14.000000 8.161982E+01
0.000000 12.000000 8.031217E+01
0.000000 10.000000 4.488726E+01
0.000000 8.000000 1.303696E+00
0.000000 6.000000 -2.115042E+01
0.000000 4.000000 -1.278997E+01
0.000000 2.000000 3.013792E+00
0.000000 0.000000 1.181883E+01
0.000000 -2.000000 1.040339E+01
0.000000 -4.000000 -1.420603E+00
0.000000 -6.000000 -1.729626E+01
0.000000 -8.000000 -3.029418E+01
0.000000 -10.000000 -4.490151E+01
0.000000 -12.000000 -5.501788E+01
0.000000 -14.000000 -5.716109E+01
0.000000 -16.000000 -5.561285E+01
0.000000 -18.000000 -5.274037E+01
0.000000 -20.000000 -4.523651E+01
0.000000 -22.000000 -3.381103E+01
0.000000 -24.000000 -2.576309E+01
0.000000 -26.000000 -2.385845E+01
0.000000 -28.000000 -2.514341E+01
0.000000 -30.000000 -2.536491E+01
0.000000 -32.000000 -2.035787E+01
0.000000 -34.000000 -1.774554E+01
0.000000 -36.000000 -3.666613E+00
0.000000 -38.000000 1.711168E+01
0.000000 -40.000000 4.325059E+01
2.000000 40.000000 -3.861812E+01
2.000000 38.000000 -8.215748E+00
2.000000 36.000000 1.677979E+01
2.000000 34.000000 3.553187E+01
2.000000 32.000000 3.631495E+01
2.000000 30.000000 3.600872E+01
2.000000 28.000000 3.761728E+01
2.000000 26.000000 3.711256E+01
2.000000 24.000000 2.809129E+01
2.000000 22.000000 1.256810E+01
2.000000 20.000000 5.233517E+00
2.000000 18.000000 1.841989E+01
2.000000 16.000000 4.954967E+01
2.000000 14.000000 7.745844E+01
2.000000 12.000000 8.026834E+01
2.000000 10.000000 5.410192E+01
2.000000 8.000000 1.772515E+01
2.000000 6.000000 -3.379263E+00
2.000000 4.000000 -6.041610E-01
2.000000 2.000000 7.875229E+00
2.000000 0.000000 1.164627E+01
2.000000 -2.000000 7.323979E+00
2.000000 -4.000000 -4.939782E+00
2.000000 -6.000000 -2.261672E+01
2.000000 -8.000000 -3.941004E+01
2.000000 -10.000000 -5.892759E+01
2.000000 -12.000000 -7.073888E+01
2.000000 -14.000000 -7.407922E+01
2.000000 -16.000000 -7.214999E+01
2.000000 -18.000000 -6.599177E+01
2.000000 -20.000000 -5.412777E+01
2.000000 -22.000000 -3.822031E+01
2.000000 -24.000000 -2.480415E+01
2.000000 -26.000000 -1.813430E+01
2.000000 -28.000000 -1.724658E+01
2.000000 -30.000000 -1.787794E+01
2.000000 -32.000000 -1.531414E+01
2.000000 -34.000000 -1.424364E+01
2.000000 -36.000000 -2.275264E+00
2.000000 -38.000000 1.576219E+01
2.000000 -40.000000 3.930440E+01
4.000000 40.000000 -3.562827E+01
4.000000 38.000000 -9.209052E+00
4.000000 36.000000 1.101968E+01
4.000000 34.000000 2.704158E+01
4.000000 32.000000 2.829278E+01
4.000000 30.000000 2.742417E+01
4.000000 28.000000 2.744580E+01
4.000000 26.000000 2.742802E+01
4.000000 24.000000 2.203809E+01
4.000000 22.000000 1.270362E+01
4.000000 20.000000 9.466266E+00
4.000000 18.000000 2.086148E+01
4.000000 16.000000 4.611598E+01
4.000000 14.000000 7.222313E+01
4.000000 12.000000 8.095783E+01
4.000000 10.000000 6.737546E+01
4.000000 8.000000 3.815832E+01
4.000000 6.000000 1.069422E+01
4.000000 4.000000 -5.303190E+00
4.000000 2.000000 -1.248459E+01
4.000000 0.000000 -1.338859E+01
4.000000 -2.000000 -1.122047E+01
4.000000 -4.000000 -1.288422E+01
4.000000 -6.000000 -2.229470E+01
4.000000 -8.000000 -3.551207E+01
4.000000 -10.000000 -5.603376E+01
4.000000 -12.000000 -7.005272E+01
4.000000 -14.000000 -7.512255E+01
4.000000 -16.000000 -7.256945E+01
4.000000 -18.000000 -6.261598E+01
4.000000 -20.000000 -4.852408E+01
4.000000 -22.000000 -3.134632E+01
4.000000 -24.000000 -1.566668E+01
4.000000 -26.000000 -7.371269E+00
4.000000 -28.000000 -7.060055E+00
4.000000 -30.000000 -9.403990E+00
4.000000 -32.000000 -9.098925E+00
4.000000 -34.000000 -1.069732E+01
4.000000 -36.000000 -2.875378E+00
4.000000 -38.000000 1.212091E+01
4.000000 -40.000000 3.325480E+01
6.000000 40.000000 -3.241363E+01
6.000000 38.000000 -1.000639E+01
6.000000 36.000000 6.135858E+00
6.000000 34.000000 1.877705E+01
6.000000 32.000000 1.962600E+01
6.000000 30.000000 1.870972E+01
6.000000 28.000000 1.751757E+01
6.000000 26.000000 1.761682E+01
6.000000 24.000000 1.642428E+01
6.000000 22.000000 1.468293E+01
6.000000 20.000000 1.459284E+01
6.000000 18.000000 2.126871E+01
6.000000 16.000000 3.980069E+01
6.000000 14.000000 6.510441E+01
6.000000 12.000000 8.221873E+01
6.000000 10.000000 8.185910E+01
6.000000 8.000000 5.745604E+01
6.000000 6.000000 1.900273E+01
6.000000 4.000000 -2.302650E+01
6.000000 2.000000 -5.237190E+01
6.000000 0.000000 -6.069232E+01
6.000000 -2.000000 -4.708873E+01
6.000000 -4.000000 -2.870092E+01
6.000000 -6.000000 -1.651727E+01
6.000000 -8.000000 -1.679232E+01
6.000000 -10.000000 -3.278222E+01
6.000000 -12.000000 -5.137756E+01
6.000000 -14.000000 -6.033280E+01
6.000000 -16.000000 -5.711578E+01
6.000000 -18.000000 -4.344048E+01
6.000000 -20.000000 -2.942097E+01
6.000000 -22.000000 -1.554101E+01
6.000000 -24.000000 -3.068920E+00
6.000000 -26.000000 1.792509E+00
6.000000 -28.000000 -1.079388E-01
6.000000 -30.000000 -3.888808E+00
6.000000 -32.000000 -5.811159E+00
6.000000 -34.000000 -1.022709E+01
6.000000 -36.000000 -5.955739E+00
6.000000 -38.000000 7.181413E+00
6.000000 -40.000000 2.692082E+01
8.000000 40.000000 -3.078865E+01
8.000000 38.000000 -9.565808E+00
8.000000 36.000000 5.175661E+00
8.000000 34.000000 1.480860E+01
8.000000 32.000000 1.382619E+01
8.000000 30.000000 1.255800E+01
8.000000 28.000000 1.158727E+01
8.000000 26.000000 1.288203E+01
8.000000 24.000000 1.425015E+01
8.000000 22.000000 1.475244E+01
8.000000 20.000000 1.312787E+01
8.000000 18.000000 1.301464E+01
8.000000 16.000000 2.497684E+01
8.000000 14.000000 5.062100E+01
8.000000 12.000000 7.964662E+01
8.000000 10.000000 9.551413E+01
8.000000 8.000000 7.826369E+01
8.000000 6.000000 3.148344E+01
8.000000 4.000000 -3.543558E+01
8.000000 2.000000 -8.965805E+01
8.000000 0.000000 -1.122645E+02
8.000000 -2.000000 -9.442245E+01
8.000000 -4.000000 -5.564278E+01
8.000000 -6.000000 -1.299951E+01
8.000000 -8.000000 7.597015E+00
8.000000 -10.000000 5.465546E-01
8.000000 -12.000000 -2.546120E+01
8.000000 -14.000000 -3.879677E+01
8.000000 -16.000000 -3.502946E+01
8.000000 -18.000000 -1.966255E+01
8.000000 -20.000000 -7.650662E+00
8.000000 -22.000000 1.545610E-01
8.000000 -24.000000 5.392224E+00
8.000000 -26.000000 4.774436E+00
8.000000 -28.000000 9.504938E-01
8.000000 -30.000000 -3.561646E+00
8.000000 -32.000000 -6.946879E+00
8.000000 -34.000000 -1.318905E+01
8.000000 -36.000000 -1.087342E+01
8.000000 -38.000000 2.532790E+00
8.000000 -40.000000 2.295319E+01
10.000000 40.000000 -3.161422E+01
10.000000 38.000000 -8.155789E+00
10.000000 36.000000 8.328011E+00
10.000000 34.000000 1.672998E+01
10.000000 32.000000 1.293342E+01
10.000000 30.000000 1.081250E+01
10.000000 28.000000 1.115031E+01
10.000000 26.000000 1.344377E+01
10.000000 24.000000 1.432378E+01
10.000000 22.000000 1.202514E+01
10.000000 20.000000 5.641608E+00
10.000000 18.000000 -1.424517E+00
10.000000 16.000000 5.145912E+00
10.000000 14.000000 3.065917E+01
10.000000 12.000000 7.089314E+01
10.000000 10.000000 1.060418E+02
10.000000 8.000000 1.028806E+02
10.000000 6.000000 5.711433E+01
10.000000 4.000000 -2.396388E+01
10.000000 2.000000 -1.004732E+02
10.000000 0.000000 -1.447551E+02
10.000000 -2.000000 -1.374408E+02
10.000000 -4.000000 -9.189421E+01
10.000000 -6.000000 -2.528331E+01
10.000000 -8.000000 1.703944E+01
10.000000 -10.000000 2.058761E+01
10.000000 -12.000000 -1.167645E+01
10.000000 -14.000000 -2.737352E+01
10.000000 -16.000000 -2.131931E+01
10.000000 -18.000000 -4.270168E+00
10.000000 -20.000000 6.057463E+00
10.000000 -22.000000 8.239304E+00
10.000000 -24.000000 5.273409E+00
10.000000 -26.000000 5.864048E-02
10.000000 -28.000000 -3.971434E+00
10.000000 -30.000000 -7.825415E+00
10.000000 -32.000000 -1.096892E+01
10.000000 -34.000000 -1.759958E+01
10.000000 -36.000000 -1.530367E+01
10.000000 -38.000000 -1.053100E-01
10.000000 -40.000000 2.275952E+01
12.000000 40.000000 -3.419074E+01
12.000000 38.000000 -7.236230E+00
12.000000 36.000000 1.294825E+01
12.000000 34.000000 2.264362E+01
12.000000 32.000000 1.560717E+01
12.000000 30.000000 1.172766E+01
12.000000 28.000000 1.353842E+01
12.000000 26.000000 1.488448E+01
12.000000 24.000000 1.271168E+01
12.000000 22.000000 7.284497E+00
12.000000 20.000000 -2.597878E+00
12.000000 18.000000 -1.364160E+01
12.000000 16.000000 -9.221093E+00
12.000000 14.000000 1.704123E+01
12.000000 12.000000 6.542886E+01
12.000000 10.000000 1.177114E+02
12.000000 8.000000 1.308789E+02
12.000000 6.000000 9.756858E+01
12.000000 4.000000 1.726648E+01
12.000000 2.000000 -7.638696E+01
12.000000 0.000000 -1.467274E+02
12.000000 -2.000000 -1.637773E+02
12.000000 -4.000000 -1.302368E+02
12.000000 -6.000000 -6.054595E+01
12.000000 -8.000000 -8.348568E+00
12.000000 -10.000000 3.263836E+00
12.000000 -12.000000 -2.646055E+01
12.000000 -14.000000 -3.837774E+01
12.000000 -16.000000 -2.420783E+01
12.000000 -18.000000 -1.274925E+00
12.000000 -20.000000 1.062808E+01
12.000000 -22.000000 9.368954E+00
12.000000 -24.000000 -8.181992E-01
12.000000 -26.000000 -9.484127E+00
12.000000 -28.000000 -1.209776E+01
12.000000 -30.000000 -1.451375E+01
12.000000 -32.000000 -1.653965E+01
12.000000 -34.000000 -2.168208E+01
12.000000 -36.000000 -1.632864E+01
12.000000 -38.000000 5.745943E-01
12.000000 -40.000000 2.517722E+01
14.000000 40.000000 -3.760573E+01
14.000000 38.000000 -7.717641E+00
14.000000 36.000000 1.692354E+01
14.000000 34.000000 2.935732E+01
14.000000 32.000000 1.966085E+01
14.000000 30.000000 1.271933E+01
14.000000 28.000000 1.434082E+01
14.000000 26.000000 1.494632E+01
14.000000 24.000000 1.009320E+01
14.000000 22.000000 1.896033E+00
14.000000 20.000000 -1.004817E+01
14.000000 18.000000 -2.073505E+01
14.000000 16.000000 -1.399295E+01
14.000000 14.000000 1.524250E+01
14.000000 12.000000 6.904649E+01
14.000000 10.000000 1.310711E+02
14.000000 8.000000 1.573470E+02
14.000000 6.000000 1.421349E+02
14.000000 4.000000 7.206199E+01
14.000000 2.000000 -3.075587E+01
14.000000 0.000000 -1.238003E+02
14.000000 -2.000000 -1.707271E+02
14.000000 -4.000000 -1.638495E+02
14.000000 -6.000000 -1.125203E+02
14.000000 -8.000000 -6.676805E+01
14.000000 -10.000000 -5.447244E+01
14.000000 -12.000000 -7.148493E+01
14.000000 -14.000000 -6.987684E+01
14.000000 -16.000000 -3.900352E+01
14.000000 -18.000000 -3.259047E+00
14.000000 -20.000000 1.421197E+01
14.000000 -22.000000 1.133545E+01
14.000000 -24.000000 -4.845961E+00
14.000000 -26.000000 -1.686532E+01
14.000000 -28.000000 -1.881753E+01
14.000000 -30.000000 -2.029963E+01
14.000000 -32.000000 -2.082508E+01
14.000000 -34.000000 -2.400375E+01
14.000000 -36.000000 -1.458652E+01
14.000000 -38.000000 3.390575E+00
14.000000 -40.000000 2.807169E+01
16.000000 40.000000 -4.190242E+01
16.000000 38.000000 -1.016829E+01
16.000000 36.000000 1.862586E+01
16.000000 34.000000 3.362925E+01
16.000000 32.000000 2.393326E+01
16.000000 30.000000 1.480247E+01
16.000000 28.000000 1.529115E+01
16.000000 26.000000 1.725523E+01
16.000000 24.000000 1.204590E+01
16.000000 22.000000 -6.685128E-01
16.000000 20.000000 -1.639878E+01
16.000000 18.000000 -2.677289E+01
16.000000 16.000000 -1.391293E+01
16.000000 14.000000 2.195534E+01
16.000000 12.000000 7.720726E+01
16.000000 10.000000 1.365325E+02
16.000000 8.000000 1.654658E+02
16.000000 6.000000 1.625633E+02
16.000000 4.000000 1.068628E+02
16.000000 2.000000 9.391146E+00
16.000000 0.000000 -9.167865E+01
16.000000 -2.000000 -1.613045E+02
16.000000 -4.000000 -1.842673E+02
16.000000 -6.000000 -1.608985E+02
16.000000 -8.000000 -1.302885E+02
16.000000 -10.000000 -1.245909E+02
16.000000 -12.000000 -1.292318E+02
16.000000 -14.000000 -1.094178E+02
16.000000 -16.000000 -5.750467E+01
16.000000 -18.000000 -4.139000E+00
16.000000 -20.000000 2.172113E+01
16.000000 -22.000000 1.908296E+01
16.000000 -24.000000 -6.291943E-01
16.000000 -26.000000 -1.611164E+01
16.000000 -28.000000 -1.919629E+01
16.000000 -30.000000 -2.031600E+01
16.000000 -32.000000 -1.926608E+01
16.000000 -34.000000 -2.219031E+01
16.000000 -36.000000 -1.183240E+01
16.000000 -38.000000 5.750778E+00
16.000000 -40.000000 2.849952E+01
18.000000 40.000000 -4.734484E+01
18.000000 38.000000 -1.573238E+01
18.000000 36.000000 1.562039E+01
18.000000 34.000000 3.361130E+01
18.000000 32.000000 2.771726E+01
18.000000 30.000000 1.947159E+01
18.000000 28.000000 2.038526E+01
18.000000 26.000000 2.398469E+01
18.000000 24.000000 1.881609E+01
18.000000 22.000000 1.012623E+00
18.000000 20.000000 -1.971018E+01
18.000000 18.000000 -3.327567E+01
18.000000 16.000000 -1.541107E+01
18.000000 14.000000 2.992534E+01
18.000000 12.000000 8.373828E+01
18.000000 10.000000 1.299739E+02
18.000000 8.000000 1.482991E+02
18.000000 6.000000 1.463732E+02
18.000000 4.000000 1.051585E+02
18.000000 2.000000 2.512022E+01
18.000000 0.000000 -6.772655E+01
18.000000 -2.000000 -1.458152E+02
18.000000 -4.000000 -1.901391E+02
18.000000 -6.000000 -1.931784E+02
18.000000 -8.000000 -1.797758E+02
18.000000 -10.000000 -1.820004E+02
18.000000 -12.000000 -1.773509E+02
18.000000 -14.000000 -1.410836E+02
18.000000 -16.000000 -7.140227E+01
18.000000 -18.000000 -2.939741E+00
18.000000 -20.000000 3.178030E+01
18.000000 -22.000000 3.167688E+01
18.000000 -24.000000 1.276282E+01
18.000000 -26.000000 -3.770638E+00
18.000000 -28.000000 -7.153720E+00
18.000000 -30.000000 -8.203897E+00
18.000000 -32.000000 -8.849859E+00
18.000000 -34.000000 -1.546235E+01
18.000000 -36.000000 -9.549934E+00
18.000000 -38.000000 4.780324E+00
18.000000 -40.000000 2.322865E+01
20.000000 40.000000 -5.519442E+01
20.000000 38.000000 -2.529107E+01
20.000000 36.000000 7.469037E+00
20.000000 34.000000 3.037141E+01
20.000000 32.000000 3.052235E+01
20.000000 30.000000 2.529674E+01
20.000000 28.000000 2.731985E+01
20.000000 26.000000 3.079303E+01
20.000000 24.000000 2.563415E+01
20.000000 22.000000 6.172640E+00
20.000000 20.000000 -1.693516E+01
20.000000 18.000000 -3.275468E+01
20.000000 16.000000 -1.409614E+01
20.000000 14.000000 3.307828E+01
20.000000 12.000000 8.130204E+01
20.000000 10.000000 1.115543E+02
20.000000 8.000000 1.149548E+02
20.000000 6.000000 1.062686E+02
20.000000 4.000000 7.382056E+01
20.000000 2.000000 1.303202E+01
20.000000 0.000000 -6.275990E+01
20.000000 -2.000000 -1.356377E+02
20.000000 -4.000000 -1.882488E+02
20.000000 -6.000000 -2.077167E+02
20.000000 -8.000000 -2.070080E+02
20.000000 -10.000000 -2.123413E+02
20.000000 -12.000000 -2.000804E+02
20.000000 -14.000000 -1.547152E+02
20.000000 -16.000000 -7.762086E+01
20.000000 -18.000000 -3.269941E+00
20.000000 -20.000000 3.713585E+01
20.000000 -22.000000 4.271008E+01
20.000000 -24.000000 2.989766E+01
20.000000 -26.000000 1.758901E+01
20.000000 -28.000000 1.689952E+01
20.000000 -30.000000 1.565193E+01
20.000000 -32.000000 8.797721E+00
20.000000 -34.000000 -6.326728E+00
20.000000 -36.000000 -1.000314E+01
20.000000 -38.000000 -1.373019E+00
20.000000 -40.000000 1.256060E+01
22.000000 40.000000 -6.423559E+01
22.000000 38.000000 -3.738447E+01
22.000000 36.000000 -4.138837E+00
22.000000 34.000000 2.439859E+01
22.000000 32.000000 3.105413E+01
22.000000 30.000000 2.819926E+01
22.000000 28.000000 2.872046E+01
22.000000 26.000000 3.031060E+01
22.000000 24.000000 2.786169E+01
22.000000 22.000000 1.196334E+01
22.000000 20.000000 -9.055019E+00
22.000000 18.000000 -2.209878E+01
22.000000 16.000000 -5.533016E+00
22.000000 14.000000 3.217114E+01
22.000000 12.000000 6.754004E+01
22.000000 10.000000 8.251692E+01
22.000000 8.000000 7.635163E+01
22.000000 6.000000 6.170781E+01
22.000000 4.000000 3.399360E+01
22.000000 2.000000 -1.214143E+01
22.000000 0.000000 -7.125944E+01
22.000000 -2.000000 -1.312559E+02
22.000000 -4.000000 -1.806145E+02
22.000000 -6.000000 -2.038220E+02
22.000000 -8.000000 -2.084197E+02
22.000000 -10.000000 -2.134691E+02
22.000000 -12.000000 -1.979608E+02
22.000000 -14.000000 -1.518720E+02
22.000000 -16.000000 -7.882147E+01
22.000000 -18.000000 -9.489048E+00
22.000000 -20.000000 3.041489E+01
22.000000 -22.000000 4.287832E+01
22.000000 -24.000000 4.131666E+01
22.000000 -26.000000 3.876555E+01
22.000000 -28.000000 4.171243E+01
22.000000 -30.000000 3.967941E+01
22.000000 -32.000000 2.675337E+01
22.000000 -34.000000 2.717328E+00
22.000000 -36.000000 -1.162983E+01
22.000000 -38.000000 -9.565036E+00
22.000000 -40.000000 5.702960E-01
24.000000 40.000000 -7.291567E+01
24.000000 38.000000 -4.926782E+01
24.000000 36.000000 -1.674769E+01
24.000000 34.000000 1.579132E+01
24.000000 32.000000 2.696388E+01
24.000000 30.000000 2.414457E+01
24.000000 28.000000 2.111524E+01
24.000000 26.000000 2.137636E+01
24.000000 24.000000 2.234537E+01
24.000000 22.000000 1.271043E+01
24.000000 20.000000 -1.004742E+00
24.000000 18.000000 -8.490727E+00
24.000000 16.000000 4.161152E+00
24.000000 14.000000 2.888976E+01
24.000000 12.000000 4.924468E+01
24.000000 10.000000 5.347218E+01
24.000000 8.000000 4.686904E+01
24.000000 6.000000 3.076534E+01
24.000000 4.000000 4.591034E+00
24.000000 2.000000 -3.577658E+01
24.000000 0.000000 -8.487748E+01
24.000000 -2.000000 -1.298219E+02
24.000000 -4.000000 -1.641591E+02
24.000000 -6.000000 -1.811851E+02
24.000000 -8.000000 -1.882743E+02
24.000000 -10.000000 -1.935345E+02
24.000000 -12.000000 -1.789763E+02
24.000000 -14.000000 -1.382406E+02
24.000000 -16.000000 -7.856246E+01
24.000000 -18.000000 -2.338790E+01
24.000000 -20.000000 1.042571E+01
24.000000 -22.000000 2.742002E+01
24.000000 -24.000000 3.871728E+01
24.000000 -26.000000 4.831929E+01
24.000000 -28.000000 5.487834E+01
24.000000 -30.000000 5.224447E+01
24.000000 -32.000000 3.629697E+01
24.000000 -34.000000 8.035259E+00
24.000000 -36.000000 -1.238168E+01
24.000000 -38.000000 -1.511506E+01
24.000000 -40.000000 -8.165232E+00
26.000000 40.000000 -8.066667E+01
26.000000 38.000000 -5.984070E+01
26.000000 36.000000 -2.813914E+01
26.000000 34.000000 5.917722E+00
26.000000 32.000000 1.790830E+01
26.000000 30.000000 1.247931E+01
26.000000 28.000000 4.967717E+00
26.000000 26.000000 3.623925E+00
26.000000 24.000000 4.637043E+00
26.000000 22.000000 1.390301E+00
26.000000 20.000000 -6.373940E-01
26.000000 18.000000 1.670372E+00
26.000000 16.000000 1.388452E+01
26.000000 14.000000 3.082241E+01
26.000000 12.000000 4.351661E+01
26.000000 10.000000 4.717104E+01
26.000000 8.000000 4.484710E+01
26.000000 6.000000 2.697536E+01
26.000000 4.000000 -6.436012E+00
26.000000 2.000000 -5.299734E+01
26.000000 0.000000 -1.003115E+02
26.000000 -2.000000 -1.319268E+02
26.000000 -4.000000 -1.454739E+02
26.000000 -6.000000 -1.508823E+02
26.000000 -8.000000 -1.614586E+02
26.000000 -10.000000 -1.693439E+02
26.000000 -12.000000 -1.587653E+02
26.000000 -14.000000 -1.255438E+02
26.000000 -16.000000 -8.049864E+01
26.000000 -18.000000 -4.255103E+01
26.000000 -20.000000 -1.813725E+01
26.000000 -22.000000 5.072708E-01
26.000000 -24.000000 2.246321E+01
26.000000 -26.000000 4.243970E+01
26.000000 -28.000000 5.315358E+01
26.000000 -30.000000 5.088875E+01
26.000000 -32.000000 3.428977E+01
26.000000 -34.000000 6.600359E+00
26.000000 -36.000000 -1.344468E+01
26.000000 -38.000000 -1.701001E+01
26.000000 -40.000000 -1.140635E+01
28.000000 40.000000 -8.636588E+01
28.000000 38.000000 -6.849061E+01
28.000000 36.000000 -3.723979E+01
28.000000 34.000000 -4.459588E+00
28.000000 32.000000 5.020966E+00
28.000000 30.000000 -3.491321E+00
28.000000 28.000000 -1.470321E+01
28.000000 26.000000 -2.050126E+01
28.000000 24.000000 -2.494928E+01
28.000000 22.000000 -2.295790E+01
28.000000 20.000000 -1.173015E+01
28.000000 18.000000 6.089128E+00
28.000000 16.000000 2.597360E+01
28.000000 14.000000 4.524541E+01
28.000000 12.000000 6.118089E+01
28.000000 10.000000 7.251042E+01
28.000000 8.000000 7.046202E+01
28.000000 6.000000 4.599240E+01
28.000000 4.000000 -4.521912E+00
28.000000 2.000000 -6.736181E+01
28.000000 0.000000 -1.176135E+02
28.000000 -2.000000 -1.361925E+02
28.000000 -4.000000 -1.286657E+02
28.000000 -6.000000 -1.243303E+02
28.000000 -8.000000 -1.431977E+02
28.000000 -10.000000 -1.593977E+02
28.000000 -12.000000 -1.534449E+02
28.000000 -14.000000 -1.237795E+02
28.000000 -16.000000 -8.608509E+01
28.000000 -18.000000 -5.971673E+01
28.000000 -20.000000 -4.399643E+01
28.000000 -22.000000 -2.651307E+01
28.000000 -24.000000 7.403755E-01
28.000000 -26.000000 2.588389E+01
28.000000 -28.000000 3.884651E+01
28.000000 -30.000000 3.771801E+01
28.000000 -32.000000 2.383496E+01
28.000000 -34.000000 4.165401E-01
28.000000 -36.000000 -1.406847E+01
28.000000 -38.000000 -1.556823E+01
28.000000 -40.000000 -1.032904E+01
30.000000 40.000000 -8.861949E+01
30.000000 38.000000 -7.471684E+01
30.000000 36.000000 -4.457564E+01
30.000000 34.000000 -1.411100E+01
30.000000 32.000000 -7.507703E+00
30.000000 30.000000 -1.863761E+01
30.000000 28.000000 -3.249216E+01
30.000000 26.000000 -4.360279E+01
30.000000 24.000000 -5.634467E+01
30.000000 22.000000 -5.165903E+01
30.000000 20.000000 -2.999851E+01
30.000000 18.000000 4.291119E+00
30.000000 16.000000 3.785912E+01
30.000000 14.000000 6.766561E+01
30.000000 12.000000 9.244730E+01
30.000000 10.000000 1.119393E+02
30.000000 8.000000 1.066156E+02
30.000000 6.000000 7.295749E+01
30.000000 4.000000 2.217617E+00
30.000000 2.000000 -7.760226E+01
30.000000 0.000000 -1.316012E+02
30.000000 -2.000000 -1.410376E+02
30.000000 -4.000000 -1.230951E+02
30.000000 -6.000000 -1.179227E+02
30.000000 -8.000000 -1.438416E+02
30.000000 -10.000000 -1.694126E+02
30.000000 -12.000000 -1.646014E+02
30.000000 -14.000000 -1.305997E+02
30.000000 -16.000000 -8.933685E+01
30.000000 -18.000000 -6.441653E+01
30.000000 -20.000000 -5.316117E+01
30.000000 -22.000000 -3.961695E+01
30.000000 -24.000000 -1.560394E+01
30.000000 -26.000000 6.393177E+00
30.000000 -28.000000 1.786432E+01
30.000000 -30.000000 1.841517E+01
30.000000 -32.000000 9.845381E+00
30.000000 -34.000000 -7.261529E+00
30.000000 -36.000000 -1.429059E+01
30.000000 -38.000000 -1.288043E+01
30.000000 -40.000000 -7.562861E+00
32.000000 40.000000 -8.888777E+01
32.000000 38.000000 -7.752194E+01
32.000000 36.000000 -4.848820E+01
32.000000 34.000000 -1.868237E+01
32.000000 32.000000 -1.271764E+01
32.000000 30.000000 -2.638380E+01
32.000000 28.000000 -4.415153E+01
32.000000 26.000000 -5.892442E+01
32.000000 24.000000 -7.844258E+01
32.000000 22.000000 -7.468716E+01
32.000000 20.000000 -4.981569E+01
32.000000 18.000000 -6.418926E+00
32.000000 16.000000 3.992380E+01
32.000000 14.000000 8.387044E+01
32.000000 12.000000 1.197597E+02
32.000000 10.000000 1.451267E+02
32.000000 8.000000 1.324106E+02
32.000000 6.000000 8.684874E+01
32.000000 4.000000 1.154602E+00
32.000000 2.000000 -8.573879E+01
32.000000 0.000000 -1.395875E+02
32.000000 -2.000000 -1.466825E+02
32.000000 -4.000000 -1.310905E+02
32.000000 -6.000000 -1.282079E+02
32.000000 -8.000000 -1.526049E+02
32.000000 -10.000000 -1.824928E+02
32.000000 -12.000000 -1.767707E+02
32.000000 -14.000000 -1.360248E+02
32.000000 -16.000000 -8.481923E+01
32.000000 -18.000000 -5.362537E+01
32.000000 -20.000000 -4.239935E+01
32.000000 -22.000000 -3.447698E+01
32.000000 -24.000000 -2.119835E+01
32.000000 -26.000000 -8.244719E+00
32.000000 -28.000000 -2.524090E-01
32.000000 -30.000000 1.891373E+00
32.000000 -32.000000 -2.415083E+00
32.000000 -34.000000 -1.531083E+01
32.000000 -36.000000 -1.760336E+01
32.000000 -38.000000 -1.308925E+01
32.000000 -40.000000 -5.854005E+00
34.000000 40.000000 -8.948613E+01
34.000000 38.000000 -7.645185E+01
34.000000 36.000000 -4.649664E+01
34.000000 34.000000 -1.426875E+01
34.000000 32.000000 -6.075073E+00
34.000000 30.000000 -2.063972E+01
34.000000 28.000000 -4.278001E+01
34.000000 26.000000 -6.120306E+01
34.000000 24.000000 -8.534885E+01
34.000000 22.000000 -8.788177E+01
34.000000 20.000000 -7.102426E+01
34.000000 18.000000 -3.197752E+01
34.000000 16.000000 2.048680E+01
34.000000 14.000000 7.761659E+01
34.000000 12.000000 1.253439E+02
34.000000 10.000000 1.541012E+02
34.000000 8.000000 1.325212E+02
34.000000 6.000000 7.521988E+01
34.000000 4.000000 -1.353078E+01
34.000000 2.000000 -9.293192E+01
34.000000 0.000000 -1.380779E+02
34.000000 -2.000000 -1.424480E+02
34.000000 -4.000000 -1.288515E+02
34.000000 -6.000000 -1.247144E+02
34.000000 -8.000000 -1.456745E+02
34.000000 -10.000000 -1.785003E+02
34.000000 -12.000000 -1.784777E+02
34.000000 -14.000000 -1.379317E+02
34.000000 -16.000000 -7.830415E+01
34.000000 -18.000000 -3.764579E+01
34.000000 -20.000000 -2.213457E+01
34.000000 -22.000000 -1.882784E+01
34.000000 -24.000000 -1.783874E+01
34.000000 -26.000000 -1.487125E+01
34.000000 -28.000000 -1.023781E+01
34.000000 -30.000000 -7.160749E+00
34.000000 -32.000000 -9.818669E+00
34.000000 -34.000000 -2.214689E+01
34.000000 -36.000000 -2.345043E+01
34.000000 -38.000000 -1.640359E+01
34.000000 -40.000000 -6.960897E+00
36.000000 40.000000 -8.977964E+01
36.000000 38.000000 -7.311423E+01
36.000000 36.000000 -4.087812E+01
36.000000 34.000000 -3.820442E+00
36.000000 32.000000 8.935304E+00
36.000000 30.000000 -3.626514E+00
36.000000 28.000000 -2.675322E+01
36.000000 26.000000 -4.781990E+01
36.000000 24.000000 -7.575202E+01
36.000000 22.000000 -9.098213E+01
36.000000 20.000000 -9.165681E+01
36.000000 18.000000 -6.633523E+01
36.000000 16.000000 -1.359157E+01
36.000000 14.000000 5.231978E+01
36.000000 12.000000 1.099477E+02
36.000000 10.000000 1.393711E+02
36.000000 8.000000 1.101186E+02
36.000000 6.000000 4.643861E+01
36.000000 4.000000 -3.405116E+01
36.000000 2.000000 -9.559451E+01
36.000000 0.000000 -1.244999E+02
36.000000 -2.000000 -1.215299E+02
36.000000 -4.000000 -1.055968E+02
36.000000 -6.000000 -9.862115E+01
36.000000 -8.000000 -1.178238E+02
36.000000 -10.000000 -1.545344E+02
36.000000 -12.000000 -1.682689E+02
36.000000 -14.000000 -1.389985E+02
36.000000 -16.000000 -8.214687E+01
36.000000 -18.000000 -3.570089E+01
36.000000 -20.000000 -1.265146E+01
36.000000 -22.000000 -7.943123E+00
36.000000 -24.000000 -1.154547E+01
36.000000 -26.000000 -1.387190E+01
36.000000 -28.000000 -1.137644E+01
36.000000 -30.000000 -8.578695E+00
36.000000 -32.000000 -1.182948E+01
36.000000 -34.000000 -2.470320E+01
36.000000 -36.000000 -2.745622E+01
36.000000 -38.000000 -2.028552E+01
36.000000 -40.000000 -1.064163E+01
38.000000 40.000000 -8.930075E+01
38.000000 38.000000 -6.924401E+01
38.000000 36.000000 -3.433517E+01
38.000000 34.000000 7.747354E+00
38.000000 32.000000 2.578904E+01
38.000000 30.000000 1.745941E+01
38.000000 28.000000 -2.260074E+00
38.000000 26.000000 -2.204337E+01
38.000000 24.000000 -5.098068E+01
38.000000 22.000000 -8.077706E+01
38.000000 20.000000 -1.013388E+02
38.000000 18.000000 -9.155659E+01
38.000000 16.000000 -4.236796E+01
38.000000 14.000000 2.554304E+01
38.000000 12.000000 8.589209E+01
38.000000 10.000000 1.110558E+02
38.000000 8.000000 7.663160E+01
38.000000 6.000000 1.472621E+01
38.000000 4.000000 -5.095214E+01
38.000000 2.000000 -9.235548E+01
38.000000 0.000000 -1.038803E+02
38.000000 -2.000000 -9.186217E+01
38.000000 -4.000000 -7.195260E+01
38.000000 -6.000000 -6.004497E+01
38.000000 -8.000000 -7.761629E+01
38.000000 -10.000000 -1.181502E+02
38.000000 -12.000000 -1.480110E+02
38.000000 -14.000000 -1.389850E+02
38.000000 -16.000000 -1.001580E+02
38.000000 -18.000000 -5.884027E+01
38.000000 -20.000000 -3.031982E+01
38.000000 -22.000000 -1.613108E+01
38.000000 -24.000000 -1.089507E+01
38.000000 -26.000000 -8.865002E+00
38.000000 -28.000000 -6.170860E+00
38.000000 -30.000000 -3.869341E+00
38.000000 -32.000000 -7.649908E+00
38.000000 -34.000000 -2.201019E+01
38.000000 -36.000000 -2.807879E+01
38.000000 -38.000000 -2.288480E+01
38.000000 -40.000000 -1.417874E+01
40.000000 40.000000 -8.787223E+01
40.000000 38.000000 -6.566491E+01
40.000000 36.000000 -2.863317E+01
40.000000 34.000000 1.571448E+01
40.000000 32.000000 3.727267E+01
40.000000 30.000000 3.430010E+01
40.000000 28.000000 2.124308E+01
40.000000 26.000000 6.061321E+00
40.000000 24.000000 -1.787500E+01
40.000000 22.000000 -5.266247E+01
40.000000 20.000000 -8.323158E+01
40.000000 18.000000 -8.621024E+01
40.000000 16.000000 -4.646929E+01
40.000000 14.000000 1.381700E+01
40.000000 12.000000 6.476858E+01
40.000000 10.000000 7.835393E+01
40.000000 8.000000 4.112496E+01
40.000000 6.000000 -1.371503E+01
40.000000 4.000000 -6.296485E+01
40.000000 2.000000 -8.572962E+01
40.000000 0.000000 -8.245980E+01
40.000000 -2.000000 -6.363724E+01
40.000000 -4.000000 -4.420526E+01
40.000000 -6.000000 -3.232385E+01
40.000000 -8.000000 -4.717391E+01
40.000000 -10.000000 -8.574237E+01
40.000000 -12.000000 -1.252675E+02
40.000000 -14.000000 -1.363910E+02
40.000000 -16.000000 -1.208506E+02
40.000000 -18.000000 -9.320228E+01
40.000000 -20.000000 -6.511644E+01
40.000000 -22.000000 -4.082435E+01
40.000000 -24.000000 -2.133901E+01
40.000000 -26.000000 -8.953104E+00
40.000000 -28.000000 -2.409389E+00
40.000000 -30.000000 2.237776E+00
40.000000 -32.000000 2.817287E-01
40.000000 -34.000000 -1.586879E+01
40.000000 -36.000000 -2.529147E+01
40.000000 -38.000000 -2.230216E+01
40.000000 -40.000000 -1.523854E+01
42.000000 40.000000 -8.373835E+01
42.000000 38.000000 -6.214460E+01
42.000000 36.000000 -2.655027E+01
42.000000 34.000000 1.615947E+01
42.000000 32.000000 3.954112E+01
42.000000 30.000000 4.280424E+01
42.000000 28.000000 3.787889E+01
42.000000 26.000000 2.966864E+01
42.000000 24.000000 1.579979E+01
42.000000 22.000000 -1.293647E+01
42.000000 20.000000 -3.958973E+01
42.000000 18.000000 -4.882291E+01
42.000000 16.000000 -2.479363E+01
42.000000 14.000000 1.703150E+01
42.000000 12.000000 4.687750E+01
42.000000 10.000000 4.263132E+01
42.000000 8.000000 6.676628E+00
42.000000 6.000000 -3.450549E+01
42.000000 4.000000 -6.369961E+01
42.000000 2.000000 -7.067323E+01
42.000000 0.000000 -5.888884E+01
42.000000 -2.000000 -3.979622E+01
42.000000 -4.000000 -2.787224E+01
42.000000 -6.000000 -2.560807E+01
42.000000 -8.000000 -3.816283E+01
42.000000 -10.000000 -6.735695E+01
42.000000 -12.000000 -1.050098E+02
42.000000 -14.000000 -1.291526E+02
42.000000 -16.000000 -1.347452E+02
42.000000 -18.000000 -1.241676E+02
42.000000 -20.000000 -1.005081E+02
42.000000 -22.000000 -6.932126E+01
42.000000 -24.000000 -3.707498E+01
42.000000 -26.000000 -1.420189E+01
42.000000 -28.000000 -2.007912E+00
42.000000 -30.000000 6.392115E+00
42.000000 -32.000000 6.261042E+00
42.000000 -34.000000 -9.577013E+00
42.000000 -36.000000 -2.036678E+01
42.000000 -38.000000 -1.976617E+01
42.000000 -40.000000 -1.531096E+01
44.000000 40.000000 -7.656119E+01
44.000000 38.000000 -5.782048E+01
44.000000 36.000000 -2.760769E+01
44.000000 34.000000 1.046614E+01
44.000000 32.000000 3.563363E+01
44.000000 30.000000 4.525780E+01
44.000000 28.000000 4.753179E+01
44.000000 26.000000 4.672383E+01
44.000000 24.000000 4.189693E+01
44.000000 22.000000 2.047257E+01
44.000000 20.000000 1.142426E+00
44.000000 18.000000 -8.016445E+00
44.000000 16.000000 3.673845E+00
44.000000 14.000000 2.521978E+01
44.000000 12.000000 3.346545E+01
44.000000 10.000000 1.567456E+01
44.000000 8.000000 -1.576798E+01
44.000000 6.000000 -4.252601E+01
44.000000 4.000000 -5.352878E+01
44.000000 2.000000 -4.978155E+01
44.000000 0.000000 -3.591897E+01
44.000000 -2.000000 -2.189140E+01
44.000000 -4.000000 -1.991162E+01
44.000000 -6.000000 -2.710430E+01
44.000000 -8.000000 -3.628379E+01
44.000000 -10.000000 -5.479207E+01
44.000000 -12.000000 -8.684660E+01
44.000000 -14.000000 -1.176886E+02
44.000000 -16.000000 -1.385597E+02
44.000000 -18.000000 -1.428763E+02
44.000000 -20.000000 -1.240907E+02
44.000000 -22.000000 -8.874266E+01
44.000000 -24.000000 -4.830259E+01
44.000000 -26.000000 -1.894881E+01
44.000000 -28.000000 -4.193878E+00
44.000000 -30.000000 5.203516E+00
44.000000 -32.000000 4.526651E+00
44.000000 -34.000000 -9.931275E+00
44.000000 -36.000000 -1.935998E+01
44.000000 -38.000000 -1.885205E+01
44.000000 -40.000000 -1.472438E+01
46.000000 40.000000 -6.798053E+01
46.000000 38.000000 -5.191279E+01
46.000000 36.000000 -2.690263E+01
46.000000 34.000000 5.420135E+00
46.000000 32.000000 3.032384E+01
46.000000 30.000000 4.411999E+01
46.000000 28.000000 5.168214E+01
46.000000 26.000000 5.441813E+01
46.000000 24.000000 5.133616E+01
46.000000 22.000000 3.509299E+01
46.000000 20.000000 2.074228E+01
46.000000 18.000000 1.300679E+01
46.000000 16.000000 1.907521E+01
46.000000 14.000000 2.774406E+01
46.000000 12.000000 2.449442E+01
46.000000 10.000000 4.425915E+00
46.000000 8.000000 -1.943963E+01
46.000000 6.000000 -3.517828E+01
46.000000 4.000000 -3.497967E+01
46.000000 2.000000 -2.599642E+01
46.000000 0.000000 -1.386973E+01
46.000000 -2.000000 -6.586914E+00
46.000000 -4.000000 -1.250177E+01
46.000000 -6.000000 -2.334600E+01
46.000000 -8.000000 -2.929151E+01
46.000000 -10.000000 -3.992048E+01
46.000000 -12.000000 -6.849439E+01
46.000000 -14.000000 -1.035950E+02
46.000000 -16.000000 -1.333657E+02
46.000000 -18.000000 -1.458960E+02
46.000000 -20.000000 -1.305934E+02
46.000000 -22.000000 -9.455964E+01
46.000000 -24.000000 -5.232925E+01
46.000000 -26.000000 -2.365407E+01
46.000000 -28.000000 -1.214758E+01
46.000000 -30.000000 -5.073513E+00
46.000000 -32.000000 -7.326927E+00
46.000000 -34.000000 -2.032745E+01
46.000000 -36.000000 -2.522883E+01
46.000000 -38.000000 -1.967217E+01
46.000000 -40.000000 -1.113642E+01
48.000000 40.000000 -5.866936E+01
48.000000 38.000000 -4.390305E+01
48.000000 36.000000 -2.206183E+01
48.000000 34.000000 5.420051E+00
48.000000 32.000000 2.651833E+01
48.000000 30.000000 4.063912E+01
48.000000 28.000000 5.125422E+01
48.000000 26.000000 5.402555E+01
48.000000 24.000000 4.666458E+01
48.000000 22.000000 3.119372E+01
48.000000 20.000000 1.834387E+01
48.000000 18.000000 1.201143E+01
48.000000 16.000000 1.766082E+01
48.000000 14.000000 2.254832E+01
48.000000 12.000000 1.779643E+01
48.000000 10.000000 2.877835E+00
48.000000 8.000000 -1.105692E+01
48.000000 6.000000 -1.681186E+01
48.000000 4.000000 -1.149461E+01
48.000000 2.000000 -2.116005E+00
48.000000 0.000000 7.474407E+00
48.000000 -2.000000 9.861025E+00
48.000000 -4.000000 6.613770E-01
48.000000 -6.000000 -1.124684E+01
48.000000 -8.000000 -1.707714E+01
48.000000 -10.000000 -2.655641E+01
48.000000 -12.000000 -5.597001E+01
48.000000 -14.000000 -9.306639E+01
48.000000 -16.000000 -1.243887E+02
48.000000 -18.000000 -1.365104E+02
48.000000 -20.000000 -1.218769E+02
48.000000 -22.000000 -8.847384E+01
48.000000 -24.000000 -5.099749E+01
48.000000 -26.000000 -2.859247E+01
48.000000 -28.000000 -2.362040E+01
48.000000 -30.000000 -2.179146E+01
48.000000 -32.000000 -2.553104E+01
48.000000 -34.000000 -3.465591E+01
48.000000 -36.000000 -3.288979E+01
48.000000 -38.000000 -2.053784E+01
48.000000 -40.000000 -5.308744E+00
50.000000 40.000000 -4.974882E+01
50.000000 38.000000 -3.399700E+01
50.000000 36.000000 -1.359990E+01
50.000000 34.000000 9.632730E+00
50.000000 32.000000 2.493958E+01
50.000000 30.000000 3.619529E+01
50.000000 28.000000 4.700529E+01
50.000000 26.000000 4.946984E+01
50.000000 24.000000 3.777911E+01
50.000000 22.000000 1.974150E+01
50.000000 20.000000 6.934575E+00
50.000000 18.000000 4.444080E+00
50.000000 16.000000 1.264421E+01
50.000000 14.000000 1.803753E+01
50.000000 12.000000 1.563961E+01
50.000000 10.000000 7.775820E+00
50.000000 8.000000 1.448963E+00
50.000000 6.000000 1.061579E+00
50.000000 4.000000 5.834230E+00
50.000000 2.000000 1.276030E+01
50.000000 0.000000 1.987247E+01
50.000000 -2.000000 1.960415E+01
50.000000 -4.000000 1.039591E+01
50.000000 -6.000000 -2.176384E+00
50.000000 -8.000000 -9.902088E+00
50.000000 -10.000000 -2.330662E+01
50.000000 -12.000000 -5.436707E+01
50.000000 -14.000000 -8.737951E+01
50.000000 -16.000000 -1.110850E+02
50.000000 -18.000000 -1.169278E+02
50.000000 -20.000000 -1.025898E+02
50.000000 -22.000000 -7.411215E+01
50.000000 -24.000000 -4.464579E+01
50.000000 -26.000000 -3.032043E+01
50.000000 -28.000000 -3.276273E+01
50.000000 -30.000000 -3.714392E+01
50.000000 -32.000000 -4.140405E+01
50.000000 -34.000000 -4.527764E+01
50.000000 -36.000000 -3.779981E+01
50.000000 -38.000000 -2.060317E+01
50.000000 -40.000000 4.011545E-01
52.000000 40.000000 -4.373640E+01
52.000000 38.000000 -2.414745E+01
52.000000 36.000000 -3.312857E+00
52.000000 34.000000 1.571067E+01
52.000000 32.000000 2.473276E+01
52.000000 30.000000 3.198099E+01
52.000000 28.000000 4.168812E+01
52.000000 26.000000 4.493930E+01
52.000000 24.000000 3.273153E+01
52.000000 22.000000 1.553301E+01
52.000000 20.000000 5.123398E+00
52.000000 18.000000 7.365333E+00
52.000000 16.000000 1.724197E+01
52.000000 14.000000 2.329192E+01
52.000000 12.000000 2.160523E+01
52.000000 10.000000 1.520235E+01
52.000000 8.000000 7.477922E+00
52.000000 6.000000 3.615721E+00
52.000000 4.000000 4.382779E+00
52.000000 2.000000 9.021070E+00
52.000000 0.000000 1.468960E+01
52.000000 -2.000000 1.520227E+01
52.000000 -4.000000 7.931858E+00
52.000000 -6.000000 -4.873846E+00
52.000000 -8.000000 -1.408562E+01
52.000000 -10.000000 -3.009539E+01
52.000000 -12.000000 -5.874171E+01
52.000000 -14.000000 -8.258968E+01
52.000000 -16.000000 -9.326361E+01
52.000000 -18.000000 -9.030192E+01
52.000000 -20.000000 -7.671287E+01
52.000000 -22.000000 -5.456539E+01
52.000000 -24.000000 -3.427571E+01
52.000000 -26.000000 -2.803886E+01
52.000000 -28.000000 -3.597026E+01
52.000000 -30.000000 -4.397418E+01
52.000000 -32.000000 -4.782013E+01
52.000000 -34.000000 -4.859009E+01
52.000000 -36.000000 -3.815748E+01
52.000000 -38.000000 -1.887541E+01
52.000000 -40.000000 4.525667E+00
54.000000 40.000000 -3.945795E+01
54.000000 38.000000 -1.683996E+01
54.000000 36.000000 4.110714E+00
54.000000 34.000000 2.051101E+01
54.000000 32.000000 2.550670E+01
54.000000 30.000000 2.956690E+01
54.000000 28.000000 3.844273E+01
54.000000 26.000000 4.437839E+01
