-26.000000 16.000000 6.931408E+01
-26.000000 14.000000 7.703467E+01
-26.000000 12.000000 6.919124E+01
-26.000000 10.000000 4.533286E+01
-26.000000 8.000000 1.764833E+01
-26.000000 6.000000 -1.751110E+00
-26.000000 4.000000 -1.236715E+01
-26.000000 2.000000 -2.186341E+01
-26.000000 0.000000 -2.449860E+01
-26.000000 -2.000000 -2.053014E+01
-26.000000 -4.000000 -2.749981E+01
-26.000000 -6.000000 -2.904743E+01
-26.000000 -8.000000 -2.318794E+01
-26.000000 -10.000000 -2.493101E+01
-26.000000 -12.000000 -2.656883E+01
-26.000000 -14.000000 -2.154930E+01
-26.000000 -16.000000 -1.373078E+01
-26.000000 -18.000000 -1.330390E+01
-26.000000 -20.000000 -1.584637E+01
-26.000000 -22.000000 -8.204482E+00
-26.000000 -24.000000 4.065292E+00
-26.000000 -26.000000 1.090089E+01
-26.000000 -28.000000 1.679793E+01
-26.000000 -30.000000 2.655607E+01
-26.000000 -32.000000 2.873501E+01
-26.000000 -34.000000 1.127221E+01
-26.000000 -36.000000 4.274288E+00
-26.000000 -38.000000 1.558828E+01
-26.000000 -40.000000 4.654319E+01
-24.000000 40.000000 -2.450457E+01
-24.000000 38.000000 2.257645E+01
-24.000000 36.000000 5.428113E+01
-24.000000 34.000000 7.481658E+01
-24.000000 32.000000 7.583339E+01
-24.000000 30.000000 8.066133E+01
-24.000000 28.000000 8.606012E+01
-24.000000 26.000000 9.426365E+01
-24.000000 24.000000 9.886778E+01
-24.000000 22.000000 1.015002E+02
-24.000000 20.000000 1.051316E+02
-24.000000 18.000000 1.016759E+02
-24.000000 16.000000 1.074227E+02
-24.000000 14.000000 1.144287E+02
-24.000000 12.000000 1.004904E+02
-24.000000 10.000000 7.170178E+01
-24.000000 8.000000 3.512995E+01
-24.000000 6.000000 7.314238E+00
-24.000000 4.000000 -1.462965E+01
-24.000000 2.000000 -3.553796E+01
-24.000000 0.000000 -4.642674E+01
-24.000000 -2.000000 -4.910015E+01
-24.000000 -4.000000 -5.775914E+01
-24.000000 -6.000000 -5.863607E+01
-24.000000 -8.000000 -5.046966E+01
-24.000000 -10.000000 -5.065321E+01
-24.000000 -12.000000 -4.463447E+01
-24.000000 -14.000000 -3.263535E+01
-24.000000 -16.000000 -1.979358E+01
-24.000000 -18.000000 -1.620396E+01
-24.000000 -20.000000 -1.715245E+01
-24.000000 -22.000000 -8.304441E+00
-24.000000 -24.000000 3.001491E+00
-24.000000 -26.000000 8.200581E+00
-24.000000 -28.000000 8.656410E+00
-24.000000 -30.000000 1.465935E+01
-24.000000 -32.000000 1.742279E+01
-24.000000 -34.000000 1.718472E+00
-24.000000 -36.000000 -1.738181E+00
-24.000000 -38.000000 1.357888E+01
-24.000000 -40.000000 4.697078E+01
-22.000000 40.000000 -1.775444E+01
-22.000000 38.000000 2.710578E+01
-22.000000 36.000000 5.373258E+01
-22.000000 34.000000 6.829043E+01
-22.000000 32.000000 6.517907E+01
-22.000000 30.000000 7.093392E+01
-22.000000 28.000000 7.923856E+01
-22.000000 26.000000 8.720778E+01
-22.000000 24.000000 9.129403E+01
-22.000000 22.000000 9.170693E+01
-22.000000 20.000000 9.202119E+01
-22.000000 18.000000 8.788597E+01
-22.000000 16.000000 9.716334E+01
-22.000000 14.000000 1.065777E+02
-22.000000 12.000000 9.627558E+01
-22.000000 10.000000 7.299781E+01
-22.000000 8.000000 3.823952E+01
-22.000000 6.000000 1.087921E+01
-22.000000 4.000000 -1.071402E+01
-22.000000 2.000000 -3.089044E+01
-22.000000 0.000000 -3.748875E+01
-22.000000 -2.000000 -3.873788E+01
-22.000000 -4.000000 -4.276107E+01
-22.000000 -6.000000 -4.416646E+01
-22.000000 -8.000000 -4.307368E+01
-22.000000 -10.000000 -4.681180E+01
-22.000000 -12.000000 -4.449224E+01
-22.000000 -14.000000 -3.577499E+01
-22.000000 -16.000000 -2.493120E+01
-22.000000 -18.000000 -2.108187E+01
-22.000000 -20.000000 -2.216857E+01
-22.000000 -22.000000 -1.429101E+01
-22.000000 -24.000000 -4.620383E+00
-22.000000 -26.000000 -3.874140E-01
-22.000000 -28.000000 -1.278967E+00
-22.000000 -30.000000 1.298767E+00
-22.000000 -32.000000 3.879875E+00
-22.000000 -34.000000 -7.085829E+00
-22.000000 -36.000000 -6.745616E+00
-22.000000 -38.000000 7.916614E+00
-22.000000 -40.000000 4.218748E+01
-20.000000 40.000000 -1.218747E+01
-20.000000 38.000000 2.953884E+01
-20.000000 36.000000 5.190604E+01
-20.000000 34.000000 6.152289E+01
-20.000000 32.000000 5.547022E+01
-20.000000 30.000000 5.988748E+01
-20.000000 28.000000 6.739406E+01
-20.000000 26.000000 7.410766E+01
-20.000000 24.000000 7.400423E+01
-20.000000 22.000000 6.983877E+01
-20.000000 20.000000 6.531889E+01
-20.000000 18.000000 5.915135E+01
-20.000000 16.000000 6.706675E+01
-20.000000 14.000000 7.500780E+01
-20.000000 12.000000 6.697536E+01
-20.000000 10.000000 4.689227E+01
-20.000000 8.000000 1.927092E+01
-20.000000 6.000000 -3.304445E+00
-20.000000 4.000000 -1.466303E+01
-20.000000 2.000000 -2.004822E+01
-20.000000 0.000000 -1.343278E+01
-20.000000 -2.000000 -6.262694E+00
-20.000000 -4.000000 -3.564119E+00
-20.000000 -6.000000 -6.897369E+00
-20.000000 -8.000000 -1.336090E+01
-20.000000 -10.000000 -2.005507E+01
-20.000000 -12.000000 -2.945044E+01
-20.000000 -14.000000 -2.987746E+01
-20.000000 -16.000000 -2.555704E+01
-20.000000 -18.000000 -2.573625E+01
-20.000000 -20.000000 -2.923532E+01
-20.000000 -22.000000 -2.384669E+01
-20.000000 -24.000000 -1.468919E+01
-20.000000 -26.000000 -9.183948E+00
-20.000000 -28.000000 -8.384031E+00
-20.000000 -30.000000 -7.795096E+00
-20.000000 -32.000000 -7.191611E+00
-20.000000 -34.000000 -1.735208E+01
-20.000000 -36.000000 -1.670709E+01
-20.000000 -38.000000 -2.077848E+00
-20.000000 -40.000000 3.658624E+01
-18.000000 40.000000 -1.284419E+01
-18.000000 38.000000 2.927380E+01
-18.000000 36.000000 4.994363E+01
-18.000000 34.000000 5.524421E+01
-18.000000 32.000000 4.663689E+01
-18.000000 30.000000 4.966572E+01
-18.000000 28.000000 5.429127E+01
-18.000000 26.000000 5.816597E+01
-18.000000 24.000000 5.475759E+01
-18.000000 22.000000 4.735343E+01
-18.000000 20.000000 3.922175E+01
-18.000000 18.000000 3.199768E+01
-18.000000 16.000000 3.750265E+01
-18.000000 14.000000 4.594310E+01
-18.000000 12.000000 4.291994E+01
-18.000000 10.000000 2.600086E+01
-18.000000 8.000000 4.217775E+00
-18.000000 6.000000 -1.647440E+01
-18.000000 4.000000 -2.012944E+01
-18.000000 2.000000 -9.116252E+00
-18.000000 0.000000 1.192427E+01
-18.000000 -2.000000 2.663156E+01
-18.000000 -4.000000 2.868485E+01
-18.000000 -6.000000 2.102969E+01
-18.000000 -8.000000 9.506662E+00
-18.000000 -10.000000 -9.945130E-01
-18.000000 -12.000000 -1.883890E+01
-18.000000 -14.000000 -2.515131E+01
-18.000000 -16.000000 -2.356729E+01
-18.000000 -18.000000 -2.460902E+01
-18.000000 -20.000000 -2.838011E+01
-18.000000 -22.000000 -2.370671E+01
-18.000000 -24.000000 -1.553645E+01
-18.000000 -26.000000 -1.153324E+01
-18.000000 -28.000000 -1.346573E+01
-18.000000 -30.000000 -1.567126E+01
-18.000000 -32.000000 -1.729498E+01
-18.000000 -34.000000 -3.019881E+01
-18.000000 -36.000000 -3.096183E+01
-18.000000 -38.000000 -1.269419E+01
-18.000000 -40.000000 3.362108E+01
-16.000000 40.000000 -1.966353E+01
-16.000000 38.000000 2.684691E+01
-16.000000 36.000000 4.752831E+01
-16.000000 34.000000 4.784922E+01
-16.000000 32.000000 3.616563E+01
-16.000000 30.000000 4.140345E+01
-16.000000 28.000000 4.713960E+01
-16.000000 26.000000 4.759575E+01
-16.000000 24.000000 4.062078E+01
-16.000000 22.000000 2.921062E+01
-16.000000 20.000000 1.809219E+01
-16.000000 18.000000 9.740150E+00
-16.000000 16.000000 1.634588E+01
-16.000000 14.000000 3.291554E+01
-16.000000 12.000000 4.360011E+01
-16.000000 10.000000 3.921960E+01
-16.000000 8.000000 1.964603E+01
-16.000000 6.000000 -5.497912E+00
-16.000000 4.000000 -1.483982E+01
-16.000000 2.000000 -3.884614E+00
-16.000000 0.000000 1.869279E+01
-16.000000 -2.000000 3.230335E+01
-16.000000 -4.000000 2.832078E+01
-16.000000 -6.000000 1.858106E+01
-16.000000 -8.000000 8.345799E+00
-16.000000 -10.000000 -2.796972E+00
-16.000000 -12.000000 -1.985559E+01
-16.000000 -14.000000 -2.571230E+01
-16.000000 -16.000000 -2.156764E+01
-16.000000 -18.000000 -1.918267E+01
-16.000000 -20.000000 -1.797162E+01
-16.000000 -22.000000 -1.204533E+01
-16.000000 -24.000000 -6.214980E+00
-16.000000 -26.000000 -7.901979E+00
-16.000000 -28.000000 -1.820382E+01
-16.000000 -30.000000 -2.397415E+01
-16.000000 -32.000000 -2.597659E+01
-16.000000 -34.000000 -3.999168E+01
-16.000000 -36.000000 -4.046800E+01
-16.000000 -38.000000 -1.782847E+01
-16.000000 -40.000000 3.306918E+01
-14.000000 40.000000 -3.117696E+01
-14.000000 38.000000 1.912797E+01
-14.000000 36.000000 4.180051E+01
-14.000000 34.000000 4.012463E+01
-14.000000 32.000000 2.686651E+01
-14.000000 30.000000 3.631998E+01
-14.000000 28.000000 4.640130E+01
-14.000000 26.000000 4.367465E+01
-14.000000 24.000000 3.336114E+01
-14.000000 22.000000 1.774238E+01
-14.000000 20.000000 5.655952E+00
-14.000000 18.000000 -3.485840E+00
-14.000000 16.000000 6.716642E+00
-14.000000 14.000000 3.238796E+01
-14.000000 12.000000 6.118803E+01
-14.000000 10.000000 7.658825E+01
-14.000000 8.000000 5.714166E+01
-14.000000 6.000000 2.233242E+01
-14.000000 4.000000 -6.338883E+00
-14.000000 2.000000 -9.368284E+00
-14.000000 0.000000 2.019969E+00
-14.000000 -2.000000 1.098507E+01
-14.000000 -4.000000 4.571716E+00
-14.000000 -6.000000 -4.828430E+00
-14.000000 -8.000000 -1.122118E+01
-14.000000 -10.000000 -2.096383E+01
-14.000000 -12.000000 -3.032282E+01
-14.000000 -14.000000 -3.035546E+01
-14.000000 -16.000000 -1.895923E+01
-14.000000 -18.000000 -1.123924E+01
-14.000000 -20.000000 -5.944534E+00
-14.000000 -22.000000 -4.777327E-01
-14.000000 -24.000000 3.760260E+00
-14.000000 -26.000000 -2.066237E+00
-14.000000 -28.000000 -1.992430E+01
-14.000000 -30.000000 -2.773626E+01
-14.000000 -32.000000 -2.589999E+01
-14.000000 -34.000000 -3.821995E+01
-14.000000 -36.000000 -3.986151E+01
-14.000000 -38.000000 -1.842276E+01
-14.000000 -40.000000 3.077862E+01
-12.000000 40.000000 -4.355425E+01
-12.000000 38.000000 6.999136E+00
-12.000000 36.000000 3.309560E+01
-12.000000 34.000000 3.456150E+01
-12.000000 32.000000 2.510253E+01
-12.000000 30.000000 3.855749E+01
-12.000000 28.000000 4.576583E+01
-12.000000 26.000000 3.793880E+01
-12.000000 24.000000 2.867324E+01
-12.000000 22.000000 1.472847E+01
-12.000000 20.000000 3.770506E+00
-12.000000 18.000000 -8.883507E+00
-12.000000 16.000000 3.899841E-01
-12.000000 14.000000 2.911168E+01
-12.000000 12.000000 7.034854E+01
-12.000000 10.000000 1.009478E+02
-12.000000 8.000000 8.177194E+01
-12.000000 6.000000 3.968175E+01
-12.000000 4.000000 -5.019371E+00
-12.000000 2.000000 -1.885998E+01
-12.000000 0.000000 -1.501933E+01
-12.000000 -2.000000 -8.146765E+00
-12.000000 -4.000000 -1.532873E+01
-12.000000 -6.000000 -2.494993E+01
-12.000000 -8.000000 -3.104335E+01
-12.000000 -10.000000 -4.179277E+01
-12.000000 -12.000000 -4.213444E+01
-12.000000 -14.000000 -3.348280E+01
-12.000000 -16.000000 -1.612377E+01
-12.000000 -18.000000 -4.920799E+00
-12.000000 -20.000000 -1.229030E+00
-12.000000 -22.000000 1.162542E+00
-12.000000 -24.000000 6.533484E+00
-12.000000 -26.000000 2.837212E+00
-12.000000 -28.000000 -1.519322E+01
-12.000000 -30.000000 -2.274777E+01
-12.000000 -32.000000 -1.563743E+01
-12.000000 -34.000000 -2.504469E+01
-12.000000 -36.000000 -3.136130E+01
-12.000000 -38.000000 -1.784541E+01
-12.000000 -40.000000 2.467987E+01
-10.000000 40.000000 -5.513823E+01
-10.000000 38.000000 -5.727684E+00
-10.000000 36.000000 2.514334E+01
-10.000000 34.000000 3.631953E+01
-10.000000 32.000000 3.398798E+01
-10.000000 30.000000 4.781443E+01
-10.000000 28.000000 4.390207E+01
-10.000000 26.000000 2.589903E+01
-10.000000 24.000000 1.633025E+01
-10.000000 22.000000 1.270817E+01
-10.000000 20.000000 2.155046E+00
-10.000000 18.000000 -1.370831E+01
-10.000000 16.000000 -8.219818E+00
-10.000000 14.000000 1.585578E+01
-10.000000 12.000000 5.622601E+01
-10.000000 10.000000 9.022064E+01
-10.000000 8.000000 7.655182E+01
-10.000000 6.000000 3.855890E+01
-10.000000 4.000000 -4.217910E+00
-10.000000 2.000000 -1.935738E+01
-10.000000 0.000000 -1.619896E+01
-10.000000 -2.000000 -1.082933E+01
-10.000000 -4.000000 -1.609609E+01
-10.000000 -6.000000 -2.399779E+01
-10.000000 -8.000000 -3.139117E+01
-10.000000 -10.000000 -4.194448E+01
-10.000000 -12.000000 -4.117423E+01
-10.000000 -14.000000 -3.137335E+01
-10.000000 -16.000000 -1.583690E+01
-10.000000 -18.000000 -7.739528E+00
-10.000000 -20.000000 -9.986278E+00
-10.000000 -22.000000 -9.167517E+00
-10.000000 -24.000000 6.546116E-01
-10.000000 -26.000000 3.213469E+00
-10.000000 -28.000000 -7.904105E+00
-10.000000 -30.000000 -1.213148E+01
-10.000000 -32.000000 -4.247046E+00
-10.000000 -34.000000 -1.360666E+01
-10.000000 -36.000000 -2.383104E+01
-10.000000 -38.000000 -1.772111E+01
-10.000000 -40.000000 1.882448E+01
-8.000000 40.000000 -6.368447E+01
-8.000000 38.000000 -1.540226E+01
-8.000000 36.000000 1.933057E+01
-8.000000 34.000000 4.525797E+01
-8.000000 32.000000 5.697653E+01
-8.000000 30.000000 7.018026E+01
-8.000000 28.000000 2.900815E+01
-8.000000 26.000000 -1.572297E+01
-8.000000 24.000000 -1.603559E+01
-8.000000 22.000000 9.346390E-01
-8.000000 20.000000 -3.000874E+00
-8.000000 18.000000 -1.649897E+01
-8.000000 16.000000 -1.086250E+01
-8.000000 14.000000 9.724008E+00
-8.000000 12.000000 4.331390E+01
-8.000000 10.000000 7.185728E+01
-8.000000 8.000000 6.296326E+01
-8.000000 6.000000 3.400362E+01
-8.000000 4.000000 -5.859451E-01
-8.000000 2.000000 -1.494177E+01
-8.000000 0.000000 -1.346447E+01
-8.000000 -2.000000 -9.982851E+00
-8.000000 -4.000000 -9.829611E+00
-8.000000 -6.000000 -1.024252E+01
-8.000000 -8.000000 -1.321661E+01
-8.000000 -10.000000 -2.011466E+01
-8.000000 -12.000000 -2.734077E+01
-8.000000 -14.000000 -2.788350E+01
-8.000000 -16.000000 -2.107176E+01
-8.000000 -18.000000 -1.948632E+01
-8.000000 -20.000000 -2.614858E+01
-8.000000 -22.000000 -2.425806E+01
-8.000000 -24.000000 -9.370474E+00
-8.000000 -26.000000 -2.718194E+00
-8.000000 -28.000000 -7.702610E+00
-8.000000 -30.000000 -6.935468E+00
-8.000000 -32.000000 -2.100965E+00
-8.000000 -34.000000 -1.513938E+01
-8.000000 -36.000000 -2.488031E+01
-8.000000 -38.000000 -1.742696E+01
-8.000000 -40.000000 1.990473E+01
-6.000000 40.000000 -6.658603E+01
-6.000000 38.000000 -2.000386E+01
-6.000000 36.000000 1.532901E+01
-6.000000 34.000000 5.368099E+01
-6.000000 32.000000 8.496414E+01
-6.000000 30.000000 1.029357E+02
-6.000000 28.000000 -1.363049E+00
-6.000000 26.000000 -8.411564E+01
-6.000000 24.000000 -5.235789E+01
-6.000000 22.000000 -8.208796E+00
-6.000000 20.000000 8.263302E-01
-6.000000 18.000000 -7.893652E+00
-6.000000 16.000000 -6.135550E-01
-6.000000 14.000000 1.836565E+01
-6.000000 12.000000 4.216703E+01
-6.000000 10.000000 5.691809E+01
-6.000000 8.000000 4.515008E+01
-6.000000 6.000000 2.475391E+01
-6.000000 4.000000 3.169145E+00
-6.000000 2.000000 -7.211648E+00
-6.000000 0.000000 -7.219496E+00
-6.000000 -2.000000 -4.877201E+00
-6.000000 -4.000000 -3.158372E+00
-6.000000 -6.000000 2.103299E+00
-6.000000 -8.000000 4.296504E+00
-6.000000 -10.000000 -1.148987E+00
-6.000000 -12.000000 -1.830812E+01
-6.000000 -14.000000 -3.007960E+01
-6.000000 -16.000000 -3.092651E+01
-6.000000 -18.000000 -3.388864E+01
-6.000000 -20.000000 -4.089200E+01
-6.000000 -22.000000 -3.779329E+01
-6.000000 -24.000000 -2.153952E+01
-6.000000 -26.000000 -1.644390E+01
-6.000000 -28.000000 -1.937512E+01
-6.000000 -30.000000 -1.480936E+01
-6.000000 -32.000000 -1.132454E+01
-6.000000 -34.000000 -2.501609E+01
-6.000000 -36.000000 -2.932998E+01
-6.000000 -38.000000 -1.373936E+01
-6.000000 -40.000000 2.947573E+01
-4.000000 40.000000 -6.768073E+01
-4.000000 38.000000 -2.053574E+01
-4.000000 36.000000 1.475130E+01
-4.000000 34.000000 5.366409E+01
-4.000000 32.000000 8.385877E+01
-4.000000 30.000000 9.600998E+01
-4.000000 28.000000 -1.099399E+01
-4.000000 26.000000 -8.721233E+01
-4.000000 24.000000 -4.864005E+01
-4.000000 22.000000 3.525867E-01
-4.000000 20.000000 1.517432E+01
-4.000000 18.000000 1.172685E+01
-4.000000 16.000000 2.288262E+01
-4.000000 14.000000 3.922826E+01
-4.000000 12.000000 4.495223E+01
-4.000000 10.000000 3.228180E+01
-4.000000 8.000000 1.146557E+01
-4.000000 6.000000 -1.436846E+00
-4.000000 4.000000 -4.649026E+00
-4.000000 2.000000 -3.927385E+00
-4.000000 0.000000 6.905730E-01
-4.000000 -2.000000 3.180837E+00
-4.000000 -4.000000 -1.496314E+00
-4.000000 -6.000000 1.362149E+00
-4.000000 -8.000000 5.168226E+00
-4.000000 -10.000000 -1.113369E+00
-4.000000 -12.000000 -2.142580E+01
-4.000000 -14.000000 -3.670880E+01
-4.000000 -16.000000 -4.155098E+01
-4.000000 -18.000000 -4.710598E+01
-4.000000 -20.000000 -5.301503E+01
-4.000000 -22.000000 -4.923268E+01
-4.000000 -24.000000 -3.329933E+01
-4.000000 -26.000000 -2.989796E+01
-4.000000 -28.000000 -3.084487E+01
-4.000000 -30.000000 -2.608122E+01
-4.000000 -32.000000 -2.269390E+01
-4.000000 -34.000000 -3.228032E+01
-4.000000 -36.000000 -2.898737E+01
-4.000000 -38.000000 -7.519470E+00
-4.000000 -40.000000 3.970207E+01
-2.000000 40.000000 -6.680558E+01
-2.000000 38.000000 -1.731763E+01
-2.000000 36.000000 1.541207E+01
-2.000000 34.000000 4.159432E+01
-2.000000 32.000000 5.018915E+01
-2.000000 30.000000 5.058635E+01
-2.000000 28.000000 3.204113E+00
-2.000000 26.000000 -2.705249E+01
-2.000000 24.000000 -1.093234E+01
-2.000000 22.000000 1.853066E+01
-2.000000 20.000000 3.060664E+01
-2.000000 18.000000 3.730550E+01
-2.000000 16.000000 5.720782E+01
-2.000000 14.000000 7.174969E+01
-2.000000 12.000000 5.752485E+01
-2.000000 10.000000 1.486050E+01
-2.000000 8.000000 -2.349829E+01
-2.000000 6.000000 -3.915462E+01
-2.000000 4.000000 -2.974205E+01
-2.000000 2.000000 -1.545158E+01
-2.000000 0.000000 -3.423432E+00
-2.000000 -2.000000 4.838657E-01
-2.000000 -4.000000 -9.077386E+00
-2.000000 -6.000000 -1.100309E+01
-2.000000 -8.000000 -9.825294E+00
-2.000000 -10.000000 -1.769595E+01
-2.000000 -12.000000 -3.479091E+01
-2.000000 -14.000000 -4.761307E+01
-2.000000 -16.000000 -5.171760E+01
-2.000000 -18.000000 -5.484405E+01
-2.000000 -20.000000 -5.666985E+01
-2.000000 -22.000000 -4.880934E+01
-2.000000 -24.000000 -3.336793E+01
-2.000000 -26.000000 -2.970313E+01
-2.000000 -28.000000 -3.002497E+01
-2.000000 -30.000000 -2.850197E+01
-2.000000 -32.000000 -2.719943E+01
-2.000000 -34.000000 -3.296705E+01
-2.000000 -36.000000 -2.497127E+01
-2.000000 -38.000000 -2.971652E+00
-2.000000 -40.000000 4.437923E+01
0.000000 40.000000 -5.850551E+01
0.000000 38.000000 -1.015593E+01
0.000000 36.000000 1.299406E+01
0.000000 34.000000 2.058505E+01
0.000000 32.000000 1.332354E+01
0.000000 30.000000 1.770224E+01
0.000000 28.000000 1.377154E+01
0.000000 26.000000 1.367449E+01
0.000000 24.000000 2.290065E+01
0.000000 22.000000 3.115543E+01
0.000000 20.000000 3.499412E+01
0.000000 18.000000 4.838917E+01
0.000000 16.000000 7.654620E+01
0.000000 14.000000 9.483477E+01
0.000000 12.000000 7.369646E+01
0.000000 10.000000 1.941403E+01
0.000000 8.000000 -3.200390E+01
0.000000 6.000000 -5.410335E+01
0.000000 4.000000 -4.709565E+01
0.000000 2.000000 -3.162632E+01
0.000000 0.000000 -1.780221E+01
0.000000 -2.000000 -1.297036E+01
0.000000 -4.000000 -2.369338E+01
0.000000 -6.000000 -3.083284E+01
0.000000 -8.000000 -3.463333E+01
0.000000 -10.000000 -4.389271E+01
0.000000 -12.000000 -5.427274E+01
0.000000 -14.000000 -5.879876E+01
0.000000 -16.000000 -5.597663E+01
0.000000 -18.000000 -5.234218E+01
0.000000 -20.000000 -4.674136E+01
0.000000 -22.000000 -3.252857E+01
0.000000 -24.000000 -1.843810E+01
0.000000 -26.000000 -1.631348E+01
0.000000 -28.000000 -2.125604E+01
0.000000 -30.000000 -2.248725E+01
0.000000 -32.000000 -2.134423E+01
0.000000 -34.000000 -2.523912E+01
0.000000 -36.000000 -1.790872E+01
0.000000 -38.000000 4.285389E-01
0.000000 -40.000000 4.403483E+01
2.000000 40.000000 -4.864424E+01
2.000000 38.000000 -3.179776E+00
2.000000 36.000000 1.075901E+01
2.000000 34.000000 4.861950E+00
2.000000 32.000000 -8.238155E+00
2.000000 30.000000 4.730963E+00
2.000000 28.000000 2.011336E+01
2.000000 26.000000 2.977755E+01
2.000000 24.000000 3.814117E+01
2.000000 22.000000 3.189169E+01
2.000000 20.000000 2.505860E+01
2.000000 18.000000 3.426756E+01
2.000000 16.000000 6.231182E+01
2.000000 14.000000 8.448894E+01
2.000000 12.000000 7.023453E+01
2.000000 10.000000 2.519331E+01
2.000000 8.000000 -2.072112E+01
2.000000 6.000000 -3.960993E+01
2.000000 4.000000 -3.888114E+01
2.000000 2.000000 -3.496298E+01
2.000000 0.000000 -2.944188E+01
2.000000 -2.000000 -2.845389E+01
2.000000 -4.000000 -4.204432E+01
2.000000 -6.000000 -5.197997E+01
2.000000 -8.000000 -5.538665E+01
2.000000 -10.000000 -6.253569E+01
2.000000 -12.000000 -6.500658E+01
2.000000 -14.000000 -5.926971E+01
2.000000 -16.000000 -4.688272E+01
2.000000 -18.000000 -3.729084E+01
2.000000 -20.000000 -2.800835E+01
2.000000 -22.000000 -1.393615E+01
2.000000 -24.000000 -2.833180E+00
2.000000 -26.000000 -3.098536E+00
2.000000 -28.000000 -1.181550E+01
2.000000 -30.000000 -1.285247E+01
2.000000 -32.000000 -8.471275E+00
2.000000 -34.000000 -1.080553E+01
2.000000 -36.000000 -8.016533E+00
2.000000 -38.000000 4.221445E+00
2.000000 -40.000000 4.183063E+01
4.000000 40.000000 -4.527068E+01
4.000000 38.000000 -1.527981E+00
4.000000 36.000000 1.092406E+01
4.000000 34.000000 2.713195E+00
4.000000 32.000000 -1.057998E+01
4.000000 30.000000 3.746346E+00
4.000000 28.000000 2.520629E+01
4.000000 26.000000 3.518131E+01
4.000000 24.000000 3.723190E+01
4.000000 22.000000 2.511045E+01
4.000000 20.000000 1.041946E+01
4.000000 18.000000 8.618795E+00
4.000000 16.000000 2.902426E+01
4.000000 14.000000 5.280104E+01
4.000000 12.000000 5.203156E+01
4.000000 10.000000 2.683177E+01
4.000000 8.000000 -2.886593E+00
4.000000 6.000000 -2.112932E+01
4.000000 4.000000 -3.146603E+01
4.000000 2.000000 -4.124727E+01
4.000000 0.000000 -4.391601E+01
4.000000 -2.000000 -4.409407E+01
4.000000 -4.000000 -5.466150E+01
4.000000 -6.000000 -6.072929E+01
4.000000 -8.000000 -6.091737E+01
4.000000 -10.000000 -6.391689E+01
4.000000 -12.000000 -5.850852E+01
4.000000 -14.000000 -4.507592E+01
4.000000 -16.000000 -2.447430E+01
4.000000 -18.000000 -1.098303E+01
4.000000 -20.000000 -5.566122E+00
4.000000 -22.000000 -3.350639E-02
4.000000 -24.000000 5.767385E+00
4.000000 -26.000000 3.330729E+00
4.000000 -28.000000 -4.823474E+00
4.000000 -30.000000 -5.516265E+00
4.000000 -32.000000 1.894700E+00
4.000000 -34.000000 9.890838E-01
4.000000 -36.000000 -6.758280E-01
4.000000 -38.000000 7.041541E+00
4.000000 -40.000000 4.069957E+01
6.000000 40.000000 -4.649139E+01
6.000000 38.000000 -2.822551E+00
6.000000 36.000000 1.253506E+01
6.000000 34.000000 7.642767E+00
6.000000 32.000000 -4.791417E+00
6.000000 30.000000 7.874957E+00
6.000000 28.000000 2.636203E+01
6.000000 26.000000 3.463403E+01
6.000000 24.000000 3.207709E+01
6.000000 22.000000 1.491094E+01
6.000000 20.000000 -5.826294E+00
6.000000 18.000000 -1.861279E+01
6.000000 16.000000 -7.008381E+00
6.000000 14.000000 1.845043E+01
6.000000 12.000000 3.336047E+01
6.000000 10.000000 2.929062E+01
6.000000 8.000000 1.341561E+01
6.000000 6.000000 -1.185682E+01
6.000000 4.000000 -3.845233E+01
6.000000 2.000000 -5.696670E+01
6.000000 0.000000 -5.909404E+01
6.000000 -2.000000 -4.964454E+01
6.000000 -4.000000 -4.774324E+01
6.000000 -6.000000 -4.738574E+01
6.000000 -8.000000 -4.765364E+01
6.000000 -10.000000 -4.918661E+01
6.000000 -12.000000 -3.872412E+01
6.000000 -14.000000 -2.247229E+01
6.000000 -16.000000 -1.661560E+00
6.000000 -18.000000 9.942509E+00
6.000000 -20.000000 9.795877E+00
6.000000 -22.000000 8.538826E+00
6.000000 -24.000000 9.705928E+00
6.000000 -26.000000 5.902358E+00
6.000000 -28.000000 -1.812685E+00
6.000000 -30.000000 -3.628575E+00
6.000000 -32.000000 3.681273E+00
6.000000 -34.000000 3.128228E+00
6.000000 -36.000000 1.362396E+00
6.000000 -38.000000 8.738744E+00
6.000000 -40.000000 4.081292E+01
8.000000 40.000000 -4.810940E+01
8.000000 38.000000 -3.803795E+00
8.000000 36.000000 1.516475E+01
8.000000 34.000000 1.358708E+01
8.000000 32.000000 -7.094411E-01
8.000000 30.000000 8.090120E+00
8.000000 28.000000 2.127066E+01
8.000000 26.000000 2.649914E+01
8.000000 24.000000 1.993604E+01
8.000000 22.000000 -3.023076E+00
8.000000 20.000000 -3.008819E+01
8.000000 18.000000 -4.524137E+01
8.000000 16.000000 -3.322572E+01
8.000000 14.000000 -1.696764E+00
8.000000 12.000000 2.992000E+01
8.000000 10.000000 4.652613E+01
8.000000 8.000000 4.020409E+01
8.000000 6.000000 4.325837E+00
8.000000 4.000000 -4.255876E+01
8.000000 2.000000 -6.970927E+01
8.000000 0.000000 -7.059940E+01
8.000000 -2.000000 -5.137248E+01
8.000000 -4.000000 -3.118748E+01
8.000000 -6.000000 -1.695609E+01
8.000000 -8.000000 -1.679277E+01
8.000000 -10.000000 -1.930557E+01
8.000000 -12.000000 -1.687912E+01
8.000000 -14.000000 -8.194023E+00
8.000000 -16.000000 5.171431E+00
8.000000 -18.000000 1.146400E+01
8.000000 -20.000000 9.753408E+00
8.000000 -22.000000 9.122524E+00
8.000000 -24.000000 9.315864E+00
8.000000 -26.000000 4.823074E+00
8.000000 -28.000000 -2.338545E+00
8.000000 -30.000000 -5.454699E+00
8.000000 -32.000000 -1.138602E+00
8.000000 -34.000000 -2.591961E+00
8.000000 -36.000000 -9.206131E-01
8.000000 -38.000000 9.208601E+00
8.000000 -40.000000 4.109177E+01
10.000000 40.000000 -4.811130E+01
10.000000 38.000000 -5.817185E+00
10.000000 36.000000 1.543152E+01
10.000000 34.000000 1.760123E+01
10.000000 32.000000 1.151488E+00
10.000000 30.000000 1.874303E+00
10.000000 28.000000 8.380554E+00
10.000000 26.000000 8.902217E+00
10.000000 24.000000 -2.740112E+00
10.000000 22.000000 -2.810496E+01
10.000000 20.000000 -5.813265E+01
10.000000 18.000000 -6.368896E+01
10.000000 16.000000 -3.865715E+01
10.000000 14.000000 4.716458E+00
10.000000 12.000000 5.317027E+01
10.000000 10.000000 8.972511E+01
10.000000 8.000000 8.821194E+01
10.000000 6.000000 4.648787E+01
10.000000 4.000000 -2.083711E+01
10.000000 2.000000 -7.063860E+01
10.000000 0.000000 -8.582810E+01
10.000000 -2.000000 -6.733665E+01
10.000000 -4.000000 -3.326251E+01
10.000000 -6.000000 -1.813030E+00
10.000000 -8.000000 5.239328E+00
10.000000 -10.000000 3.192938E+00
10.000000 -12.000000 -6.074317E+00
10.000000 -14.000000 -7.005251E+00
10.000000 -16.000000 3.828297E-01
10.000000 -18.000000 5.001934E+00
10.000000 -20.000000 3.869169E+00
10.000000 -22.000000 5.117973E+00
10.000000 -24.000000 6.636314E+00
10.000000 -26.000000 1.980622E+00
10.000000 -28.000000 -4.818629E+00
10.000000 -30.000000 -1.012198E+01
10.000000 -32.000000 -8.147873E+00
10.000000 -34.000000 -1.038168E+01
10.000000 -36.000000 -7.172193E+00
10.000000 -38.000000 6.008089E+00
10.000000 -40.000000 4.046561E+01
12.000000 40.000000 -4.835423E+01
12.000000 38.000000 -8.212160E+00
12.000000 36.000000 1.410010E+01
12.000000 34.000000 1.952354E+01
12.000000 32.000000 1.652942E+00
12.000000 30.000000 -6.767541E+00
12.000000 28.000000 -7.568396E+00
12.000000 26.000000 -9.758688E+00
12.000000 24.000000 -2.286059E+01
12.000000 22.000000 -4.117314E+01
12.000000 20.000000 -6.090414E+01
12.000000 18.000000 -5.664446E+01
12.000000 16.000000 -2.457502E+01
12.000000 14.000000 2.549861E+01
12.000000 12.000000 8.091128E+01
12.000000 10.000000 1.283383E+02
12.000000 8.000000 1.291926E+02
12.000000 6.000000 9.043084E+01
12.000000 4.000000 1.176893E+01
12.000000 2.000000 -6.203216E+01
12.000000 0.000000 -1.001805E+02
12.000000 -2.000000 -9.544904E+01
12.000000 -4.000000 -6.334445E+01
12.000000 -6.000000 -2.071383E+01
12.000000 -8.000000 -1.184708E+00
12.000000 -10.000000 5.898247E-01
12.000000 -12.000000 -1.064332E+01
12.000000 -14.000000 -1.052531E+01
12.000000 -16.000000 -3.431015E-01
12.000000 -18.000000 9.588669E+00
12.000000 -20.000000 1.149513E+01
12.000000 -22.000000 9.675068E+00
12.000000 -24.000000 7.336735E+00
12.000000 -26.000000 -3.909798E-01
12.000000 -28.000000 -1.019651E+01
12.000000 -30.000000 -1.759430E+01
12.000000 -32.000000 -1.448711E+01
12.000000 -34.000000 -1.707353E+01
12.000000 -36.000000 -1.504643E+01
12.000000 -38.000000 -5.580902E-02
12.000000 -40.000000 3.702792E+01
14.000000 40.000000 -5.279400E+01
14.000000 38.000000 -1.089758E+01
14.000000 36.000000 1.476989E+01
14.000000 34.000000 2.269377E+01
14.000000 32.000000 2.234065E+00
14.000000 30.000000 -1.319765E+01
14.000000 28.000000 -1.727646E+01
14.000000 26.000000 -1.708760E+01
14.000000 24.000000 -2.332494E+01
14.000000 22.000000 -2.831187E+01
14.000000 20.000000 -3.200131E+01
14.000000 18.000000 -2.519492E+01
14.000000 16.000000 -4.411449E-01
14.000000 14.000000 4.118533E+01
14.000000 12.000000 8.689334E+01
14.000000 10.000000 1.298919E+02
14.000000 8.000000 1.343517E+02
14.000000 6.000000 1.066777E+02
14.000000 4.000000 3.500813E+01
14.000000 2.000000 -4.881607E+01
14.000000 0.000000 -1.072921E+02
14.000000 -2.000000 -1.264790E+02
14.000000 -4.000000 -1.115712E+02
14.000000 -6.000000 -6.851421E+01
14.000000 -8.000000 -3.733433E+01
14.000000 -10.000000 -2.567018E+01
14.000000 -12.000000 -2.768127E+01
14.000000 -14.000000 -1.411202E+01
14.000000 -16.000000 9.788584E+00
14.000000 -18.000000 3.206892E+01
14.000000 -20.000000 3.918487E+01
14.000000 -22.000000 2.999156E+01
14.000000 -24.000000 1.292085E+01
14.000000 -26.000000 -6.294729E+00
14.000000 -28.000000 -1.792132E+01
14.000000 -30.000000 -2.169178E+01
14.000000 -32.000000 -1.564367E+01
14.000000 -34.000000 -2.097418E+01
14.000000 -36.000000 -2.197005E+01
14.000000 -38.000000 -7.175245E+00
14.000000 -40.000000 2.974617E+01
16.000000 40.000000 -6.080571E+01
16.000000 38.000000 -1.607842E+01
16.000000 36.000000 1.378457E+01
16.000000 34.000000 2.510761E+01
16.000000 32.000000 4.723577E+00
16.000000 30.000000 -1.234786E+01
16.000000 28.000000 -1.529103E+01
16.000000 26.000000 -8.276408E+00
16.000000 24.000000 -2.235698E+00
16.000000 22.000000 2.294530E+00
16.000000 20.000000 5.914577E+00
16.000000 18.000000 8.839224E+00
16.000000 16.000000 2.143892E+01
16.000000 14.000000 4.532687E+01
16.000000 12.000000 7.168550E+01
16.000000 10.000000 9.583259E+01
16.000000 8.000000 1.012003E+02
16.000000 6.000000 8.741698E+01
16.000000 4.000000 4.137922E+01
16.000000 2.000000 -3.071803E+01
16.000000 0.000000 -9.961717E+01
16.000000 -2.000000 -1.485899E+02
16.000000 -4.000000 -1.598750E+02
16.000000 -6.000000 -1.277052E+02
16.000000 -8.000000 -9.320461E+01
16.000000 -10.000000 -7.326546E+01
16.000000 -12.000000 -6.475174E+01
16.000000 -14.000000 -3.649771E+01
16.000000 -16.000000 1.320687E+01
16.000000 -18.000000 5.976486E+01
16.000000 -20.000000 7.604851E+01
16.000000 -22.000000 5.992819E+01
16.000000 -24.000000 2.535051E+01
16.000000 -26.000000 -8.294614E+00
16.000000 -28.000000 -1.902904E+01
16.000000 -30.000000 -1.509760E+01
16.000000 -32.000000 -7.584227E+00
16.000000 -34.000000 -2.009570E+01
16.000000 -36.000000 -2.816862E+01
16.000000 -38.000000 -1.560137E+01
16.000000 -40.000000 1.950200E+01
18.000000 40.000000 -6.844226E+01
18.000000 38.000000 -2.304361E+01
18.000000 36.000000 7.556902E+00
18.000000 34.000000 2.212447E+01
18.000000 32.000000 8.026445E+00
18.000000 30.000000 -2.637734E+00
18.000000 28.000000 -3.871035E+00
18.000000 26.000000 8.644199E+00
18.000000 24.000000 2.407335E+01
18.000000 22.000000 2.938258E+01
18.000000 20.000000 2.920473E+01
18.000000 18.000000 2.292817E+01
18.000000 16.000000 2.636653E+01
18.000000 14.000000 3.924627E+01
18.000000 12.000000 5.078166E+01
18.000000 10.000000 5.211212E+01
18.000000 8.000000 5.315394E+01
18.000000 6.000000 5.411279E+01
18.000000 4.000000 4.359992E+01
18.000000 2.000000 -4.521078E+00
18.000000 0.000000 -7.559321E+01
18.000000 -2.000000 -1.480444E+02
18.000000 -4.000000 -1.878859E+02
18.000000 -6.000000 -1.763413E+02
18.000000 -8.000000 -1.482090E+02
18.000000 -10.000000 -1.327579E+02
18.000000 -12.000000 -1.218944E+02
18.000000 -14.000000 -8.204736E+01
18.000000 -16.000000 -5.564053E+00
18.000000 -18.000000 6.634290E+01
18.000000 -20.000000 9.491435E+01
18.000000 -22.000000 7.967848E+01
18.000000 -24.000000 3.993783E+01
18.000000 -26.000000 2.719971E+00
18.000000 -28.000000 -7.314633E+00
18.000000 -30.000000 1.306615E+00
18.000000 -32.000000 8.074354E+00
18.000000 -34.000000 -1.342793E+01
18.000000 -36.000000 -3.206000E+01
18.000000 -38.000000 -2.368567E+01
18.000000 -40.000000 8.659912E+00
20.000000 40.000000 -7.634036E+01
20.000000 38.000000 -2.957091E+01
20.000000 36.000000 3.504629E+00
20.000000 34.000000 1.954982E+01
20.000000 32.000000 9.430630E+00
20.000000 30.000000 4.500536E+00
20.000000 28.000000 4.080645E+00
20.000000 26.000000 1.632844E+01
20.000000 24.000000 3.382341E+01
20.000000 22.000000 3.430713E+01
20.000000 20.000000 2.521296E+01
20.000000 18.000000 1.354059E+01
20.000000 16.000000 1.984692E+01
20.000000 14.000000 3.675063E+01
20.000000 12.000000 4.445738E+01
20.000000 10.000000 3.057731E+01
20.000000 8.000000 2.466720E+01
20.000000 6.000000 3.597038E+01
20.000000 4.000000 5.091188E+01
20.000000 2.000000 1.861817E+01
20.000000 0.000000 -5.147766E+01
20.000000 -2.000000 -1.336805E+02
20.000000 -4.000000 -1.909056E+02
20.000000 -6.000000 -1.986627E+02
20.000000 -8.000000 -1.860504E+02
20.000000 -10.000000 -1.848649E+02
20.000000 -12.000000 -1.738906E+02
20.000000 -14.000000 -1.236682E+02
20.000000 -16.000000 -3.404217E+01
20.000000 -18.000000 4.581670E+01
20.000000 -20.000000 8.038367E+01
20.000000 -22.000000 7.258255E+01
20.000000 -24.000000 4.427324E+01
20.000000 -26.000000 1.859942E+01
20.000000 -28.000000 1.218256E+01
20.000000 -30.000000 2.053210E+01
20.000000 -32.000000 2.335307E+01
20.000000 -34.000000 -5.614056E+00
20.000000 -36.000000 -3.402831E+01
20.000000 -38.000000 -3.053177E+01
20.000000 -40.000000 1.191721E+00
22.000000 40.000000 -8.149841E+01
22.000000 38.000000 -3.784631E+01
22.000000 36.000000 -2.310596E+00
22.000000 34.000000 1.429565E+01
22.000000 32.000000 5.152716E+00
22.000000 30.000000 2.046412E+00
22.000000 28.000000 2.303785E+00
22.000000 26.000000 1.201504E+01
22.000000 24.000000 2.658874E+01
22.000000 22.000000 2.404586E+01
22.000000 20.000000 1.056124E+01
22.000000 18.000000 1.907864E-01
22.000000 16.000000 1.861120E+01
22.000000 14.000000 4.889169E+01
22.000000 12.000000 6.065840E+01
22.000000 10.000000 4.132128E+01
22.000000 8.000000 2.776018E+01
22.000000 6.000000 3.823128E+01
22.000000 4.000000 5.501016E+01
22.000000 2.000000 2.564921E+01
22.000000 0.000000 -3.993439E+01
22.000000 -2.000000 -1.212970E+02
22.000000 -4.000000 -1.819696E+02
22.000000 -6.000000 -2.005200E+02
22.000000 -8.000000 -2.032885E+02
22.000000 -10.000000 -2.146754E+02
22.000000 -12.000000 -2.038921E+02
22.000000 -14.000000 -1.488944E+02
22.000000 -16.000000 -6.013665E+01
22.000000 -18.000000 1.223764E+01
22.000000 -20.000000 4.273253E+01
22.000000 -22.000000 4.203318E+01
22.000000 -24.000000 3.610083E+01
22.000000 -26.000000 3.091740E+01
22.000000 -28.000000 3.216450E+01
22.000000 -30.000000 3.742158E+01
22.000000 -32.000000 3.328704E+01
22.000000 -34.000000 -1.238109E+00
22.000000 -36.000000 -3.460761E+01
22.000000 -38.000000 -3.352181E+01
22.000000 -40.000000 -4.063330E-01
24.000000 40.000000 -8.456612E+01
24.000000 38.000000 -5.010300E+01
24.000000 36.000000 -1.328665E+01
24.000000 34.000000 9.144444E+00
24.000000 32.000000 4.511900E+00
24.000000 30.000000 -4.591999E-01
24.000000 28.000000 -4.184147E+00
24.000000 26.000000 2.870174E+00
24.000000 24.000000 1.397755E+01
24.000000 22.000000 1.171968E+01
24.000000 20.000000 2.427731E-01
24.000000 18.000000 -6.281326E+00
24.000000 16.000000 2.080288E+01
24.000000 14.000000 6.228363E+01
24.000000 12.000000 8.215050E+01
24.000000 10.000000 7.142726E+01
24.000000 8.000000 5.478911E+01
24.000000 6.000000 5.700817E+01
24.000000 4.000000 5.815117E+01
24.000000 2.000000 1.840435E+01
24.000000 0.000000 -4.699157E+01
24.000000 -2.000000 -1.205064E+02
24.000000 -4.000000 -1.749719E+02
24.000000 -6.000000 -1.943866E+02
24.000000 -8.000000 -2.038199E+02
24.000000 -10.000000 -2.202703E+02
24.000000 -12.000000 -2.089314E+02
24.000000 -14.000000 -1.554613E+02
24.000000 -16.000000 -7.683627E+01
24.000000 -18.000000 -2.010741E+01
24.000000 -20.000000 6.684513E-01
24.000000 -22.000000 5.585751E+00
24.000000 -24.000000 2.097531E+01
24.000000 -26.000000 3.684416E+01
24.000000 -28.000000 4.799918E+01
24.000000 -30.000000 5.123791E+01
24.000000 -32.000000 3.943734E+01
24.000000 -34.000000 1.925332E+00
24.000000 -36.000000 -2.962217E+01
24.000000 -38.000000 -2.868861E+01
24.000000 -40.000000 1.515036E+00
26.000000 40.000000 -9.267710E+01
26.000000 38.000000 -6.282121E+01
26.000000 36.000000 -1.952284E+01
26.000000 34.000000 1.427668E+01
26.000000 32.000000 1.472021E+01
26.000000 30.000000 5.652290E+00
26.000000 28.000000 -4.745934E+00
26.000000 26.000000 -4.711815E+00
26.000000 24.000000 -9.348373E-01
26.000000 22.000000 -2.622908E+00
26.000000 20.000000 -7.247157E+00
26.000000 18.000000 -6.434265E+00
26.000000 16.000000 2.202202E+01
26.000000 14.000000 6.601164E+01
26.000000 12.000000 9.385132E+01
26.000000 10.000000 9.976345E+01
26.000000 8.000000 8.703226E+01
26.000000 6.000000 8.035430E+01
26.000000 4.000000 6.003959E+01
26.000000 2.000000 3.751755E-01
26.000000 0.000000 -7.314055E+01
26.000000 -2.000000 -1.377510E+02
26.000000 -4.000000 -1.803766E+02
26.000000 -6.000000 -1.916284E+02
26.000000 -8.000000 -1.952516E+02
26.000000 -10.000000 -2.058253E+02
26.000000 -12.000000 -1.913222E+02
26.000000 -14.000000 -1.421332E+02
26.000000 -16.000000 -7.822784E+01
26.000000 -18.000000 -3.816185E+01
26.000000 -20.000000 -2.544683E+01
26.000000 -22.000000 -1.570150E+01
26.000000 -24.000000 1.171560E+01
26.000000 -26.000000 4.288041E+01
26.000000 -28.000000 6.211131E+01
26.000000 -30.000000 6.301399E+01
26.000000 -32.000000 4.453305E+01
26.000000 -34.000000 6.562850E+00
26.000000 -36.000000 -2.114708E+01
26.000000 -38.000000 -2.127681E+01
26.000000 -40.000000 1.662436E+00
28.000000 40.000000 -1.012925E+02
28.000000 38.000000 -6.927110E+01
28.000000 36.000000 -2.055655E+01
28.000000 34.000000 2.381499E+01
28.000000 32.000000 3.052452E+01
28.000000 30.000000 1.955198E+01
28.000000 28.000000 1.623121E+00
28.000000 26.000000 -1.070663E+01
28.000000 24.000000 -1.944842E+01
28.000000 22.000000 -1.943511E+01
28.000000 20.000000 -1.336872E+01
28.000000 18.000000 -2.995134E+00
28.000000 16.000000 2.203694E+01
28.000000 14.000000 5.761900E+01
28.000000 12.000000 8.441159E+01
28.000000 10.000000 1.026063E+02
28.000000 8.000000 1.004793E+02
28.000000 6.000000 8.682549E+01
28.000000 4.000000 4.506981E+01
28.000000 2.000000 -3.010177E+01
28.000000 0.000000 -1.031977E+02
28.000000 -2.000000 -1.507681E+02
28.000000 -4.000000 -1.754134E+02
28.000000 -6.000000 -1.775187E+02
28.000000 -8.000000 -1.749310E+02
28.000000 -10.000000 -1.778901E+02
28.000000 -12.000000 -1.620712E+02
28.000000 -14.000000 -1.172996E+02
28.000000 -16.000000 -6.479266E+01
28.000000 -18.000000 -3.484080E+01
28.000000 -20.000000 -2.564259E+01
28.000000 -22.000000 -1.386041E+01
28.000000 -24.000000 1.639717E+01
28.000000 -26.000000 5.169471E+01
28.000000 -28.000000 6.977826E+01
28.000000 -30.000000 6.706483E+01
28.000000 -32.000000 4.774554E+01
28.000000 -34.000000 1.239473E+01
28.000000 -36.000000 -1.280485E+01
28.000000 -38.000000 -1.595280E+01
28.000000 -40.000000 -1.521675E+00
30.000000 40.000000 -1.023025E+02
30.000000 38.000000 -6.679987E+01
30.000000 36.000000 -1.931183E+01
30.000000 34.000000 3.231873E+01
30.000000 32.000000 4.765447E+01
30.000000 30.000000 3.348123E+01
30.000000 28.000000 2.437735E+00
30.000000 26.000000 -2.274686E+01
30.000000 24.000000 -4.295028E+01
30.000000 22.000000 -4.158426E+01
30.000000 20.000000 -2.499585E+01
30.000000 18.000000 -5.857109E+00
30.000000 16.000000 1.262114E+01
30.000000 14.000000 3.202748E+01
30.000000 12.000000 5.098667E+01
30.000000 10.000000 7.906038E+01
30.000000 8.000000 9.413531E+01
30.000000 6.000000 8.007428E+01
30.000000 4.000000 2.032177E+01
30.000000 2.000000 -6.155513E+01
30.000000 0.000000 -1.229770E+02
30.000000 -2.000000 -1.426751E+02
30.000000 -4.000000 -1.404440E+02
30.000000 -6.000000 -1.323653E+02
30.000000 -8.000000 -1.328149E+02
30.000000 -10.000000 -1.391385E+02
30.000000 -12.000000 -1.288002E+02
30.000000 -14.000000 -9.035157E+01
30.000000 -16.000000 -4.403948E+01
30.000000 -18.000000 -1.713153E+01
30.000000 -20.000000 -8.896693E+00
30.000000 -22.000000 2.786957E+00
30.000000 -24.000000 2.941540E+01
30.000000 -26.000000 5.552003E+01
30.000000 -28.000000 6.411076E+01
30.000000 -30.000000 5.902761E+01
30.000000 -32.000000 4.271336E+01
30.000000 -34.000000 1.350939E+01
30.000000 -36.000000 -6.035565E+00
30.000000 -38.000000 -1.165743E+01
30.000000 -40.000000 -4.832063E+00
32.000000 40.000000 -9.865009E+01
32.000000 38.000000 -6.058785E+01
32.000000 36.000000 -1.400037E+01
32.000000 34.000000 4.021580E+01
32.000000 32.000000 5.897611E+01
32.000000 30.000000 3.832721E+01
32.000000 28.000000 -5.313960E+00
32.000000 26.000000 -3.944349E+01
32.000000 24.000000 -6.761710E+01
32.000000 22.000000 -6.604895E+01
32.000000 20.000000 -4.504918E+01
32.000000 18.000000 -2.214377E+01
32.000000 16.000000 -7.332047E+00
32.000000 14.000000 -7.878647E-01
32.000000 12.000000 1.247497E+01
32.000000 10.000000 5.380998E+01
32.000000 8.000000 8.566484E+01
32.000000 6.000000 7.313559E+01
32.000000 4.000000 4.944639E+00
32.000000 2.000000 -7.707423E+01
32.000000 0.000000 -1.272947E+02
32.000000 -2.000000 -1.219682E+02
32.000000 -4.000000 -9.137680E+01
32.000000 -6.000000 -6.766021E+01
32.000000 -8.000000 -7.326898E+01
32.000000 -10.000000 -9.340678E+01
32.000000 -12.000000 -9.849684E+01
32.000000 -14.000000 -7.089416E+01
32.000000 -16.000000 -2.892475E+01
32.000000 -18.000000 -1.925886E+00
32.000000 -20.000000 6.987860E+00
32.000000 -22.000000 1.751488E+01
32.000000 -24.000000 3.821259E+01
32.000000 -26.000000 5.289697E+01
32.000000 -28.000000 5.231049E+01
32.000000 -30.000000 4.402940E+01
32.000000 -32.000000 2.852493E+01
32.000000 -34.000000 4.744084E+00
32.000000 -36.000000 -8.109590E+00
32.000000 -38.000000 -1.129958E+01
32.000000 -40.000000 -6.215136E+00
34.000000 40.000000 -9.357467E+01
34.000000 38.000000 -5.588856E+01
34.000000 36.000000 -9.281984E+00
34.000000 34.000000 3.950459E+01
34.000000 32.000000 5.441043E+01
34.000000 30.000000 3.146039E+01
34.000000 28.000000 -1.425537E+01
34.000000 26.000000 -5.065756E+01
34.000000 24.000000 -8.088237E+01
34.000000 22.000000 -8.256441E+01
34.000000 20.000000 -6.816148E+01
34.000000 18.000000 -4.831144E+01
34.000000 16.000000 -2.833149E+01
34.000000 14.000000 -1.428571E+01
34.000000 12.000000 8.691154E+00
34.000000 10.000000 5.621743E+01
34.000000 8.000000 8.473079E+01
34.000000 6.000000 6.539558E+01
34.000000 4.000000 -1.330650E+00
34.000000 2.000000 -7.413444E+01
34.000000 0.000000 -1.126470E+02
34.000000 -2.000000 -9.516508E+01
34.000000 -4.000000 -4.734175E+01
34.000000 -6.000000 -7.767422E+00
34.000000 -8.000000 -1.539603E+01
34.000000 -10.000000 -5.430637E+01
34.000000 -12.000000 -8.278306E+01
34.000000 -14.000000 -6.896864E+01
34.000000 -16.000000 -3.056431E+01
34.000000 -18.000000 -3.505312E+00
34.000000 -20.000000 5.591227E+00
34.000000 -22.000000 1.590976E+01
34.000000 -24.000000 3.353264E+01
34.000000 -26.000000 4.221594E+01
34.000000 -28.000000 3.732959E+01
34.000000 -30.000000 2.636056E+01
34.000000 -32.000000 1.146190E+01
34.000000 -34.000000 -8.642499E+00
34.000000 -36.000000 -1.640917E+01
34.000000 -38.000000 -1.521644E+01
34.000000 -40.000000 -7.073414E+00
36.000000 40.000000 -8.830699E+01
36.000000 38.000000 -5.485540E+01
36.000000 36.000000 -1.266038E+01
36.000000 34.000000 2.630756E+01
36.000000 32.000000 3.715341E+01
36.000000 30.000000 1.796079E+01
36.000000 28.000000 -1.999792E+01
36.000000 26.000000 -5.095916E+01
36.000000 24.000000 -7.637468E+01
36.000000 22.000000 -8.434326E+01
36.000000 20.000000 -8.426978E+01
36.000000 18.000000 -7.141228E+01
36.000000 16.000000 -3.563132E+01
36.000000 14.000000 1.070697E+01
36.000000 12.000000 5.696824E+01
36.000000 10.000000 9.112293E+01
36.000000 8.000000 8.308463E+01
36.000000 6.000000 5.119952E+01
36.000000 4.000000 -7.062309E+00
36.000000 2.000000 -6.205712E+01
36.000000 0.000000 -8.375790E+01
36.000000 -2.000000 -6.151653E+01
36.000000 -4.000000 -1.469865E+01
36.000000 -6.000000 2.651675E+01
36.000000 -8.000000 1.395980E+01
36.000000 -10.000000 -4.069008E+01
36.000000 -12.000000 -8.585865E+01
36.000000 -14.000000 -8.409309E+01
36.000000 -16.000000 -5.027022E+01
36.000000 -18.000000 -2.428168E+01
36.000000 -20.000000 -1.553511E+01
36.000000 -22.000000 -4.288862E+00
36.000000 -24.000000 1.265804E+01
36.000000 -26.000000 2.012895E+01
36.000000 -28.000000 1.648250E+01
36.000000 -30.000000 8.479307E+00
36.000000 -32.000000 -2.696283E+00
36.000000 -34.000000 -1.831567E+01
36.000000 -36.000000 -2.244500E+01
36.000000 -38.000000 -1.905530E+01
36.000000 -40.000000 -7.448076E+00
38.000000 40.000000 -8.793517E+01
38.000000 38.000000 -6.113319E+01
38.000000 36.000000 -2.437966E+01
38.000000 34.000000 1.102753E+01
38.000000 32.000000 2.409713E+01
38.000000 30.000000 9.673473E+00
38.000000 28.000000 -1.873594E+01
38.000000 26.000000 -3.950455E+01
38.000000 24.000000 -5.584622E+01
38.000000 22.000000 -6.673724E+01
38.000000 20.000000 -8.007875E+01
38.000000 18.000000 -7.980758E+01
38.000000 16.000000 -3.167419E+01
38.000000 14.000000 4.752587E+01
38.000000 12.000000 1.144764E+02
38.000000 10.000000 1.307474E+02
38.000000 8.000000 7.599994E+01
38.000000 6.000000 3.855058E+01
38.000000 4.000000 -4.724866E+00
38.000000 2.000000 -4.357806E+01
38.000000 0.000000 -5.159278E+01
38.000000 -2.000000 -2.979176E+01
38.000000 -4.000000 -2.443848E-01
38.000000 -6.000000 1.805859E+01
38.000000 -8.000000 -4.927090E+00
38.000000 -10.000000 -5.713709E+01
38.000000 -12.000000 -1.006628E+02
38.000000 -14.000000 -1.057752E+02
38.000000 -16.000000 -7.793951E+01
38.000000 -18.000000 -5.399959E+01
38.000000 -20.000000 -4.451867E+01
38.000000 -22.000000 -3.207215E+01
38.000000 -24.000000 -1.362454E+01
38.000000 -26.000000 -1.965677E+00
38.000000 -28.000000 -2.129440E+00
38.000000 -30.000000 -7.012517E+00
38.000000 -32.000000 -1.366848E+01
38.000000 -34.000000 -2.477192E+01
38.000000 -36.000000 -2.751557E+01
38.000000 -38.000000 -2.130042E+01
38.000000 -40.000000 -5.258212E+00
40.000000 40.000000 -9.147413E+01
40.000000 38.000000 -7.040857E+01
40.000000 36.000000 -3.817660E+01
40.000000 34.000000 -4.234943E-01
40.000000 32.000000 1.909772E+01
40.000000 30.000000 1.077283E+01
40.000000 28.000000 -1.091014E+01
40.000000 26.000000 -2.242527E+01
40.000000 24.000000 -2.772891E+01
40.000000 22.000000 -3.643001E+01
40.000000 20.000000 -5.535789E+01
40.000000 18.000000 -6.848586E+01
40.000000 16.000000 -2.418581E+01
40.000000 14.000000 6.164357E+01
40.000000 12.000000 1.293808E+02
40.000000 10.000000 1.372481E+02
40.000000 8.000000 7.057320E+01
40.000000 6.000000 2.779691E+01
40.000000 4.000000 -3.730009E+00
40.000000 2.000000 -2.826784E+01
40.000000 0.000000 -2.792555E+01
40.000000 -2.000000 -1.408647E+01
40.000000 -4.000000 -7.636734E+00
40.000000 -6.000000 -1.182589E+01
40.000000 -8.000000 -3.651413E+01
40.000000 -10.000000 -7.630481E+01
40.000000 -12.000000 -1.092557E+02
40.000000 -14.000000 -1.171050E+02
40.000000 -16.000000 -9.902882E+01
40.000000 -18.000000 -8.132947E+01
40.000000 -20.000000 -7.334408E+01
40.000000 -22.000000 -5.993303E+01
40.000000 -24.000000 -3.541118E+01
40.000000 -26.000000 -1.708494E+01
40.000000 -28.000000 -1.337735E+01
40.000000 -30.000000 -1.549759E+01
40.000000 -32.000000 -1.696035E+01
40.000000 -34.000000 -2.476418E+01
40.000000 -36.000000 -2.867788E+01
40.000000 -38.000000 -2.158547E+01
40.000000 -40.000000 -4.155631E+00
42.000000 40.000000 -9.336604E+01
42.000000 38.000000 -7.587400E+01
42.000000 36.000000 -4.879727E+01
42.000000 34.000000 -9.698554E+00
42.000000 32.000000 1.608760E+01
42.000000 30.000000 1.517170E+01
42.000000 28.000000 -2.872316E+00
42.000000 26.000000 -9.828431E+00
42.000000 24.000000 -6.047257E+00
42.000000 22.000000 -7.591829E+00
42.000000 20.000000 -2.186401E+01
42.000000 18.000000 -4.283220E+01
42.000000 16.000000 -1.423624E+01
42.000000 14.000000 5.219946E+01
42.000000 12.000000 1.034011E+02
42.000000 10.000000 1.057794E+02
42.000000 8.000000 5.576752E+01
42.000000 6.000000 1.404249E+01
42.000000 4.000000 -9.183053E+00
42.000000 2.000000 -1.993158E+01
42.000000 0.000000 -1.325483E+01
42.000000 -2.000000 -6.591885E+00
42.000000 -4.000000 -1.912683E+01
42.000000 -6.000000 -3.610073E+01
42.000000 -8.000000 -5.123911E+01
42.000000 -10.000000 -7.336726E+01
42.000000 -12.000000 -9.457221E+01
42.000000 -14.000000 -1.070788E+02
42.000000 -16.000000 -1.080292E+02
42.000000 -18.000000 -1.056999E+02
42.000000 -20.000000 -1.026793E+02
42.000000 -22.000000 -8.603264E+01
