-10.000000 28.000000 -2.245738E+01
-10.000000 26.000000 -8.816690E+00
-10.000000 24.000000 1.213886E+00
-10.000000 22.000000 1.684359E+00
-10.000000 20.000000 -3.980095E+00
-10.000000 18.000000 -2.078727E+01
-10.000000 16.000000 -5.034794E+01
-10.000000 14.000000 -8.296360E+01
-10.000000 12.000000 -9.762264E+01
-10.000000 10.000000 -8.454050E+01
-10.000000 8.000000 -3.883631E+01
-10.000000 6.000000 5.671970E+00
-10.000000 4.000000 2.806036E+01
-10.000000 2.000000 2.409083E+01
-10.000000 0.000000 8.597282E+00
-10.000000 -2.000000 -4.605951E+00
-10.000000 -4.000000 -6.453101E+00
-10.000000 -6.000000 -2.786000E+00
-10.000000 -8.000000 -1.448627E+01
-10.000000 -10.000000 -3.247935E+01
-10.000000 -12.000000 -3.588940E+01
-10.000000 -14.000000 -2.651761E+01
-10.000000 -16.000000 -1.957492E+01
-10.000000 -18.000000 -1.315147E+01
-10.000000 -20.000000 -2.625435E+00
-10.000000 -22.000000 3.818621E+00
-10.000000 -24.000000 -3.933430E+00
-10.000000 -26.000000 -1.412292E+01
-10.000000 -28.000000 -1.942659E+01
-10.000000 -30.000000 -2.142155E+01
-10.000000 -32.000000 -2.554049E+01
-10.000000 -34.000000 -3.323277E+01
-10.000000 -36.000000 -3.784750E+01
-10.000000 -38.000000 -3.612973E+01
-10.000000 -40.000000 -3.492326E+01
-8.000000 40.000000 -4.012977E+01
-8.000000 38.000000 -3.533348E+01
-8.000000 36.000000 -2.870248E+01
-8.000000 34.000000 -2.566119E+01
-8.000000 32.000000 -2.875457E+01
-8.000000 30.000000 -2.862705E+01
-8.000000 28.000000 -2.428899E+01
-8.000000 26.000000 -1.605501E+01
-8.000000 24.000000 -8.042433E+00
-8.000000 22.000000 -1.529995E+00
-8.000000 20.000000 2.846502E+00
-8.000000 18.000000 -4.544552E+00
-8.000000 16.000000 -3.105468E+01
-8.000000 14.000000 -6.425547E+01
-8.000000 12.000000 -8.383474E+01
-8.000000 10.000000 -7.850023E+01
-8.000000 8.000000 -4.417391E+01
-8.000000 6.000000 -1.136841E+01
-8.000000 4.000000 1.473280E+00
-8.000000 2.000000 -7.270195E+00
-8.000000 0.000000 -2.139572E+01
-8.000000 -2.000000 -2.451726E+01
-8.000000 -4.000000 -1.344059E+01
-8.000000 -6.000000 -1.177979E+00
-8.000000 -8.000000 -9.192256E+00
-8.000000 -10.000000 -2.294579E+01
-8.000000 -12.000000 -2.822110E+01
-8.000000 -14.000000 -2.458143E+01
-8.000000 -16.000000 -2.092711E+01
-8.000000 -18.000000 -1.488310E+01
-8.000000 -20.000000 -3.608429E+00
-8.000000 -22.000000 4.244490E+00
-8.000000 -24.000000 -1.251886E+00
-8.000000 -26.000000 -1.064646E+01
-8.000000 -28.000000 -1.611281E+01
-8.000000 -30.000000 -1.966528E+01
-8.000000 -32.000000 -2.562627E+01
-8.000000 -34.000000 -3.395553E+01
-8.000000 -36.000000 -3.812003E+01
-8.000000 -38.000000 -3.534208E+01
-8.000000 -40.000000 -3.322185E+01
-6.000000 40.000000 -3.788780E+01
-6.000000 38.000000 -3.513816E+01
-6.000000 36.000000 -2.999022E+01
-6.000000 34.000000 -2.750348E+01
-6.000000 32.000000 -3.054712E+01
-6.000000 30.000000 -3.149791E+01
-6.000000 28.000000 -2.994423E+01
-6.000000 26.000000 -2.430612E+01
-6.000000 24.000000 -1.810654E+01
-6.000000 22.000000 -7.578951E+00
-6.000000 20.000000 4.019831E+00
-6.000000 18.000000 6.652840E+00
-6.000000 16.000000 -1.043807E+01
-6.000000 14.000000 -3.653874E+01
-6.000000 12.000000 -5.602180E+01
-6.000000 10.000000 -5.680845E+01
-6.000000 8.000000 -3.673509E+01
-6.000000 6.000000 -1.863154E+01
-6.000000 4.000000 -1.357998E+01
-6.000000 2.000000 -2.016794E+01
-6.000000 0.000000 -3.120526E+01
-6.000000 -2.000000 -3.297868E+01
-6.000000 -4.000000 -2.035068E+01
-6.000000 -6.000000 -6.070465E+00
-6.000000 -8.000000 -9.952170E+00
-6.000000 -10.000000 -2.219895E+01
-6.000000 -12.000000 -2.857119E+01
-6.000000 -14.000000 -2.773573E+01
-6.000000 -16.000000 -2.781889E+01
-6.000000 -18.000000 -2.630664E+01
-6.000000 -20.000000 -1.690129E+01
-6.000000 -22.000000 -8.406956E+00
-6.000000 -24.000000 -1.086856E+01
-6.000000 -26.000000 -1.864330E+01
-6.000000 -28.000000 -2.342383E+01
-6.000000 -30.000000 -2.655521E+01
-6.000000 -32.000000 -3.040533E+01
-6.000000 -34.000000 -3.500007E+01
-6.000000 -36.000000 -3.565547E+01
-6.000000 -38.000000 -3.121848E+01
-6.000000 -40.000000 -2.775311E+01
-4.000000 40.000000 -3.249432E+01
-4.000000 38.000000 -3.264241E+01
-4.000000 36.000000 -3.047604E+01
-4.000000 34.000000 -3.103195E+01
-4.000000 32.000000 -3.561402E+01
-4.000000 30.000000 -3.855660E+01
-4.000000 28.000000 -3.823844E+01
-4.000000 26.000000 -3.370068E+01
-4.000000 24.000000 -2.889279E+01
-4.000000 22.000000 -1.869079E+01
-4.000000 20.000000 -6.267410E+00
-4.000000 18.000000 3.464024E+00
-4.000000 16.000000 -1.491547E-03
-4.000000 14.000000 -1.298657E+01
-4.000000 12.000000 -2.763399E+01
-4.000000 10.000000 -3.147637E+01
-4.000000 8.000000 -2.290574E+01
-4.000000 6.000000 -1.385865E+01
-4.000000 4.000000 -1.076375E+01
-4.000000 2.000000 -1.426638E+01
-4.000000 0.000000 -2.345433E+01
-4.000000 -2.000000 -2.840106E+01
-4.000000 -4.000000 -2.167762E+01
-4.000000 -6.000000 -1.221463E+01
-4.000000 -8.000000 -1.562801E+01
-4.000000 -10.000000 -2.811145E+01
-4.000000 -12.000000 -3.393604E+01
-4.000000 -14.000000 -3.317443E+01
-4.000000 -16.000000 -3.588260E+01
-4.000000 -18.000000 -3.876952E+01
-4.000000 -20.000000 -3.165613E+01
-4.000000 -22.000000 -2.347665E+01
-4.000000 -24.000000 -2.467633E+01
-4.000000 -26.000000 -3.124620E+01
-4.000000 -28.000000 -3.540553E+01
-4.000000 -30.000000 -3.651430E+01
-4.000000 -32.000000 -3.626937E+01
-4.000000 -34.000000 -3.585182E+01
-4.000000 -36.000000 -3.209065E+01
-4.000000 -38.000000 -2.564845E+01
-4.000000 -40.000000 -2.111613E+01
-2.000000 40.000000 -2.672732E+01
-2.000000 38.000000 -2.919743E+01
-2.000000 36.000000 -2.895142E+01
-2.000000 34.000000 -3.274658E+01
-2.000000 32.000000 -3.955630E+01
-2.000000 30.000000 -4.505554E+01
-2.000000 28.000000 -4.578198E+01
-2.000000 26.000000 -4.067109E+01
-2.000000 24.000000 -3.722012E+01
-2.000000 22.000000 -3.088506E+01
-2.000000 20.000000 -2.201854E+01
-2.000000 18.000000 -1.014343E+01
-2.000000 16.000000 -3.644606E+00
-2.000000 14.000000 -5.380381E+00
-2.000000 12.000000 -1.381922E+01
-2.000000 10.000000 -1.706352E+01
-2.000000 8.000000 -1.257160E+01
-2.000000 6.000000 -5.787617E+00
-2.000000 4.000000 -8.670788E-01
-2.000000 2.000000 -2.442474E+00
-2.000000 0.000000 -1.054093E+01
-2.000000 -2.000000 -1.714425E+01
-2.000000 -4.000000 -1.690497E+01
-2.000000 -6.000000 -1.525401E+01
-2.000000 -8.000000 -2.083794E+01
-2.000000 -10.000000 -3.179638E+01
-2.000000 -12.000000 -3.609232E+01
-2.000000 -14.000000 -3.598079E+01
-2.000000 -16.000000 -3.926454E+01
-2.000000 -18.000000 -4.277286E+01
-2.000000 -20.000000 -3.872031E+01
-2.000000 -22.000000 -3.344095E+01
-2.000000 -24.000000 -3.485666E+01
-2.000000 -26.000000 -4.021403E+01
-2.000000 -28.000000 -4.376777E+01
-2.000000 -30.000000 -4.352146E+01
-2.000000 -32.000000 -3.971575E+01
-2.000000 -34.000000 -3.471074E+01
-2.000000 -36.000000 -2.740792E+01
-2.000000 -38.000000 -2.064287E+01
-2.000000 -40.000000 -1.659486E+01
0.000000 40.000000 -2.252416E+01
0.000000 38.000000 -2.627516E+01
0.000000 36.000000 -2.696021E+01
0.000000 34.000000 -3.173331E+01
0.000000 32.000000 -3.925646E+01
0.000000 30.000000 -4.641703E+01
0.000000 28.000000 -4.840160E+01
0.000000 26.000000 -4.269419E+01
0.000000 24.000000 -3.900078E+01
0.000000 22.000000 -3.554889E+01
0.000000 20.000000 -3.205328E+01
0.000000 18.000000 -2.543500E+01
0.000000 16.000000 -1.927684E+01
0.000000 14.000000 -1.769744E+01
0.000000 12.000000 -2.063517E+01
0.000000 10.000000 -1.956660E+01
0.000000 8.000000 -1.238474E+01
0.000000 6.000000 -4.174112E+00
0.000000 4.000000 2.128281E+00
0.000000 2.000000 3.402737E+00
0.000000 0.000000 -1.407871E+00
0.000000 -2.000000 -8.105240E+00
0.000000 -4.000000 -1.110138E+01
0.000000 -6.000000 -1.268618E+01
0.000000 -8.000000 -1.964076E+01
0.000000 -10.000000 -2.998470E+01
0.000000 -12.000000 -3.274317E+01
0.000000 -14.000000 -3.143773E+01
0.000000 -16.000000 -3.401569E+01
0.000000 -18.000000 -3.839354E+01
0.000000 -20.000000 -3.686468E+01
0.000000 -22.000000 -3.476905E+01
0.000000 -24.000000 -3.766245E+01
0.000000 -26.000000 -4.144455E+01
0.000000 -28.000000 -4.357754E+01
0.000000 -30.000000 -4.288955E+01
0.000000 -32.000000 -3.763340E+01
0.000000 -34.000000 -3.034281E+01
0.000000 -36.000000 -2.184841E+01
0.000000 -38.000000 -1.676009E+01
0.000000 -40.000000 -1.537966E+01
2.000000 40.000000 -2.125104E+01
2.000000 38.000000 -2.519029E+01
2.000000 36.000000 -2.569018E+01
2.000000 34.000000 -2.805384E+01
2.000000 32.000000 -3.316679E+01
2.000000 30.000000 -4.046919E+01
2.000000 28.000000 -4.439421E+01
2.000000 26.000000 -4.085632E+01
2.000000 24.000000 -3.639674E+01
2.000000 22.000000 -3.364250E+01
2.000000 20.000000 -3.410036E+01
2.000000 18.000000 -3.569551E+01
2.000000 16.000000 -3.783190E+01
2.000000 14.000000 -3.990760E+01
2.000000 12.000000 -3.956038E+01
2.000000 10.000000 -3.317786E+01
2.000000 8.000000 -2.255191E+01
2.000000 6.000000 -1.374315E+01
2.000000 4.000000 -8.197145E+00
2.000000 2.000000 -4.813988E+00
2.000000 0.000000 -3.988365E+00
2.000000 -2.000000 -5.543985E+00
2.000000 -4.000000 -6.098757E+00
2.000000 -6.000000 -7.582090E+00
2.000000 -8.000000 -1.492687E+01
2.000000 -10.000000 -2.407958E+01
2.000000 -12.000000 -2.439153E+01
2.000000 -14.000000 -2.083053E+01
2.000000 -16.000000 -2.233491E+01
2.000000 -18.000000 -2.734050E+01
2.000000 -20.000000 -2.690684E+01
2.000000 -22.000000 -2.672225E+01
2.000000 -24.000000 -3.115109E+01
2.000000 -26.000000 -3.407982E+01
2.000000 -28.000000 -3.545224E+01
2.000000 -30.000000 -3.474521E+01
2.000000 -32.000000 -2.948786E+01
2.000000 -34.000000 -2.286919E+01
2.000000 -36.000000 -1.658170E+01
2.000000 -38.000000 -1.452575E+01
2.000000 -40.000000 -1.706045E+01
4.000000 40.000000 -2.248551E+01
4.000000 38.000000 -2.628743E+01
4.000000 36.000000 -2.542810E+01
4.000000 34.000000 -2.391922E+01
4.000000 32.000000 -2.486923E+01
4.000000 30.000000 -3.164194E+01
4.000000 28.000000 -3.815225E+01
4.000000 26.000000 -3.668874E+01
4.000000 24.000000 -3.139320E+01
4.000000 22.000000 -2.879294E+01
4.000000 20.000000 -3.151356E+01
4.000000 18.000000 -4.001543E+01
4.000000 16.000000 -5.148149E+01
4.000000 14.000000 -5.923465E+01
4.000000 12.000000 -5.896676E+01
4.000000 10.000000 -5.019344E+01
4.000000 8.000000 -3.883580E+01
4.000000 6.000000 -3.333624E+01
4.000000 4.000000 -3.144347E+01
4.000000 2.000000 -2.626732E+01
4.000000 0.000000 -1.806609E+01
4.000000 -2.000000 -1.010790E+01
4.000000 -4.000000 -3.990858E+00
4.000000 -6.000000 -3.020479E+00
4.000000 -8.000000 -9.171239E+00
4.000000 -10.000000 -1.525631E+01
4.000000 -12.000000 -1.316236E+01
4.000000 -14.000000 -8.342939E+00
4.000000 -16.000000 -8.283550E+00
4.000000 -18.000000 -1.159222E+01
4.000000 -20.000000 -1.191134E+01
4.000000 -22.000000 -1.244712E+01
4.000000 -24.000000 -1.689169E+01
4.000000 -26.000000 -2.046174E+01
4.000000 -28.000000 -2.186319E+01
4.000000 -30.000000 -2.104799E+01
4.000000 -32.000000 -1.701831E+01
4.000000 -34.000000 -1.335070E+01
4.000000 -36.000000 -1.225619E+01
4.000000 -38.000000 -1.481748E+01
4.000000 -40.000000 -2.149220E+01
6.000000 40.000000 -2.426114E+01
6.000000 38.000000 -2.831092E+01
6.000000 36.000000 -2.716609E+01
6.000000 34.000000 -2.376000E+01
6.000000 32.000000 -2.155556E+01
6.000000 30.000000 -2.655675E+01
6.000000 28.000000 -3.322875E+01
6.000000 26.000000 -3.222938E+01
6.000000 24.000000 -2.604221E+01
6.000000 22.000000 -2.248583E+01
6.000000 20.000000 -2.602538E+01
6.000000 18.000000 -3.890278E+01
6.000000 16.000000 -5.693193E+01
6.000000 14.000000 -7.033238E+01
6.000000 12.000000 -7.349278E+01
6.000000 10.000000 -6.757894E+01
6.000000 8.000000 -5.946420E+01
6.000000 6.000000 -6.014244E+01
6.000000 4.000000 -6.228340E+01
6.000000 2.000000 -5.211363E+01
6.000000 0.000000 -3.443089E+01
6.000000 -2.000000 -1.753475E+01
6.000000 -4.000000 -4.314400E+00
6.000000 -6.000000 2.427736E+00
6.000000 -8.000000 -1.008623E+00
6.000000 -10.000000 -5.581322E+00
6.000000 -12.000000 -2.498151E+00
6.000000 -14.000000 4.137148E+00
6.000000 -16.000000 5.522349E+00
6.000000 -18.000000 3.219313E+00
6.000000 -20.000000 3.243083E+00
6.000000 -22.000000 3.674137E+00
6.000000 -24.000000 -3.943577E-01
6.000000 -26.000000 -5.401741E+00
6.000000 -28.000000 -6.388085E+00
6.000000 -30.000000 -5.113732E+00
6.000000 -32.000000 -3.482389E+00
6.000000 -34.000000 -4.100623E+00
6.000000 -36.000000 -9.355319E+00
6.000000 -38.000000 -1.720230E+01
6.000000 -40.000000 -2.801100E+01
8.000000 40.000000 -2.542419E+01
8.000000 38.000000 -3.140948E+01
8.000000 36.000000 -3.270727E+01
8.000000 34.000000 -3.032284E+01
8.000000 32.000000 -2.642890E+01
8.000000 30.000000 -2.792517E+01
8.000000 28.000000 -3.088742E+01
8.000000 26.000000 -2.908601E+01
8.000000 24.000000 -2.260946E+01
8.000000 22.000000 -1.783586E+01
8.000000 20.000000 -1.906699E+01
8.000000 18.000000 -3.158419E+01
8.000000 16.000000 -5.376323E+01
8.000000 14.000000 -7.448106E+01
8.000000 12.000000 -8.498998E+01
8.000000 10.000000 -8.577908E+01
8.000000 8.000000 -8.292386E+01
8.000000 6.000000 -8.704907E+01
8.000000 4.000000 -8.740661E+01
8.000000 2.000000 -7.003676E+01
8.000000 0.000000 -4.331277E+01
8.000000 -2.000000 -1.875225E+01
8.000000 -4.000000 -1.008774E+00
8.000000 -6.000000 7.904036E+00
8.000000 -8.000000 4.976006E+00
8.000000 -10.000000 2.910700E-01
8.000000 -12.000000 4.358325E+00
8.000000 -14.000000 1.257643E+01
8.000000 -16.000000 1.482988E+01
8.000000 -18.000000 1.320418E+01
8.000000 -20.000000 1.483102E+01
8.000000 -22.000000 1.765083E+01
8.000000 -24.000000 1.417266E+01
8.000000 -26.000000 7.769859E+00
8.000000 -28.000000 6.908669E+00
8.000000 -30.000000 8.136320E+00
8.000000 -32.000000 7.204663E+00
8.000000 -34.000000 2.291267E+00
8.000000 -36.000000 -8.839427E+00
8.000000 -38.000000 -2.097562E+01
8.000000 -40.000000 -3.494741E+01
10.000000 40.000000 -2.696898E+01
10.000000 38.000000 -3.696341E+01
10.000000 36.000000 -4.250862E+01
10.000000 34.000000 -4.233594E+01
10.000000 32.000000 -3.631590E+01
10.000000 30.000000 -3.343029E+01
10.000000 28.000000 -3.208888E+01
10.000000 26.000000 -2.758752E+01
10.000000 24.000000 -2.067808E+01
10.000000 22.000000 -1.607225E+01
10.000000 20.000000 -1.352082E+01
10.000000 18.000000 -2.181568E+01
10.000000 16.000000 -4.583962E+01
10.000000 14.000000 -7.356907E+01
10.000000 12.000000 -9.268354E+01
10.000000 10.000000 -1.018061E+02
10.000000 8.000000 -1.023345E+02
10.000000 6.000000 -1.053354E+02
10.000000 4.000000 -9.858224E+01
10.000000 2.000000 -7.377836E+01
10.000000 0.000000 -4.123536E+01
10.000000 -2.000000 -1.272122E+01
10.000000 -4.000000 4.605139E+00
10.000000 -6.000000 9.604227E+00
10.000000 -8.000000 4.910793E+00
10.000000 -10.000000 6.945848E-01
10.000000 -12.000000 7.296356E+00
10.000000 -14.000000 1.661550E+01
10.000000 -16.000000 1.928133E+01
10.000000 -18.000000 1.833544E+01
10.000000 -20.000000 2.098255E+01
10.000000 -22.000000 2.525405E+01
10.000000 -24.000000 2.234427E+01
10.000000 -26.000000 1.530328E+01
10.000000 -28.000000 1.375097E+01
10.000000 -30.000000 1.478072E+01
10.000000 -32.000000 1.294560E+01
10.000000 -34.000000 4.835209E+00
10.000000 -36.000000 -1.127000E+01
10.000000 -38.000000 -2.596229E+01
10.000000 -40.000000 -4.024533E+01
12.000000 40.000000 -3.084553E+01
12.000000 38.000000 -4.495255E+01
12.000000 36.000000 -5.424838E+01
12.000000 34.000000 -5.627967E+01
12.000000 32.000000 -4.785444E+01
12.000000 30.000000 -4.005741E+01
12.000000 28.000000 -3.413897E+01
12.000000 26.000000 -2.675828E+01
12.000000 24.000000 -2.035724E+01
12.000000 22.000000 -1.772569E+01
12.000000 20.000000 -1.398059E+01
12.000000 18.000000 -1.737059E+01
12.000000 16.000000 -3.753425E+01
12.000000 14.000000 -6.617591E+01
12.000000 12.000000 -9.122239E+01
12.000000 10.000000 -1.078644E+02
12.000000 8.000000 -1.097377E+02
12.000000 6.000000 -1.084049E+02
12.000000 4.000000 -9.464846E+01
12.000000 2.000000 -6.663536E+01
12.000000 0.000000 -3.424728E+01
12.000000 -2.000000 -7.026706E+00
12.000000 -4.000000 5.947752E+00
12.000000 -6.000000 5.552453E+00
12.000000 -8.000000 -6.514473E-01
12.000000 -10.000000 -2.932377E+00
12.000000 -12.000000 9.848719E+00
12.000000 -14.000000 2.216211E+01
12.000000 -16.000000 2.319614E+01
12.000000 -18.000000 1.902164E+01
12.000000 -20.000000 2.010894E+01
12.000000 -22.000000 2.403671E+01
12.000000 -24.000000 2.031021E+01
12.000000 -26.000000 1.271961E+01
12.000000 -28.000000 1.117658E+01
12.000000 -30.000000 1.390383E+01
12.000000 -32.000000 1.370688E+01
12.000000 -34.000000 4.627561E+00
12.000000 -36.000000 -1.478844E+01
12.000000 -38.000000 -3.047230E+01
12.000000 -40.000000 -4.285379E+01
14.000000 40.000000 -3.722538E+01
14.000000 38.000000 -5.409870E+01
14.000000 36.000000 -6.507182E+01
14.000000 34.000000 -6.833239E+01
14.000000 32.000000 -5.855134E+01
14.000000 30.000000 -4.646459E+01
14.000000 28.000000 -3.471570E+01
14.000000 26.000000 -2.604423E+01
14.000000 24.000000 -2.373526E+01
14.000000 22.000000 -2.505643E+01
14.000000 20.000000 -2.139347E+01
14.000000 18.000000 -1.986728E+01
14.000000 16.000000 -3.242204E+01
14.000000 14.000000 -5.527083E+01
14.000000 12.000000 -7.948394E+01
14.000000 10.000000 -9.738235E+01
14.000000 8.000000 -9.979762E+01
14.000000 6.000000 -9.523292E+01
14.000000 4.000000 -8.021204E+01
14.000000 2.000000 -5.732412E+01
14.000000 0.000000 -3.123028E+01
14.000000 -2.000000 -7.259777E+00
14.000000 -4.000000 3.313490E+00
14.000000 -6.000000 -8.554268E-02
14.000000 -8.000000 -6.775541E+00
14.000000 -10.000000 -4.873095E+00
14.000000 -12.000000 1.542895E+01
14.000000 -14.000000 3.052286E+01
14.000000 -16.000000 2.708617E+01
14.000000 -18.000000 1.552841E+01
14.000000 -20.000000 1.104976E+01
14.000000 -22.000000 1.242658E+01
14.000000 -24.000000 7.687733E+00
14.000000 -26.000000 6.209311E-01
14.000000 -28.000000 9.610739E-01
14.000000 -30.000000 6.912886E+00
14.000000 -32.000000 1.000511E+01
14.000000 -34.000000 2.864464E+00
14.000000 -36.000000 -1.643992E+01
14.000000 -38.000000 -3.165171E+01
14.000000 -40.000000 -4.248985E+01
16.000000 40.000000 -4.309431E+01
16.000000 38.000000 -6.199366E+01
16.000000 36.000000 -7.362231E+01
16.000000 34.000000 -7.743671E+01
16.000000 32.000000 -6.674088E+01
16.000000 30.000000 -5.236173E+01
16.000000 28.000000 -3.598240E+01
16.000000 26.000000 -2.619770E+01
16.000000 24.000000 -3.039394E+01
16.000000 22.000000 -3.746052E+01
16.000000 20.000000 -3.321925E+01
16.000000 18.000000 -2.563183E+01
16.000000 16.000000 -2.965805E+01
16.000000 14.000000 -4.324980E+01
16.000000 12.000000 -6.138143E+01
16.000000 10.000000 -7.630533E+01
16.000000 8.000000 -7.966908E+01
16.000000 6.000000 -7.603651E+01
16.000000 4.000000 -6.460297E+01
16.000000 2.000000 -4.909988E+01
16.000000 0.000000 -3.128975E+01
16.000000 -2.000000 -1.299576E+01
16.000000 -4.000000 -2.914943E+00
16.000000 -6.000000 -4.450881E+00
16.000000 -8.000000 -8.233939E+00
16.000000 -10.000000 -7.064657E-01
16.000000 -12.000000 2.422076E+01
16.000000 -14.000000 4.028829E+01
16.000000 -16.000000 3.172647E+01
16.000000 -18.000000 1.055183E+01
16.000000 -20.000000 -3.724112E+00
16.000000 -22.000000 -8.060674E+00
16.000000 -24.000000 -1.254967E+01
16.000000 -26.000000 -1.579624E+01
16.000000 -28.000000 -1.169890E+01
16.000000 -30.000000 -2.654042E+00
16.000000 -32.000000 3.665654E+00
16.000000 -34.000000 3.028889E-01
16.000000 -36.000000 -1.493627E+01
16.000000 -38.000000 -2.848132E+01
16.000000 -40.000000 -3.924085E+01
18.000000 40.000000 -4.574197E+01
18.000000 38.000000 -6.555587E+01
18.000000 36.000000 -7.858809E+01
18.000000 34.000000 -8.368602E+01
18.000000 32.000000 -7.256307E+01
18.000000 30.000000 -5.669172E+01
18.000000 28.000000 -3.931597E+01
18.000000 26.000000 -3.048281E+01
18.000000 24.000000 -3.969737E+01
18.000000 22.000000 -4.945957E+01
18.000000 20.000000 -4.402771E+01
18.000000 18.000000 -3.068062E+01
18.000000 16.000000 -2.606654E+01
18.000000 14.000000 -3.086877E+01
18.000000 12.000000 -4.304168E+01
18.000000 10.000000 -5.538043E+01
18.000000 8.000000 -6.172530E+01
18.000000 6.000000 -6.327462E+01
18.000000 4.000000 -5.674872E+01
18.000000 2.000000 -4.448969E+01
18.000000 0.000000 -3.159747E+01
18.000000 -2.000000 -2.049723E+01
18.000000 -4.000000 -1.153425E+01
18.000000 -6.000000 -7.091021E+00
18.000000 -8.000000 -4.872513E+00
18.000000 -10.000000 6.712261E+00
18.000000 -12.000000 3.440834E+01
18.000000 -14.000000 5.275840E+01
18.000000 -16.000000 4.016881E+01
18.000000 -18.000000 8.045828E+00
18.000000 -20.000000 -1.681008E+01
18.000000 -22.000000 -2.676068E+01
18.000000 -24.000000 -3.149930E+01
18.000000 -26.000000 -3.103581E+01
18.000000 -28.000000 -2.309702E+01
18.000000 -30.000000 -1.117257E+01
18.000000 -32.000000 -2.203875E+00
18.000000 -34.000000 -1.630028E+00
18.000000 -36.000000 -1.130184E+01
18.000000 -38.000000 -2.272606E+01
18.000000 -40.000000 -3.411907E+01
20.000000 40.000000 -4.454042E+01
20.000000 38.000000 -6.431991E+01
20.000000 36.000000 -7.936665E+01
20.000000 34.000000 -8.623509E+01
20.000000 32.000000 -7.554565E+01
20.000000 30.000000 -5.786643E+01
20.000000 28.000000 -4.198103E+01
20.000000 26.000000 -3.746318E+01
20.000000 24.000000 -5.014362E+01
20.000000 22.000000 -5.844143E+01
20.000000 20.000000 -4.894026E+01
20.000000 18.000000 -2.893954E+01
20.000000 16.000000 -1.863878E+01
20.000000 14.000000 -2.050431E+01
20.000000 12.000000 -3.143184E+01
20.000000 10.000000 -4.330547E+01
20.000000 8.000000 -5.205242E+01
20.000000 6.000000 -5.684563E+01
20.000000 4.000000 -5.533575E+01
20.000000 2.000000 -4.883630E+01
20.000000 0.000000 -4.115421E+01
20.000000 -2.000000 -3.274511E+01
20.000000 -4.000000 -2.083574E+01
20.000000 -6.000000 -9.705354E+00
20.000000 -8.000000 -2.081404E+00
20.000000 -10.000000 1.421048E+01
20.000000 -12.000000 4.437354E+01
20.000000 -14.000000 6.562040E+01
20.000000 -16.000000 5.269421E+01
20.000000 -18.000000 1.573647E+01
20.000000 -20.000000 -1.624233E+01
20.000000 -22.000000 -3.179094E+01
20.000000 -24.000000 -3.932562E+01
20.000000 -26.000000 -3.907606E+01
20.000000 -28.000000 -3.045503E+01
20.000000 -30.000000 -1.734303E+01
20.000000 -32.000000 -6.670640E+00
20.000000 -34.000000 -2.805505E+00
20.000000 -36.000000 -7.768226E+00
20.000000 -38.000000 -1.683961E+01
20.000000 -40.000000 -2.835634E+01
22.000000 40.000000 -4.006266E+01
22.000000 38.000000 -5.970909E+01
22.000000 36.000000 -7.627210E+01
22.000000 34.000000 -8.479869E+01
22.000000 32.000000 -7.505622E+01
22.000000 30.000000 -5.646167E+01
22.000000 28.000000 -4.166435E+01
22.000000 26.000000 -3.990812E+01
22.000000 24.000000 -5.448642E+01
22.000000 22.000000 -6.067254E+01
22.000000 20.000000 -4.568404E+01
22.000000 18.000000 -2.048867E+01
22.000000 16.000000 -9.928808E+00
22.000000 14.000000 -1.395817E+01
22.000000 12.000000 -2.739263E+01
22.000000 10.000000 -4.135578E+01
22.000000 8.000000 -5.054252E+01
22.000000 6.000000 -5.546762E+01
22.000000 4.000000 -5.718397E+01
22.000000 2.000000 -5.653007E+01
22.000000 0.000000 -5.458697E+01
22.000000 -2.000000 -4.775636E+01
22.000000 -4.000000 -3.379829E+01
22.000000 -6.000000 -1.916520E+01
22.000000 -8.000000 -7.832836E+00
22.000000 -10.000000 1.332681E+01
22.000000 -12.000000 4.747505E+01
22.000000 -14.000000 7.346158E+01
22.000000 -16.000000 6.721152E+01
22.000000 -18.000000 3.517796E+01
22.000000 -20.000000 1.424530E+00
22.000000 -22.000000 -2.019412E+01
22.000000 -24.000000 -3.300028E+01
22.000000 -26.000000 -3.639295E+01
22.000000 -28.000000 -3.087218E+01
22.000000 -30.000000 -2.006996E+01
22.000000 -32.000000 -9.536383E+00
22.000000 -34.000000 -3.718377E+00
22.000000 -36.000000 -5.759051E+00
22.000000 -38.000000 -1.241205E+01
22.000000 -40.000000 -2.267925E+01
24.000000 40.000000 -3.393979E+01
24.000000 38.000000 -5.228191E+01
24.000000 36.000000 -6.910115E+01
24.000000 34.000000 -7.889444E+01
24.000000 32.000000 -7.095611E+01
24.000000 30.000000 -5.316059E+01
24.000000 28.000000 -3.889627E+01
24.000000 26.000000 -3.611226E+01
24.000000 24.000000 -4.671563E+01
24.000000 22.000000 -4.984527E+01
24.000000 20.000000 -3.496194E+01
24.000000 18.000000 -1.285171E+01
24.000000 16.000000 -5.919353E+00
24.000000 14.000000 -1.309256E+01
24.000000 12.000000 -2.929290E+01
24.000000 10.000000 -4.644606E+01
24.000000 8.000000 -5.491307E+01
24.000000 6.000000 -5.719082E+01
24.000000 4.000000 -5.730185E+01
24.000000 2.000000 -5.646728E+01
24.000000 0.000000 -5.757359E+01
24.000000 -2.000000 -5.587302E+01
24.000000 -4.000000 -4.729842E+01
24.000000 -6.000000 -3.551969E+01
24.000000 -8.000000 -2.409022E+01
24.000000 -10.000000 -2.302131E+00
24.000000 -12.000000 3.950246E+01
24.000000 -14.000000 7.561521E+01
24.000000 -16.000000 8.012814E+01
24.000000 -18.000000 5.597886E+01
24.000000 -20.000000 2.527138E+01
24.000000 -22.000000 1.422694E+00
24.000000 -24.000000 -1.678576E+01
24.000000 -26.000000 -2.567631E+01
24.000000 -28.000000 -2.568822E+01
24.000000 -30.000000 -1.939538E+01
24.000000 -32.000000 -1.081765E+01
24.000000 -34.000000 -4.449270E+00
24.000000 -36.000000 -4.447026E+00
24.000000 -38.000000 -8.749331E+00
24.000000 -40.000000 -1.713318E+01
26.000000 40.000000 -2.724763E+01
26.000000 38.000000 -4.239535E+01
26.000000 36.000000 -5.819567E+01
26.000000 34.000000 -6.855264E+01
26.000000 32.000000 -6.304382E+01
26.000000 30.000000 -4.757039E+01
26.000000 28.000000 -3.396341E+01
26.000000 26.000000 -2.833776E+01
26.000000 24.000000 -3.141210E+01
26.000000 22.000000 -3.194925E+01
26.000000 20.000000 -2.262223E+01
26.000000 18.000000 -1.115403E+01
26.000000 16.000000 -1.087851E+01
26.000000 14.000000 -2.106083E+01
26.000000 12.000000 -3.853204E+01
26.000000 10.000000 -5.677795E+01
26.000000 8.000000 -6.333755E+01
26.000000 6.000000 -5.927675E+01
26.000000 4.000000 -4.911389E+01
26.000000 2.000000 -4.162749E+01
26.000000 0.000000 -4.337053E+01
26.000000 -2.000000 -4.887128E+01
26.000000 -4.000000 -5.060544E+01
26.000000 -6.000000 -4.819308E+01
26.000000 -8.000000 -4.026320E+01
26.000000 -10.000000 -1.939052E+01
26.000000 -12.000000 2.701165E+01
26.000000 -14.000000 6.907592E+01
26.000000 -16.000000 8.178257E+01
26.000000 -18.000000 6.677510E+01
26.000000 -20.000000 4.343529E+01
26.000000 -22.000000 2.277250E+01
26.000000 -24.000000 2.263551E+00
26.000000 -26.000000 -1.243539E+01
26.000000 -28.000000 -1.917380E+01
26.000000 -30.000000 -1.821417E+01
26.000000 -32.000000 -1.218395E+01
26.000000 -34.000000 -5.436700E+00
26.000000 -36.000000 -2.766582E+00
26.000000 -38.000000 -4.443463E+00
26.000000 -40.000000 -1.079327E+01
28.000000 40.000000 -1.934920E+01
28.000000 38.000000 -3.063030E+01
28.000000 36.000000 -4.504466E+01
28.000000 34.000000 -5.602096E+01
28.000000 32.000000 -5.346294E+01
28.000000 30.000000 -4.121650E+01
28.000000 28.000000 -2.882402E+01
28.000000 26.000000 -2.062945E+01
28.000000 24.000000 -1.820528E+01
28.000000 22.000000 -1.849336E+01
28.000000 20.000000 -1.595616E+01
28.000000 18.000000 -1.610357E+01
28.000000 16.000000 -2.316686E+01
28.000000 14.000000 -3.603439E+01
28.000000 12.000000 -5.259438E+01
28.000000 10.000000 -6.861460E+01
28.000000 8.000000 -6.969312E+01
28.000000 6.000000 -5.577297E+01
28.000000 4.000000 -3.274575E+01
28.000000 2.000000 -1.683464E+01
28.000000 0.000000 -1.713965E+01
28.000000 -2.000000 -2.935671E+01
28.000000 -4.000000 -4.210363E+01
28.000000 -6.000000 -4.913264E+01
28.000000 -8.000000 -4.403826E+01
28.000000 -10.000000 -2.469086E+01
28.000000 -12.000000 1.720262E+01
28.000000 -14.000000 5.478654E+01
28.000000 -16.000000 6.982457E+01
28.000000 -18.000000 6.332401E+01
28.000000 -20.000000 4.982900E+01
28.000000 -22.000000 3.638982E+01
28.000000 -24.000000 1.757836E+01
28.000000 -26.000000 -1.065100E+00
28.000000 -28.000000 -1.356102E+01
28.000000 -30.000000 -1.814882E+01
28.000000 -32.000000 -1.460494E+01
28.000000 -34.000000 -7.029790E+00
28.000000 -36.000000 -7.051268E-01
28.000000 -38.000000 1.209992E+00
28.000000 -40.000000 -2.436965E+00
30.000000 40.000000 -9.857569E+00
30.000000 38.000000 -1.802986E+01
30.000000 36.000000 -3.124890E+01
30.000000 34.000000 -4.345843E+01
30.000000 32.000000 -4.481066E+01
30.000000 30.000000 -3.698343E+01
30.000000 28.000000 -2.713539E+01
30.000000 26.000000 -1.896373E+01
30.000000 24.000000 -1.427982E+01
30.000000 22.000000 -1.494127E+01
30.000000 20.000000 -1.719860E+01
30.000000 18.000000 -2.465036E+01
30.000000 16.000000 -3.650895E+01
30.000000 14.000000 -5.203190E+01
30.000000 12.000000 -6.818637E+01
30.000000 10.000000 -8.004115E+01
30.000000 8.000000 -7.205960E+01
30.000000 6.000000 -4.791406E+01
30.000000 4.000000 -1.569112E+01
30.000000 2.000000 6.309472E+00
30.000000 0.000000 9.149155E+00
30.000000 -2.000000 -6.545494E+00
30.000000 -4.000000 -2.574053E+01
30.000000 -6.000000 -3.563139E+01
30.000000 -8.000000 -3.115737E+01
30.000000 -10.000000 -1.623995E+01
30.000000 -12.000000 1.441519E+01
30.000000 -14.000000 4.148557E+01
30.000000 -16.000000 5.300083E+01
30.000000 -18.000000 4.961409E+01
30.000000 -20.000000 4.513626E+01
30.000000 -22.000000 4.096341E+01
30.000000 -24.000000 2.675461E+01
30.000000 -26.000000 7.430437E+00
30.000000 -28.000000 -8.698632E+00
30.000000 -30.000000 -1.739428E+01
30.000000 -32.000000 -1.605529E+01
30.000000 -34.000000 -8.384475E+00
30.000000 -36.000000 1.824475E+00
30.000000 -38.000000 8.168062E+00
30.000000 -40.000000 7.367914E+00
32.000000 40.000000 3.616428E-01
32.000000 38.000000 -5.875023E+00
32.000000 36.000000 -1.877186E+01
32.000000 34.000000 -3.327297E+01
32.000000 32.000000 -3.910995E+01
32.000000 30.000000 -3.608180E+01
32.000000 28.000000 -3.025315E+01
32.000000 26.000000 -2.487275E+01
32.000000 24.000000 -2.099934E+01
32.000000 22.000000 -2.082545E+01
32.000000 20.000000 -2.289663E+01
32.000000 18.000000 -3.047058E+01
32.000000 16.000000 -4.351411E+01
32.000000 14.000000 -6.184334E+01
32.000000 12.000000 -8.136959E+01
32.000000 10.000000 -9.321636E+01
32.000000 8.000000 -7.841392E+01
32.000000 6.000000 -4.738977E+01
32.000000 4.000000 -6.253343E+00
32.000000 2.000000 2.165134E+01
32.000000 0.000000 2.723546E+01
32.000000 -2.000000 1.203645E+01
32.000000 -4.000000 -5.431479E+00
32.000000 -6.000000 -1.100087E+01
32.000000 -8.000000 -5.311953E+00
32.000000 -10.000000 5.805549E+00
32.000000 -12.000000 2.256563E+01
32.000000 -14.000000 3.559238E+01
32.000000 -16.000000 3.896794E+01
32.000000 -18.000000 3.464407E+01
32.000000 -20.000000 3.567977E+01
32.000000 -22.000000 3.888670E+01
32.000000 -24.000000 3.076975E+01
32.000000 -26.000000 1.424612E+01
32.000000 -28.000000 -2.290119E+00
32.000000 -30.000000 -1.247547E+01
32.000000 -32.000000 -1.342571E+01
32.000000 -34.000000 -7.321611E+00
32.000000 -36.000000 4.992570E+00
32.000000 -38.000000 1.484550E+01
32.000000 -40.000000 1.646414E+01
34.000000 40.000000 9.620201E+00
34.000000 38.000000 4.501015E+00
34.000000 36.000000 -9.256292E+00
34.000000 34.000000 -2.733547E+01
34.000000 32.000000 -3.797956E+01
34.000000 30.000000 -3.979438E+01
34.000000 28.000000 -3.839217E+01
34.000000 26.000000 -3.501403E+01
34.000000 24.000000 -3.314511E+01
34.000000 22.000000 -3.120747E+01
34.000000 20.000000 -3.054395E+01
34.000000 18.000000 -3.410117E+01
34.000000 16.000000 -4.372728E+01
34.000000 14.000000 -6.083702E+01
34.000000 12.000000 -8.172376E+01
34.000000 10.000000 -9.490468E+01
34.000000 8.000000 -7.741928E+01
34.000000 6.000000 -4.518077E+01
34.000000 4.000000 -2.176743E+00
34.000000 2.000000 2.716441E+01
34.000000 0.000000 3.277928E+01
34.000000 -2.000000 1.959121E+01
34.000000 -4.000000 7.718122E+00
34.000000 -6.000000 1.090954E+01
34.000000 -8.000000 2.042360E+01
34.000000 -10.000000 2.919474E+01
34.000000 -12.000000 3.478100E+01
34.000000 -14.000000 3.707829E+01
34.000000 -16.000000 3.313076E+01
34.000000 -18.000000 2.621621E+01
34.000000 -20.000000 2.683483E+01
34.000000 -22.000000 3.227774E+01
34.000000 -24.000000 3.011871E+01
34.000000 -26.000000 2.038251E+01
34.000000 -28.000000 8.855290E+00
34.000000 -30.000000 1.819801E-02
34.000000 -32.000000 -4.254574E+00
34.000000 -34.000000 -1.976944E+00
34.000000 -36.000000 8.973122E+00
34.000000 -38.000000 2.008238E+01
34.000000 -40.000000 2.351385E+01
36.000000 40.000000 1.640448E+01
36.000000 38.000000 1.073908E+01
36.000000 36.000000 -3.957006E+00
36.000000 34.000000 -2.496154E+01
36.000000 32.000000 -4.094019E+01
36.000000 30.000000 -4.803914E+01
36.000000 28.000000 -4.959668E+01
36.000000 26.000000 -4.597292E+01
36.000000 24.000000 -4.476517E+01
36.000000 22.000000 -4.197265E+01
36.000000 20.000000 -3.967804E+01
36.000000 18.000000 -3.810270E+01
36.000000 16.000000 -4.034095E+01
36.000000 14.000000 -4.953045E+01
36.000000 12.000000 -6.310093E+01
36.000000 10.000000 -7.106454E+01
36.000000 8.000000 -5.545388E+01
36.000000 6.000000 -2.924880E+01
36.000000 4.000000 1.975042E+00
36.000000 2.000000 2.490135E+01
36.000000 0.000000 2.850953E+01
36.000000 -2.000000 1.739539E+01
36.000000 -4.000000 9.983176E+00
36.000000 -6.000000 2.184725E+01
36.000000 -8.000000 3.597939E+01
36.000000 -10.000000 4.195645E+01
36.000000 -12.000000 4.239285E+01
36.000000 -14.000000 4.203508E+01
36.000000 -16.000000 3.542491E+01
36.000000 -18.000000 2.411351E+01
36.000000 -20.000000 2.061468E+01
36.000000 -22.000000 2.587892E+01
36.000000 -24.000000 2.794752E+01
36.000000 -26.000000 2.642810E+01
36.000000 -28.000000 2.301586E+01
36.000000 -30.000000 1.829944E+01
36.000000 -32.000000 1.034219E+01
36.000000 -34.000000 6.552016E+00
36.000000 -36.000000 1.376288E+01
36.000000 -38.000000 2.508015E+01
36.000000 -40.000000 2.893797E+01
38.000000 40.000000 1.997539E+01
38.000000 38.000000 1.230669E+01
38.000000 36.000000 -2.582003E+00
38.000000 34.000000 -2.473647E+01
38.000000 32.000000 -4.540418E+01
38.000000 30.000000 -5.677113E+01
38.000000 28.000000 -5.956339E+01
38.000000 26.000000 -5.424469E+01
38.000000 24.000000 -5.271323E+01
38.000000 22.000000 -5.199636E+01
38.000000 20.000000 -5.011933E+01
38.000000 18.000000 -4.306580E+01
38.000000 16.000000 -3.632742E+01
38.000000 14.000000 -3.317086E+01
38.000000 12.000000 -3.425813E+01
38.000000 10.000000 -3.336530E+01
38.000000 8.000000 -2.440622E+01
38.000000 6.000000 -1.001136E+01
38.000000 4.000000 5.556030E+00
38.000000 2.000000 2.017561E+01
38.000000 0.000000 2.403910E+01
38.000000 -2.000000 1.890096E+01
38.000000 -4.000000 1.666275E+01
38.000000 -6.000000 3.009901E+01
38.000000 -8.000000 4.322829E+01
38.000000 -10.000000 4.602614E+01
38.000000 -12.000000 4.526371E+01
38.000000 -14.000000 4.528495E+01
38.000000 -16.000000 3.883475E+01
38.000000 -18.000000 2.622424E+01
38.000000 -20.000000 2.060600E+01
38.000000 -22.000000 2.457664E+01
38.000000 -24.000000 2.837794E+01
38.000000 -26.000000 3.272729E+01
38.000000 -28.000000 3.567159E+01
38.000000 -30.000000 3.535043E+01
38.000000 -32.000000 2.563392E+01
38.000000 -34.000000 1.675306E+01
38.000000 -36.000000 1.977071E+01
38.000000 -38.000000 2.996433E+01
38.000000 -40.000000 3.317904E+01
40.000000 40.000000 2.109839E+01
40.000000 38.000000 1.194398E+01
40.000000 36.000000 -2.877958E+00
40.000000 34.000000 -2.575771E+01
40.000000 32.000000 -4.912264E+01
40.000000 30.000000 -6.221621E+01
40.000000 28.000000 -6.457904E+01
40.000000 26.000000 -5.565274E+01
40.000000 24.000000 -5.339932E+01
40.000000 22.000000 -5.756902E+01
40.000000 20.000000 -5.931361E+01
40.000000 18.000000 -5.059498E+01
40.000000 16.000000 -3.823341E+01
40.000000 14.000000 -2.593181E+01
40.000000 12.000000 -1.757260E+01
40.000000 10.000000 -1.108505E+01
40.000000 8.000000 -6.212276E+00
40.000000 6.000000 2.436476E-01
40.000000 4.000000 8.258477E+00
40.000000 2.000000 2.128773E+01
40.000000 0.000000 3.010472E+01
40.000000 -2.000000 3.337291E+01
40.000000 -4.000000 3.614487E+01
40.000000 -6.000000 4.448465E+01
40.000000 -8.000000 5.015171E+01
40.000000 -10.000000 4.873908E+01
40.000000 -12.000000 4.761123E+01
40.000000 -14.000000 4.760638E+01
40.000000 -16.000000 4.183799E+01
40.000000 -18.000000 3.158462E+01
40.000000 -20.000000 2.668179E+01
40.000000 -22.000000 2.898160E+01
40.000000 -24.000000 3.254351E+01
40.000000 -26.000000 3.851354E+01
40.000000 -28.000000 4.418819E+01
40.000000 -30.000000 4.596983E+01
40.000000 -32.000000 3.787619E+01
40.000000 -34.000000 2.787721E+01
40.000000 -36.000000 2.740390E+01
40.000000 -38.000000 3.418973E+01
40.000000 -40.000000 3.676994E+01
42.000000 40.000000 2.048645E+01
42.000000 38.000000 1.139570E+01
42.000000 36.000000 -3.376524E+00
42.000000 34.000000 -2.672186E+01
42.000000 32.000000 -5.031615E+01
42.000000 30.000000 -6.184129E+01
42.000000 28.000000 -6.073140E+01
42.000000 26.000000 -4.902485E+01
42.000000 24.000000 -4.632026E+01
42.000000 22.000000 -5.467807E+01
42.000000 20.000000 -6.222626E+01
42.000000 18.000000 -5.893060E+01
42.000000 16.000000 -4.899070E+01
42.000000 14.000000 -3.746151E+01
42.000000 12.000000 -2.756458E+01
42.000000 10.000000 -1.908717E+01
42.000000 8.000000 -1.089937E+01
42.000000 6.000000 -1.978424E+00
42.000000 4.000000 1.130002E+01
42.000000 2.000000 2.947752E+01
42.000000 0.000000 4.397512E+01
42.000000 -2.000000 5.220626E+01
42.000000 -4.000000 5.785750E+01
42.000000 -6.000000 6.170009E+01
42.000000 -8.000000 5.913431E+01
42.000000 -10.000000 5.312613E+01
42.000000 -12.000000 5.127335E+01
42.000000 -14.000000 5.203447E+01
42.000000 -16.000000 4.741002E+01
42.000000 -18.000000 3.918775E+01
42.000000 -20.000000 3.608516E+01
42.000000 -22.000000 3.853844E+01
42.000000 -24.000000 4.019325E+01
42.000000 -26.000000 4.411279E+01
42.000000 -28.000000 4.976051E+01
42.000000 -30.000000 5.254537E+01
42.000000 -32.000000 4.687289E+01
42.000000 -34.000000 3.747332E+01
42.000000 -36.000000 3.457728E+01
42.000000 -38.000000 3.825587E+01
42.000000 -40.000000 4.011422E+01
44.000000 40.000000 1.821386E+01
44.000000 38.000000 1.004369E+01
44.000000 36.000000 -4.104818E+00
44.000000 34.000000 -2.624397E+01
44.000000 32.000000 -4.798102E+01
44.000000 30.000000 -5.540922E+01
44.000000 28.000000 -4.860746E+01
44.000000 26.000000 -3.538754E+01
44.000000 24.000000 -3.337877E+01
44.000000 22.000000 -4.542276E+01
44.000000 20.000000 -5.796119E+01
44.000000 18.000000 -6.273919E+01
44.000000 16.000000 -6.164820E+01
44.000000 14.000000 -5.885388E+01
44.000000 12.000000 -5.295157E+01
44.000000 10.000000 -4.331409E+01
44.000000 8.000000 -2.798379E+01
44.000000 6.000000 -1.157390E+01
44.000000 4.000000 1.038304E+01
44.000000 2.000000 3.233960E+01
44.000000 0.000000 4.904118E+01
44.000000 -2.000000 5.895912E+01
44.000000 -4.000000 6.722324E+01
44.000000 -6.000000 6.945726E+01
44.000000 -8.000000 6.211559E+01
44.000000 -10.000000 5.496203E+01
44.000000 -12.000000 5.380328E+01
44.000000 -14.000000 5.613636E+01
44.000000 -16.000000 5.400282E+01
44.000000 -18.000000 4.897864E+01
44.000000 -20.000000 4.844204E+01
44.000000 -22.000000 5.178558E+01
44.000000 -24.000000 5.204749E+01
44.000000 -26.000000 5.269247E+01
44.000000 -28.000000 5.564456E+01
44.000000 -30.000000 5.743504E+01
44.000000 -32.000000 5.301724E+01
44.000000 -34.000000 4.440771E+01
44.000000 -36.000000 4.013162E+01
44.000000 -38.000000 4.162121E+01
44.000000 -40.000000 4.213424E+01
46.000000 40.000000 1.496019E+01
46.000000 38.000000 7.626537E+00
46.000000 36.000000 -5.549810E+00
46.000000 34.000000 -2.496011E+01
46.000000 32.000000 -4.309573E+01
46.000000 30.000000 -4.515490E+01
46.000000 28.000000 -3.283795E+01
46.000000 26.000000 -1.792903E+01
46.000000 24.000000 -1.801792E+01
46.000000 22.000000 -3.548835E+01
46.000000 20.000000 -5.133203E+01
46.000000 18.000000 -5.999707E+01
46.000000 16.000000 -6.495025E+01
46.000000 14.000000 -6.913085E+01
46.000000 12.000000 -6.821869E+01
46.000000 10.000000 -6.126974E+01
46.000000 8.000000 -4.394168E+01
46.000000 6.000000 -2.542378E+01
46.000000 4.000000 -6.229200E-01
46.000000 2.000000 2.128105E+01
46.000000 0.000000 3.627067E+01
46.000000 -2.000000 4.583629E+01
46.000000 -4.000000 5.563587E+01
46.000000 -6.000000 5.951503E+01
46.000000 -8.000000 5.362495E+01
46.000000 -10.000000 4.909503E+01
46.000000 -12.000000 5.201647E+01
46.000000 -14.000000 5.862642E+01
46.000000 -16.000000 5.993387E+01
46.000000 -18.000000 5.764561E+01
46.000000 -20.000000 5.975736E+01
46.000000 -22.000000 6.485534E+01
46.000000 -24.000000 6.559871E+01
46.000000 -26.000000 6.334516E+01
46.000000 -28.000000 6.179386E+01
46.000000 -30.000000 6.043007E+01
46.000000 -32.000000 5.654051E+01
46.000000 -34.000000 4.942949E+01
46.000000 -36.000000 4.450295E+01
46.000000 -38.000000 4.374133E+01
46.000000 -40.000000 4.209578E+01
48.000000 40.000000 1.143941E+01
48.000000 38.000000 4.111805E+00
48.000000 36.000000 -9.173279E+00
48.000000 34.000000 -2.556899E+01
48.000000 32.000000 -3.721789E+01
48.000000 30.000000 -3.221862E+01
48.000000 28.000000 -1.609857E+01
48.000000 26.000000 -2.533531E+00
48.000000 24.000000 -6.478853E+00
48.000000 22.000000 -2.778745E+01
48.000000 20.000000 -4.407275E+01
48.000000 18.000000 -5.106441E+01
48.000000 16.000000 -5.440730E+01
48.000000 14.000000 -5.786919E+01
48.000000 12.000000 -5.933804E+01
48.000000 10.000000 -5.872917E+01
48.000000 8.000000 -4.880094E+01
48.000000 6.000000 -3.694474E+01
48.000000 4.000000 -1.829546E+01
48.000000 2.000000 -1.433148E+00
48.000000 0.000000 8.358322E+00
48.000000 -2.000000 1.583531E+01
48.000000 -4.000000 2.595937E+01
48.000000 -6.000000 3.489034E+01
48.000000 -8.000000 3.522816E+01
48.000000 -10.000000 3.484893E+01
48.000000 -12.000000 4.458113E+01
48.000000 -14.000000 5.828209E+01
48.000000 -16.000000 6.287369E+01
48.000000 -18.000000 6.099887E+01
48.000000 -20.000000 6.572261E+01
48.000000 -22.000000 7.384346E+01
48.000000 -24.000000 7.434611E+01
48.000000 -26.000000 6.922122E+01
48.000000 -28.000000 6.344205E+01
48.000000 -30.000000 5.995482E+01
48.000000 -32.000000 5.721827E+01
48.000000 -34.000000 5.192011E+01
48.000000 -36.000000 4.692985E+01
48.000000 -38.000000 4.506488E+01
48.000000 -40.000000 4.130580E+01
50.000000 40.000000 7.853821E+00
50.000000 38.000000 -3.005219E-01
50.000000 36.000000 -1.495603E+01
50.000000 34.000000 -2.932322E+01
50.000000 32.000000 -3.343436E+01
50.000000 30.000000 -2.028769E+01
50.000000 28.000000 -9.354610E-01
50.000000 26.000000 9.072296E+00
50.000000 24.000000 -4.867935E-02
50.000000 22.000000 -2.239262E+01
50.000000 20.000000 -3.586618E+01
50.000000 18.000000 -3.777970E+01
50.000000 16.000000 -3.621470E+01
50.000000 14.000000 -3.512183E+01
50.000000 12.000000 -3.483355E+01
50.000000 10.000000 -3.622847E+01
50.000000 8.000000 -3.550258E+01
50.000000 6.000000 -3.405048E+01
50.000000 4.000000 -2.717067E+01
50.000000 2.000000 -2.076663E+01
50.000000 0.000000 -2.061137E+01
50.000000 -2.000000 -1.881427E+01
50.000000 -4.000000 -1.018357E+01
50.000000 -6.000000 4.799771E+00
50.000000 -8.000000 1.293937E+01
50.000000 -10.000000 1.775602E+01
50.000000 -12.000000 3.218184E+01
50.000000 -14.000000 4.906778E+01
50.000000 -16.000000 5.668641E+01
50.000000 -18.000000 5.773583E+01
50.000000 -20.000000 6.513400E+01
50.000000 -22.000000 7.381192E+01
50.000000 -24.000000 7.205999E+01
50.000000 -26.000000 6.417636E+01
50.000000 -28.000000 5.643465E+01
50.000000 -30.000000 5.346989E+01
50.000000 -32.000000 5.327390E+01
50.000000 -34.000000 5.068858E+01
50.000000 -36.000000 4.707568E+01
50.000000 -38.000000 4.576150E+01
50.000000 -40.000000 4.136093E+01
52.000000 40.000000 4.976715E+00
52.000000 38.000000 -4.002441E+00
52.000000 36.000000 -2.026511E+01
52.000000 34.000000 -3.469202E+01
52.000000 32.000000 -3.462444E+01
52.000000 30.000000 -1.568953E+01
52.000000 28.000000 7.398262E+00
52.000000 26.000000 1.693333E+01
52.000000 24.000000 4.546019E+00
52.000000 22.000000 -1.813499E+01
52.000000 20.000000 -2.955504E+01
52.000000 18.000000 -2.698802E+01
52.000000 16.000000 -2.006778E+01
52.000000 14.000000 -1.247730E+01
52.000000 12.000000 -5.886634E+00
52.000000 10.000000 -2.383997E+00
52.000000 8.000000 -6.318482E+00
52.000000 6.000000 -1.277739E+01
52.000000 4.000000 -1.823146E+01
52.000000 2.000000 -2.362909E+01
52.000000 0.000000 -3.427520E+01
52.000000 -2.000000 -4.021830E+01
52.000000 -4.000000 -3.452910E+01
52.000000 -6.000000 -1.576541E+01
52.000000 -8.000000 -2.143080E+00
52.000000 -10.000000 4.033764E+00
52.000000 -12.000000 1.613795E+01
52.000000 -14.000000 2.944407E+01
52.000000 -16.000000 3.761647E+01
52.000000 -18.000000 4.369697E+01
52.000000 -20.000000 5.367198E+01
52.000000 -22.000000 6.040183E+01
52.000000 -24.000000 5.561350E+01
52.000000 -26.000000 4.596199E+01
52.000000 -28.000000 4.019551E+01
52.000000 -30.000000 4.044360E+01
52.000000 -32.000000 4.433217E+01
52.000000 -34.000000 4.634237E+01
52.000000 -36.000000 4.624409E+01
52.000000 -38.000000 4.607370E+01
52.000000 -40.000000 4.290559E+01
54.000000 40.000000 3.575203E+00
54.000000 38.000000 -6.395967E+00
54.000000 36.000000 -2.363988E+01
54.000000 34.000000 -3.975594E+01
54.000000 32.000000 -4.038040E+01
54.000000 30.000000 -2.106461E+01
54.000000 28.000000 4.590614E+00
54.000000 26.000000 1.826356E+01
54.000000 24.000000 1.045311E+01
54.000000 22.000000 -1.049806E+01
54.000000 20.000000 -2.359129E+01
54.000000 18.000000 -2.203737E+01
54.000000 16.000000 -1.132992E+01
54.000000 14.000000 3.216183E+00
54.000000 12.000000 1.741285E+01
54.000000 10.000000 2.798113E+01
54.000000 8.000000 2.531603E+01
54.000000 6.000000 1.738801E+01
54.000000 4.000000 5.131531E+00
54.000000 2.000000 -8.038266E+00
54.000000 0.000000 -2.603844E+01
54.000000 -2.000000 -3.873567E+01
54.000000 -4.000000 -3.601135E+01
54.000000 -6.000000 -1.626672E+01
54.000000 -8.000000 -3.113735E+00
54.000000 -10.000000 -3.503571E+00
54.000000 -12.000000 -6.873856E-01
54.000000 -14.000000 4.601076E+00
54.000000 -16.000000 9.023106E+00
54.000000 -18.000000 1.761913E+01
54.000000 -20.000000 3.086915E+01
54.000000 -22.000000 3.695001E+01
54.000000 -24.000000 2.955378E+01
54.000000 -26.000000 1.937807E+01
54.000000 -28.000000 1.803859E+01
54.000000 -30.000000 2.356605E+01
54.000000 -32.000000 3.332022E+01
54.000000 -34.000000 4.091981E+01
54.000000 -36.000000 4.539080E+01
54.000000 -38.000000 4.664404E+01
54.000000 -40.000000 4.498381E+01
56.000000 40.000000 2.460575E+00
56.000000 38.000000 -9.019804E+00
56.000000 36.000000 -2.487183E+01
56.000000 34.000000 -4.322076E+01
56.000000 32.000000 -4.702162E+01
56.000000 30.000000 -3.137806E+01
56.000000 28.000000 -5.279545E+00
56.000000 26.000000 1.446337E+01
56.000000 24.000000 1.775270E+01
56.000000 22.000000 6.312943E-01
56.000000 20.000000 -1.518140E+01
56.000000 18.000000 -1.927221E+01
56.000000 16.000000 -8.292559E+00
56.000000 14.000000 1.123538E+01
56.000000 12.000000 2.975071E+01
56.000000 10.000000 4.213140E+01
56.000000 8.000000 4.287147E+01
56.000000 6.000000 3.888507E+01
56.000000 4.000000 2.954215E+01
56.000000 2.000000 1.656821E+01
56.000000 0.000000 -2.672433E+00
56.000000 -2.000000 -1.648767E+01
56.000000 -4.000000 -1.261381E+01
56.000000 -6.000000 4.614763E+00
56.000000 -8.000000 8.890326E+00
56.000000 -10.000000 -2.223343E+00
56.000000 -12.000000 -1.364486E+01
56.000000 -14.000000 -2.106132E+01
56.000000 -16.000000 -2.254605E+01
56.000000 -18.000000 -1.277114E+01
56.000000 -20.000000 3.043352E+00
56.000000 -22.000000 9.597485E+00
56.000000 -24.000000 1.928680E+00
56.000000 -26.000000 -4.514164E+00
56.000000 -28.000000 -2.165714E+00
56.000000 -30.000000 8.104441E+00
56.000000 -32.000000 2.328408E+01
56.000000 -34.000000 3.559404E+01
56.000000 -36.000000 4.465379E+01
56.000000 -38.000000 4.657963E+01
56.000000 -40.000000 4.585428E+01
58.000000 40.000000 2.376020E+00
58.000000 38.000000 -9.184251E+00
58.000000 36.000000 -2.453227E+01
58.000000 34.000000 -4.348775E+01
58.000000 32.000000 -5.046102E+01
58.000000 30.000000 -3.917317E+01
58.000000 28.000000 -1.408745E+01
58.000000 26.000000 1.221922E+01
58.000000 24.000000 2.218682E+01
58.000000 22.000000 7.780224E+00
58.000000 20.000000 -7.525225E+00
58.000000 18.000000 -1.549930E+01
58.000000 16.000000 -6.367415E+00
58.000000 14.000000 1.277117E+01
58.000000 12.000000 3.183995E+01
58.000000 10.000000 4.373599E+01
58.000000 8.000000 4.693953E+01
58.000000 6.000000 4.622094E+01
58.000000 4.000000 4.024061E+01
58.000000 2.000000 3.062796E+01
58.000000 0.000000 1.627493E+01
58.000000 -2.000000 7.085368E+00
58.000000 -4.000000 1.252996E+01
58.000000 -6.000000 2.353307E+01
58.000000 -8.000000 1.872534E+01
58.000000 -10.000000 2.307295E+00
58.000000 -12.000000 -1.791687E+01
58.000000 -14.000000 -3.309103E+01
58.000000 -16.000000 -3.816819E+01
58.000000 -18.000000 -3.035000E+01
