-10.000000 -16.000000 -1.816141E+01
-10.000000 -18.000000 -4.645194E+01
-10.000000 -20.000000 -7.604091E+01
-10.000000 -22.000000 -9.282604E+01
-10.000000 -24.000000 -9.453353E+01
-10.000000 -26.000000 -8.888405E+01
-10.000000 -28.000000 -8.053706E+01
-10.000000 -30.000000 -7.294201E+01
-10.000000 -32.000000 -6.402824E+01
-10.000000 -34.000000 -5.540164E+01
-10.000000 -36.000000 -4.389370E+01
-10.000000 -38.000000 -3.638854E+01
-10.000000 -40.000000 -3.360979E+01
-8.000000 40.000000 -4.738974E+01
-8.000000 38.000000 -6.823963E+01
-8.000000 36.000000 -7.994236E+01
-8.000000 34.000000 -8.222189E+01
-8.000000 32.000000 -7.089376E+01
-8.000000 30.000000 -4.852442E+01
-8.000000 28.000000 -2.335256E+01
-8.000000 26.000000 -4.072613E+00
-8.000000 24.000000 9.125725E+00
-8.000000 22.000000 1.343137E+01
-8.000000 20.000000 1.369070E+01
-8.000000 18.000000 -1.891094E+00
-8.000000 16.000000 -2.724505E+01
-8.000000 14.000000 -4.059653E+01
-8.000000 12.000000 -3.587806E+01
-8.000000 10.000000 -2.602691E+01
-8.000000 8.000000 -1.596872E+01
-8.000000 6.000000 -6.640745E+00
-8.000000 4.000000 3.192997E+00
-8.000000 2.000000 9.887716E+00
-8.000000 0.000000 1.865683E+01
-8.000000 -2.000000 2.923703E+01
-8.000000 -4.000000 3.893621E+01
-8.000000 -6.000000 4.218355E+01
-8.000000 -8.000000 3.463143E+01
-8.000000 -10.000000 2.197097E+01
-8.000000 -12.000000 1.137717E+01
-8.000000 -14.000000 7.751359E+00
-8.000000 -16.000000 4.339477E+00
-8.000000 -18.000000 -1.042974E+01
-8.000000 -20.000000 -3.007907E+01
-8.000000 -22.000000 -4.328959E+01
-8.000000 -24.000000 -4.906553E+01
-8.000000 -26.000000 -5.265167E+01
-8.000000 -28.000000 -5.325441E+01
-8.000000 -30.000000 -5.451382E+01
-8.000000 -32.000000 -5.414303E+01
-8.000000 -34.000000 -5.442885E+01
-8.000000 -36.000000 -5.029352E+01
-8.000000 -38.000000 -4.664266E+01
-8.000000 -40.000000 -4.593780E+01
-6.000000 40.000000 -4.376794E+01
-6.000000 38.000000 -6.937278E+01
-6.000000 36.000000 -8.500885E+01
-6.000000 34.000000 -9.339738E+01
-6.000000 32.000000 -8.910452E+01
-6.000000 30.000000 -7.366126E+01
-6.000000 28.000000 -5.601862E+01
-6.000000 26.000000 -4.488330E+01
-6.000000 24.000000 -4.189767E+01
-6.000000 22.000000 -3.565122E+01
-6.000000 20.000000 -2.893927E+01
-6.000000 18.000000 -2.817552E+01
-6.000000 16.000000 -3.338396E+01
-6.000000 14.000000 -3.669017E+01
-6.000000 12.000000 -3.513271E+01
-6.000000 10.000000 -3.094042E+01
-6.000000 8.000000 -2.445375E+01
-6.000000 6.000000 -1.489475E+01
-6.000000 4.000000 -2.562864E+00
-6.000000 2.000000 8.285834E+00
-6.000000 0.000000 2.019871E+01
-6.000000 -2.000000 3.230076E+01
-6.000000 -4.000000 3.960297E+01
-6.000000 -6.000000 3.629507E+01
-6.000000 -8.000000 2.450569E+01
-6.000000 -10.000000 1.194423E+01
-6.000000 -12.000000 7.331472E+00
-6.000000 -14.000000 1.295696E+01
-6.000000 -16.000000 2.293415E+01
-6.000000 -18.000000 2.588588E+01
-6.000000 -20.000000 2.244661E+01
-6.000000 -22.000000 1.695345E+01
-6.000000 -24.000000 6.710945E+00
-6.000000 -26.000000 -7.100061E+00
-6.000000 -28.000000 -1.899065E+01
-6.000000 -30.000000 -3.146143E+01
-6.000000 -32.000000 -4.231430E+01
-6.000000 -34.000000 -5.349870E+01
-6.000000 -36.000000 -5.840856E+01
-6.000000 -38.000000 -5.874251E+01
-6.000000 -40.000000 -5.990359E+01
-4.000000 40.000000 -4.222494E+01
-4.000000 38.000000 -5.942638E+01
-4.000000 36.000000 -7.109596E+01
-4.000000 34.000000 -8.132814E+01
-4.000000 32.000000 -8.219200E+01
-4.000000 30.000000 -7.492948E+01
-4.000000 28.000000 -6.805983E+01
-4.000000 26.000000 -6.742799E+01
-4.000000 24.000000 -7.816990E+01
-4.000000 22.000000 -7.801030E+01
-4.000000 20.000000 -7.174187E+01
-4.000000 18.000000 -5.810665E+01
-4.000000 16.000000 -4.503567E+01
-4.000000 14.000000 -3.773913E+01
-4.000000 12.000000 -3.585933E+01
-4.000000 10.000000 -3.665105E+01
-4.000000 8.000000 -3.558614E+01
-4.000000 6.000000 -2.963994E+01
-4.000000 4.000000 -1.926175E+01
-4.000000 2.000000 -7.786799E+00
-4.000000 0.000000 6.404619E+00
-4.000000 -2.000000 2.131192E+01
-4.000000 -4.000000 3.169071E+01
-4.000000 -6.000000 3.005134E+01
-4.000000 -8.000000 1.905448E+01
-4.000000 -10.000000 7.899833E+00
-4.000000 -12.000000 4.686714E+00
-4.000000 -14.000000 1.393509E+01
-4.000000 -16.000000 3.203336E+01
-4.000000 -18.000000 5.055023E+01
-4.000000 -20.000000 6.444712E+01
-4.000000 -22.000000 6.931876E+01
-4.000000 -24.000000 5.669777E+01
-4.000000 -26.000000 3.386926E+01
-4.000000 -28.000000 1.208428E+01
-4.000000 -30.000000 -1.049891E+01
-4.000000 -32.000000 -3.143040E+01
-4.000000 -34.000000 -5.321215E+01
-4.000000 -36.000000 -6.648456E+01
-4.000000 -38.000000 -7.031935E+01
-4.000000 -40.000000 -7.317628E+01
-2.000000 40.000000 -3.954741E+01
-2.000000 38.000000 -4.442077E+01
-2.000000 36.000000 -4.769861E+01
-2.000000 34.000000 -5.324963E+01
-2.000000 32.000000 -5.468675E+01
-2.000000 30.000000 -5.378568E+01
-2.000000 28.000000 -5.708617E+01
-2.000000 26.000000 -6.647536E+01
-2.000000 24.000000 -8.901260E+01
-2.000000 22.000000 -9.793124E+01
-2.000000 20.000000 -9.468603E+01
-2.000000 18.000000 -7.361631E+01
-2.000000 16.000000 -4.861514E+01
-2.000000 14.000000 -3.549003E+01
-2.000000 12.000000 -3.602263E+01
-2.000000 10.000000 -4.494311E+01
-2.000000 8.000000 -5.267272E+01
-2.000000 6.000000 -5.470603E+01
-2.000000 4.000000 -4.891172E+01
-2.000000 2.000000 -3.811056E+01
-2.000000 0.000000 -2.143766E+01
-2.000000 -2.000000 -9.328508E-01
-2.000000 -4.000000 1.790711E+01
-2.000000 -6.000000 2.527353E+01
-2.000000 -8.000000 1.944843E+01
-2.000000 -10.000000 9.600959E+00
-2.000000 -12.000000 3.567126E+00
-2.000000 -14.000000 1.025124E+01
-2.000000 -16.000000 3.006300E+01
-2.000000 -18.000000 5.852951E+01
-2.000000 -20.000000 8.663608E+01
-2.000000 -22.000000 1.007718E+02
-2.000000 -24.000000 8.707506E+01
-2.000000 -26.000000 5.753111E+01
-2.000000 -28.000000 3.030266E+01
-2.000000 -30.000000 2.200004E+00
-2.000000 -32.000000 -2.447782E+01
-2.000000 -34.000000 -5.295473E+01
-2.000000 -36.000000 -7.244089E+01
-2.000000 -38.000000 -7.972227E+01
-2.000000 -40.000000 -8.409671E+01
0.000000 40.000000 -3.229133E+01
0.000000 38.000000 -2.706253E+01
0.000000 36.000000 -2.284691E+01
0.000000 34.000000 -2.126193E+01
0.000000 32.000000 -2.097335E+01
0.000000 30.000000 -2.359895E+01
0.000000 28.000000 -3.293222E+01
0.000000 26.000000 -4.820044E+01
0.000000 24.000000 -7.566505E+01
0.000000 22.000000 -9.079412E+01
0.000000 20.000000 -8.909022E+01
0.000000 18.000000 -6.430721E+01
0.000000 16.000000 -3.438507E+01
0.000000 14.000000 -2.116526E+01
0.000000 12.000000 -2.876194E+01
0.000000 10.000000 -4.985847E+01
0.000000 8.000000 -6.964666E+01
0.000000 6.000000 -8.196296E+01
0.000000 4.000000 -8.075807E+01
0.000000 2.000000 -7.064852E+01
0.000000 0.000000 -5.246251E+01
0.000000 -2.000000 -2.637365E+01
0.000000 -4.000000 1.308018E+00
0.000000 -6.000000 1.900613E+01
0.000000 -8.000000 1.906907E+01
0.000000 -10.000000 1.052564E+01
0.000000 -12.000000 -1.159191E-02
0.000000 -14.000000 3.011589E-01
0.000000 -16.000000 1.645605E+01
0.000000 -18.000000 4.867661E+01
0.000000 -20.000000 8.654225E+01
0.000000 -22.000000 1.081524E+02
0.000000 -24.000000 9.414255E+01
0.000000 -26.000000 6.067562E+01
0.000000 -28.000000 3.348003E+01
0.000000 -30.000000 5.938569E+00
0.000000 -32.000000 -2.197909E+01
0.000000 -34.000000 -5.350752E+01
0.000000 -36.000000 -7.728449E+01
0.000000 -38.000000 -8.738966E+01
0.000000 -40.000000 -9.218636E+01
2.000000 40.000000 -1.933899E+01
2.000000 38.000000 -8.752560E+00
2.000000 36.000000 -1.045206E+00
2.000000 34.000000 4.782564E+00
2.000000 32.000000 5.956497E+00
2.000000 30.000000 2.282154E+00
2.000000 28.000000 -8.442919E+00
2.000000 26.000000 -2.338837E+01
2.000000 24.000000 -4.812029E+01
2.000000 22.000000 -6.559365E+01
2.000000 20.000000 -6.350874E+01
2.000000 18.000000 -3.685695E+01
2.000000 16.000000 -6.675489E+00
2.000000 14.000000 5.045665E+00
2.000000 12.000000 -9.835899E+00
2.000000 10.000000 -4.257255E+01
2.000000 8.000000 -7.477189E+01
2.000000 6.000000 -9.735063E+01
2.000000 4.000000 -1.010054E+02
2.000000 2.000000 -9.155622E+01
2.000000 0.000000 -7.290393E+01
2.000000 -2.000000 -4.424954E+01
2.000000 -4.000000 -1.295596E+01
2.000000 -6.000000 1.031471E+01
2.000000 -8.000000 1.399356E+01
2.000000 -10.000000 4.845533E+00
2.000000 -12.000000 -1.008204E+01
2.000000 -14.000000 -1.659663E+01
2.000000 -16.000000 -6.138283E+00
2.000000 -18.000000 2.465782E+01
2.000000 -20.000000 6.738574E+01
2.000000 -22.000000 9.413168E+01
2.000000 -24.000000 8.163814E+01
2.000000 -26.000000 4.975936E+01
2.000000 -28.000000 2.638951E+01
2.000000 -30.000000 3.063645E+00
2.000000 -32.000000 -2.328665E+01
2.000000 -34.000000 -5.639917E+01
2.000000 -36.000000 -8.306568E+01
2.000000 -38.000000 -9.449759E+01
2.000000 -40.000000 -9.787973E+01
4.000000 40.000000 -4.698772E+00
4.000000 38.000000 8.321028E+00
4.000000 36.000000 1.677237E+01
4.000000 34.000000 2.275901E+01
4.000000 32.000000 2.365537E+01
4.000000 30.000000 2.043437E+01
4.000000 28.000000 1.135038E+01
4.000000 26.000000 -2.224541E-02
4.000000 24.000000 -1.953810E+01
4.000000 22.000000 -3.814573E+01
4.000000 20.000000 -3.731446E+01
4.000000 18.000000 -1.059321E+01
4.000000 16.000000 1.963584E+01
4.000000 14.000000 3.205804E+01
4.000000 12.000000 1.466628E+01
4.000000 10.000000 -2.253156E+01
4.000000 8.000000 -6.111531E+01
4.000000 6.000000 -8.889711E+01
4.000000 4.000000 -9.682513E+01
4.000000 2.000000 -9.041117E+01
4.000000 0.000000 -7.533032E+01
4.000000 -2.000000 -5.008315E+01
4.000000 -4.000000 -2.099615E+01
4.000000 -6.000000 1.753471E+00
4.000000 -8.000000 6.497640E+00
4.000000 -10.000000 -3.480591E+00
4.000000 -12.000000 -2.200405E+01
4.000000 -14.000000 -3.551250E+01
4.000000 -16.000000 -3.248907E+01
4.000000 -18.000000 -7.468237E+00
4.000000 -20.000000 3.264147E+01
4.000000 -22.000000 6.069433E+01
4.000000 -24.000000 5.491355E+01
4.000000 -26.000000 3.341262E+01
4.000000 -28.000000 1.637536E+01
4.000000 -30.000000 -3.570629E+00
4.000000 -32.000000 -2.885065E+01
4.000000 -34.000000 -6.269918E+01
4.000000 -36.000000 -9.020251E+01
4.000000 -38.000000 -1.006541E+02
4.000000 -40.000000 -1.008156E+02
6.000000 40.000000 7.533435E+00
6.000000 38.000000 2.169108E+01
6.000000 36.000000 3.054894E+01
6.000000 34.000000 3.482891E+01
6.000000 32.000000 3.436935E+01
6.000000 30.000000 3.224498E+01
6.000000 28.000000 2.604545E+01
6.000000 26.000000 1.692634E+01
6.000000 24.000000 1.963692E-01
6.000000 22.000000 -1.948820E+01
6.000000 20.000000 -2.226114E+01
6.000000 18.000000 1.518713E+00
6.000000 16.000000 3.193379E+01
6.000000 14.000000 4.673960E+01
6.000000 12.000000 3.310308E+01
6.000000 10.000000 9.237947E-01
6.000000 8.000000 -3.311433E+01
6.000000 6.000000 -5.649756E+01
6.000000 4.000000 -6.448151E+01
6.000000 2.000000 -6.341355E+01
6.000000 0.000000 -5.840183E+01
6.000000 -2.000000 -4.485326E+01
6.000000 -4.000000 -2.420769E+01
6.000000 -6.000000 -4.466406E+00
6.000000 -8.000000 1.204007E+00
6.000000 -10.000000 -7.135135E+00
6.000000 -12.000000 -2.862472E+01
6.000000 -14.000000 -4.951174E+01
6.000000 -16.000000 -5.692394E+01
6.000000 -18.000000 -4.240123E+01
6.000000 -20.000000 -1.110227E+01
6.000000 -22.000000 1.576146E+01
6.000000 -24.000000 2.070379E+01
6.000000 -26.000000 1.513795E+01
6.000000 -28.000000 7.134105E+00
6.000000 -30.000000 -1.109421E+01
6.000000 -32.000000 -3.719322E+01
6.000000 -34.000000 -7.106140E+01
6.000000 -36.000000 -9.753569E+01
6.000000 -38.000000 -1.043466E+02
6.000000 -40.000000 -1.000522E+02
8.000000 40.000000 1.619240E+01
8.000000 38.000000 3.053658E+01
8.000000 36.000000 3.962068E+01
8.000000 34.000000 4.124460E+01
8.000000 32.000000 3.807268E+01
8.000000 30.000000 3.705964E+01
8.000000 28.000000 3.475778E+01
8.000000 26.000000 2.754588E+01
8.000000 24.000000 1.025720E+01
8.000000 22.000000 -1.258593E+01
8.000000 20.000000 -2.070802E+01
8.000000 18.000000 -3.306171E+00
8.000000 16.000000 2.496712E+01
8.000000 14.000000 4.373363E+01
8.000000 12.000000 4.194796E+01
8.000000 10.000000 2.491367E+01
8.000000 8.000000 5.190568E+00
8.000000 6.000000 -7.001351E+00
8.000000 4.000000 -1.349965E+01
8.000000 2.000000 -2.138183E+01
8.000000 0.000000 -3.022942E+01
8.000000 -2.000000 -3.150657E+01
8.000000 -4.000000 -2.201218E+01
8.000000 -6.000000 -5.982072E+00
8.000000 -8.000000 6.239071E-01
8.000000 -10.000000 -5.932241E+00
8.000000 -12.000000 -3.141197E+01
8.000000 -14.000000 -5.951628E+01
8.000000 -16.000000 -7.724313E+01
8.000000 -18.000000 -7.457556E+01
8.000000 -20.000000 -5.278885E+01
8.000000 -22.000000 -2.686625E+01
8.000000 -24.000000 -1.024772E+01
8.000000 -26.000000 -2.083170E+00
8.000000 -28.000000 -2.695770E+00
8.000000 -30.000000 -1.902542E+01
8.000000 -32.000000 -4.497818E+01
8.000000 -34.000000 -7.724637E+01
8.000000 -36.000000 -1.015293E+02
8.000000 -38.000000 -1.039853E+02
8.000000 -40.000000 -9.550610E+01
10.000000 40.000000 2.161188E+01
10.000000 38.000000 3.523476E+01
10.000000 36.000000 4.267259E+01
10.000000 34.000000 3.902035E+01
10.000000 32.000000 3.255513E+01
10.000000 30.000000 3.331341E+01
10.000000 28.000000 3.646021E+01
10.000000 26.000000 3.328725E+01
10.000000 24.000000 1.542243E+01
10.000000 22.000000 -1.191737E+01
10.000000 20.000000 -2.653806E+01
10.000000 18.000000 -1.601531E+01
10.000000 16.000000 9.161629E+00
10.000000 14.000000 3.304850E+01
10.000000 12.000000 4.698982E+01
10.000000 10.000000 4.941310E+01
10.000000 8.000000 4.570438E+01
10.000000 6.000000 4.456967E+01
10.000000 4.000000 3.880288E+01
10.000000 2.000000 2.094316E+01
10.000000 0.000000 -2.701988E-01
10.000000 -2.000000 -1.313716E+01
10.000000 -4.000000 -1.134260E+01
10.000000 -6.000000 5.407730E-01
10.000000 -8.000000 3.927818E+00
10.000000 -10.000000 -7.259930E+00
10.000000 -12.000000 -3.828301E+01
10.000000 -14.000000 -7.137107E+01
10.000000 -16.000000 -9.441740E+01
10.000000 -18.000000 -9.842487E+01
10.000000 -20.000000 -8.250725E+01
10.000000 -22.000000 -5.713626E+01
10.000000 -24.000000 -3.141536E+01
10.000000 -26.000000 -1.519655E+01
10.000000 -28.000000 -1.280117E+01
10.000000 -30.000000 -2.617686E+01
10.000000 -32.000000 -4.985168E+01
10.000000 -34.000000 -7.833483E+01
10.000000 -36.000000 -9.843752E+01
10.000000 -38.000000 -9.762030E+01
10.000000 -40.000000 -8.712565E+01
12.000000 40.000000 2.560188E+01
12.000000 38.000000 3.549481E+01
12.000000 36.000000 3.743588E+01
12.000000 34.000000 2.709643E+01
12.000000 32.000000 1.891950E+01
12.000000 30.000000 2.224884E+01
12.000000 28.000000 3.089831E+01
12.000000 26.000000 3.367487E+01
12.000000 24.000000 1.906313E+01
12.000000 22.000000 -1.000030E+01
12.000000 20.000000 -2.937170E+01
12.000000 18.000000 -2.377943E+01
12.000000 16.000000 -6.866608E-01
12.000000 14.000000 2.778133E+01
12.000000 12.000000 5.395863E+01
12.000000 10.000000 7.046880E+01
12.000000 8.000000 7.725423E+01
12.000000 6.000000 8.407600E+01
12.000000 4.000000 7.968698E+01
12.000000 2.000000 5.561380E+01
12.000000 0.000000 2.762030E+01
12.000000 -2.000000 8.083131E+00
12.000000 -4.000000 5.709802E+00
12.000000 -6.000000 1.198123E+01
12.000000 -8.000000 6.923841E+00
12.000000 -10.000000 -1.352470E+01
12.000000 -12.000000 -4.914276E+01
12.000000 -14.000000 -8.374303E+01
12.000000 -16.000000 -1.074122E+02
12.000000 -18.000000 -1.120146E+02
12.000000 -20.000000 -9.728001E+01
12.000000 -22.000000 -7.293727E+01
12.000000 -24.000000 -4.442492E+01
12.000000 -26.000000 -2.462442E+01
12.000000 -28.000000 -1.992129E+01
12.000000 -30.000000 -2.994508E+01
12.000000 -32.000000 -5.012108E+01
12.000000 -34.000000 -7.327294E+01
12.000000 -36.000000 -8.818184E+01
12.000000 -38.000000 -8.501467E+01
12.000000 -40.000000 -7.419018E+01
14.000000 40.000000 2.841800E+01
14.000000 38.000000 3.103295E+01
14.000000 36.000000 2.576892E+01
14.000000 34.000000 1.109999E+01
14.000000 32.000000 2.706282E+00
14.000000 30.000000 7.983258E+00
14.000000 28.000000 2.076250E+01
14.000000 26.000000 2.996323E+01
14.000000 24.000000 2.247278E+01
14.000000 22.000000 -2.803017E+00
14.000000 20.000000 -2.283244E+01
14.000000 18.000000 -2.129876E+01
14.000000 16.000000 -5.570698E-01
14.000000 14.000000 2.958431E+01
14.000000 12.000000 6.083288E+01
14.000000 10.000000 8.516669E+01
14.000000 8.000000 9.796817E+01
14.000000 6.000000 1.089706E+02
14.000000 4.000000 1.047085E+02
14.000000 2.000000 7.836718E+01
14.000000 0.000000 4.826503E+01
14.000000 -2.000000 2.558323E+01
14.000000 -4.000000 1.905081E+01
14.000000 -6.000000 1.838571E+01
14.000000 -8.000000 5.550994E+00
14.000000 -10.000000 -2.087865E+01
14.000000 -12.000000 -5.688329E+01
14.000000 -14.000000 -8.918713E+01
14.000000 -16.000000 -1.098326E+02
14.000000 -18.000000 -1.116799E+02
14.000000 -20.000000 -9.753693E+01
14.000000 -22.000000 -7.657354E+01
14.000000 -24.000000 -5.056474E+01
14.000000 -26.000000 -3.099055E+01
14.000000 -28.000000 -2.404285E+01
14.000000 -30.000000 -3.078132E+01
14.000000 -32.000000 -4.556311E+01
14.000000 -34.000000 -6.134964E+01
14.000000 -36.000000 -7.160028E+01
14.000000 -38.000000 -6.742356E+01
14.000000 -40.000000 -5.753514E+01
16.000000 40.000000 2.827674E+01
16.000000 38.000000 2.408593E+01
16.000000 36.000000 1.404797E+01
16.000000 34.000000 -1.509872E+00
16.000000 32.000000 -8.640003E+00
16.000000 30.000000 -1.663742E+00
16.000000 28.000000 1.417791E+01
16.000000 26.000000 2.793912E+01
16.000000 24.000000 2.653536E+01
16.000000 22.000000 6.152744E+00
16.000000 20.000000 -1.289352E+01
16.000000 18.000000 -1.499662E+01
16.000000 16.000000 2.127067E+00
16.000000 14.000000 3.050379E+01
16.000000 12.000000 6.145200E+01
16.000000 10.000000 8.985836E+01
16.000000 8.000000 1.077953E+02
16.000000 6.000000 1.204010E+02
16.000000 4.000000 1.160414E+02
16.000000 2.000000 9.105552E+01
16.000000 0.000000 6.058238E+01
16.000000 -2.000000 3.541017E+01
16.000000 -4.000000 2.165531E+01
16.000000 -6.000000 1.290451E+01
16.000000 -8.000000 -4.090711E+00
16.000000 -10.000000 -2.921696E+01
16.000000 -12.000000 -5.896433E+01
16.000000 -14.000000 -8.346124E+01
16.000000 -16.000000 -9.622530E+01
16.000000 -18.000000 -9.430610E+01
16.000000 -20.000000 -8.250966E+01
16.000000 -22.000000 -6.708177E+01
16.000000 -24.000000 -4.875527E+01
16.000000 -26.000000 -3.444600E+01
16.000000 -28.000000 -2.754117E+01
16.000000 -30.000000 -2.995525E+01
16.000000 -32.000000 -3.737689E+01
16.000000 -34.000000 -4.491378E+01
16.000000 -36.000000 -4.978940E+01
16.000000 -38.000000 -4.614694E+01
16.000000 -40.000000 -3.907867E+01
18.000000 40.000000 2.406649E+01
18.000000 38.000000 1.727444E+01
18.000000 36.000000 6.651257E+00
18.000000 34.000000 -5.554024E+00
18.000000 32.000000 -7.890060E+00
18.000000 30.000000 2.285896E+00
18.000000 28.000000 1.959090E+01
18.000000 26.000000 3.285840E+01
18.000000 24.000000 3.100384E+01
18.000000 22.000000 1.016826E+01
18.000000 20.000000 -9.965979E+00
18.000000 18.000000 -1.501883E+01
18.000000 16.000000 -1.232176E+00
18.000000 14.000000 2.406220E+01
18.000000 12.000000 5.180414E+01
18.000000 10.000000 7.916762E+01
18.000000 8.000000 1.005587E+02
18.000000 6.000000 1.157904E+02
18.000000 4.000000 1.154146E+02
18.000000 2.000000 9.532957E+01
18.000000 0.000000 6.558703E+01
18.000000 -2.000000 3.696822E+01
18.000000 -4.000000 1.544101E+01
18.000000 -6.000000 -6.514430E-01
18.000000 -8.000000 -1.886426E+01
18.000000 -10.000000 -3.849140E+01
18.000000 -12.000000 -5.746495E+01
18.000000 -14.000000 -6.904033E+01
18.000000 -16.000000 -6.931533E+01
18.000000 -18.000000 -6.262275E+01
18.000000 -20.000000 -5.299925E+01
18.000000 -22.000000 -4.447235E+01
18.000000 -24.000000 -3.849538E+01
18.000000 -26.000000 -3.402676E+01
18.000000 -28.000000 -2.941446E+01
18.000000 -30.000000 -2.733388E+01
18.000000 -32.000000 -2.754053E+01
18.000000 -34.000000 -2.844935E+01
18.000000 -36.000000 -2.679465E+01
18.000000 -38.000000 -2.331119E+01
18.000000 -40.000000 -1.981617E+01
20.000000 40.000000 1.681656E+01
20.000000 38.000000 1.200382E+01
20.000000 36.000000 4.648934E+00
20.000000 34.000000 -4.572506E-01
20.000000 32.000000 5.012195E+00
20.000000 30.000000 1.977297E+01
20.000000 28.000000 3.624751E+01
20.000000 26.000000 4.378806E+01
20.000000 24.000000 3.426822E+01
20.000000 22.000000 6.664733E+00
20.000000 20.000000 -1.689841E+01
20.000000 18.000000 -2.378231E+01
20.000000 16.000000 -1.056625E+01
20.000000 14.000000 1.191123E+01
20.000000 12.000000 3.589741E+01
20.000000 10.000000 5.875984E+01
20.000000 8.000000 8.042676E+01
20.000000 6.000000 9.694786E+01
20.000000 4.000000 1.016475E+02
20.000000 2.000000 8.739220E+01
20.000000 0.000000 6.003922E+01
20.000000 -2.000000 2.919169E+01
20.000000 -4.000000 3.085858E+00
20.000000 -6.000000 -1.710321E+01
20.000000 -8.000000 -3.384105E+01
20.000000 -10.000000 -4.677138E+01
20.000000 -12.000000 -5.359936E+01
20.000000 -14.000000 -5.020478E+01
20.000000 -16.000000 -3.664882E+01
20.000000 -18.000000 -2.323436E+01
20.000000 -20.000000 -1.499210E+01
20.000000 -22.000000 -1.521765E+01
20.000000 -24.000000 -2.360408E+01
20.000000 -26.000000 -3.001806E+01
20.000000 -28.000000 -2.819065E+01
20.000000 -30.000000 -2.273787E+01
20.000000 -32.000000 -1.676480E+01
20.000000 -34.000000 -1.217671E+01
20.000000 -36.000000 -5.541617E+00
20.000000 -38.000000 -2.111981E+00
20.000000 -40.000000 -1.801757E+00
22.000000 40.000000 9.319000E+00
22.000000 38.000000 8.978683E+00
22.000000 36.000000 6.326995E+00
22.000000 34.000000 8.425610E+00
22.000000 32.000000 2.144044E+01
22.000000 30.000000 4.023898E+01
22.000000 28.000000 5.468588E+01
22.000000 26.000000 5.459813E+01
22.000000 24.000000 3.443495E+01
22.000000 22.000000 -2.529851E+00
22.000000 20.000000 -2.981111E+01
22.000000 18.000000 -3.545341E+01
22.000000 16.000000 -1.791377E+01
22.000000 14.000000 4.746791E+00
22.000000 12.000000 2.578097E+01
22.000000 10.000000 4.290668E+01
22.000000 8.000000 6.180149E+01
22.000000 6.000000 7.688432E+01
22.000000 4.000000 8.355169E+01
22.000000 2.000000 7.122184E+01
22.000000 0.000000 4.415688E+01
22.000000 -2.000000 1.209857E+01
22.000000 -4.000000 -1.527342E+01
22.000000 -6.000000 -3.539231E+01
22.000000 -8.000000 -4.916562E+01
22.000000 -10.000000 -5.630600E+01
22.000000 -12.000000 -5.254152E+01
22.000000 -14.000000 -3.529991E+01
22.000000 -16.000000 -9.568951E+00
22.000000 -18.000000 1.206109E+01
22.000000 -20.000000 2.029560E+01
22.000000 -22.000000 1.165225E+01
22.000000 -24.000000 -8.809772E+00
22.000000 -26.000000 -2.385506E+01
22.000000 -28.000000 -2.374622E+01
22.000000 -30.000000 -1.581339E+01
22.000000 -32.000000 -4.371940E+00
22.000000 -34.000000 4.834553E+00
22.000000 -36.000000 1.296111E+01
22.000000 -38.000000 1.487641E+01
22.000000 -40.000000 1.225339E+01
24.000000 40.000000 4.398015E+00
24.000000 38.000000 7.145193E+00
24.000000 36.000000 7.603209E+00
24.000000 34.000000 1.405193E+01
24.000000 32.000000 3.151407E+01
24.000000 30.000000 5.231319E+01
24.000000 28.000000 6.425303E+01
24.000000 26.000000 5.805931E+01
24.000000 24.000000 2.896022E+01
24.000000 22.000000 -1.345728E+01
24.000000 20.000000 -4.030022E+01
24.000000 18.000000 -4.001559E+01
24.000000 16.000000 -1.472212E+01
24.000000 14.000000 1.177533E+01
24.000000 12.000000 3.212109E+01
24.000000 10.000000 4.546485E+01
24.000000 8.000000 5.931317E+01
24.000000 6.000000 7.086721E+01
24.000000 4.000000 7.370497E+01
24.000000 2.000000 5.637586E+01
24.000000 0.000000 2.537914E+01
24.000000 -2.000000 -8.989237E+00
24.000000 -4.000000 -3.641674E+01
24.000000 -6.000000 -5.408809E+01
24.000000 -8.000000 -6.675332E+01
24.000000 -10.000000 -7.271044E+01
24.000000 -12.000000 -6.425760E+01
24.000000 -14.000000 -3.803030E+01
24.000000 -16.000000 -2.194187E+00
24.000000 -18.000000 2.844060E+01
24.000000 -20.000000 4.070267E+01
24.000000 -22.000000 2.943497E+01
24.000000 -24.000000 2.701366E+00
24.000000 -26.000000 -1.687323E+01
24.000000 -28.000000 -1.623412E+01
24.000000 -30.000000 -5.800241E+00
24.000000 -32.000000 9.630136E+00
24.000000 -34.000000 2.097603E+01
24.000000 -36.000000 2.765027E+01
24.000000 -38.000000 2.684545E+01
24.000000 -40.000000 2.088453E+01
26.000000 40.000000 3.030776E+00
26.000000 38.000000 5.020952E+00
26.000000 36.000000 5.142936E+00
26.000000 34.000000 1.137926E+01
26.000000 32.000000 2.947862E+01
26.000000 30.000000 5.020658E+01
26.000000 28.000000 6.086429E+01
26.000000 26.000000 5.225097E+01
26.000000 24.000000 1.932536E+01
26.000000 22.000000 -2.021688E+01
26.000000 20.000000 -3.957639E+01
26.000000 18.000000 -2.847816E+01
26.000000 16.000000 3.579948E+00
26.000000 14.000000 3.380980E+01
26.000000 12.000000 5.398311E+01
26.000000 10.000000 6.488974E+01
26.000000 8.000000 7.094744E+01
26.000000 6.000000 7.630616E+01
26.000000 4.000000 7.191265E+01
26.000000 2.000000 4.903904E+01
26.000000 0.000000 1.583607E+01
26.000000 -2.000000 -1.920422E+01
26.000000 -4.000000 -4.775854E+01
26.000000 -6.000000 -6.753172E+01
26.000000 -8.000000 -8.610983E+01
26.000000 -10.000000 -1.002453E+02
26.000000 -12.000000 -9.575183E+01
26.000000 -14.000000 -6.796426E+01
26.000000 -16.000000 -2.410637E+01
26.000000 -18.000000 1.766550E+01
26.000000 -20.000000 3.986965E+01
26.000000 -22.000000 3.443275E+01
26.000000 -24.000000 1.003924E+01
26.000000 -26.000000 -8.799921E+00
26.000000 -28.000000 -6.346725E+00
26.000000 -30.000000 6.092703E+00
26.000000 -32.000000 2.304268E+01
26.000000 -34.000000 3.370744E+01
26.000000 -36.000000 3.715232E+01
26.000000 -38.000000 3.299878E+01
26.000000 -40.000000 2.435438E+01
28.000000 40.000000 2.942278E+00
28.000000 38.000000 2.338837E+00
28.000000 36.000000 -1.018625E+00
28.000000 34.000000 -4.866734E-01
28.000000 32.000000 1.568303E+01
28.000000 30.000000 3.725396E+01
28.000000 28.000000 5.059712E+01
28.000000 26.000000 4.409005E+01
28.000000 24.000000 1.427952E+01
28.000000 22.000000 -1.561130E+01
28.000000 20.000000 -2.362775E+01
28.000000 18.000000 -2.026427E+00
28.000000 16.000000 3.288288E+01
28.000000 14.000000 6.273800E+01
28.000000 12.000000 7.936525E+01
28.000000 10.000000 8.478660E+01
28.000000 8.000000 8.032434E+01
28.000000 6.000000 7.717782E+01
28.000000 4.000000 6.679467E+01
28.000000 2.000000 4.464075E+01
28.000000 0.000000 1.556369E+01
28.000000 -2.000000 -1.491169E+01
28.000000 -4.000000 -4.218025E+01
28.000000 -6.000000 -6.967539E+01
28.000000 -8.000000 -1.030437E+02
28.000000 -10.000000 -1.344970E+02
28.000000 -12.000000 -1.409529E+02
28.000000 -14.000000 -1.174556E+02
28.000000 -16.000000 -6.719425E+01
28.000000 -18.000000 -1.266248E+01
28.000000 -20.000000 2.246212E+01
28.000000 -22.000000 2.879878E+01
28.000000 -24.000000 1.437236E+01
28.000000 -26.000000 1.129602E+00
28.000000 -28.000000 4.594688E+00
28.000000 -30.000000 1.597291E+01
28.000000 -32.000000 3.090923E+01
28.000000 -34.000000 3.889091E+01
28.000000 -36.000000 3.895028E+01
28.000000 -38.000000 3.272933E+01
28.000000 -40.000000 2.459017E+01
30.000000 40.000000 9.643254E-01
30.000000 38.000000 -1.958291E+00
30.000000 36.000000 -8.925157E+00
30.000000 34.000000 -1.549885E+01
30.000000 32.000000 -3.061465E+00
30.000000 30.000000 1.998297E+01
30.000000 28.000000 3.905425E+01
30.000000 26.000000 3.996147E+01
30.000000 24.000000 2.239636E+01
30.000000 22.000000 6.308908E+00
30.000000 20.000000 8.595131E+00
30.000000 18.000000 3.181432E+01
30.000000 16.000000 5.976750E+01
30.000000 14.000000 8.146857E+01
30.000000 12.000000 8.957095E+01
30.000000 10.000000 8.553055E+01
30.000000 8.000000 7.254425E+01
30.000000 6.000000 6.332275E+01
30.000000 4.000000 5.237351E+01
30.000000 2.000000 3.565197E+01
30.000000 0.000000 1.424707E+01
30.000000 -2.000000 -8.825600E+00
30.000000 -4.000000 -3.177135E+01
30.000000 -6.000000 -6.643618E+01
30.000000 -8.000000 -1.163026E+02
30.000000 -10.000000 -1.658054E+02
30.000000 -12.000000 -1.817354E+02
30.000000 -14.000000 -1.600757E+02
30.000000 -16.000000 -1.042859E+02
30.000000 -18.000000 -4.059078E+01
30.000000 -20.000000 4.225006E+00
30.000000 -22.000000 2.101694E+01
30.000000 -24.000000 1.641540E+01
30.000000 -26.000000 9.730778E+00
30.000000 -28.000000 1.310829E+01
30.000000 -30.000000 2.000034E+01
30.000000 -32.000000 3.052763E+01
30.000000 -34.000000 3.496610E+01
30.000000 -36.000000 3.247405E+01
30.000000 -38.000000 2.686380E+01
30.000000 -40.000000 2.196504E+01
32.000000 40.000000 -5.723374E+00
32.000000 38.000000 -9.018891E+00
32.000000 36.000000 -1.646760E+01
32.000000 34.000000 -2.548689E+01
32.000000 32.000000 -1.708028E+01
32.000000 30.000000 5.237283E+00
32.000000 28.000000 2.930367E+01
32.000000 26.000000 4.135330E+01
32.000000 24.000000 4.135631E+01
32.000000 22.000000 3.905322E+01
32.000000 20.000000 4.646923E+01
32.000000 18.000000 6.032114E+01
32.000000 16.000000 7.084502E+01
32.000000 14.000000 7.665192E+01
32.000000 12.000000 7.385094E+01
32.000000 10.000000 6.253312E+01
32.000000 8.000000 4.716561E+01
32.000000 6.000000 3.678948E+01
32.000000 4.000000 2.918787E+01
32.000000 2.000000 1.747811E+01
32.000000 0.000000 2.259084E+00
32.000000 -2.000000 -1.349061E+01
32.000000 -4.000000 -3.061920E+01
32.000000 -6.000000 -6.530115E+01
32.000000 -8.000000 -1.206817E+02
32.000000 -10.000000 -1.781177E+02
32.000000 -12.000000 -1.974458E+02
32.000000 -14.000000 -1.743733E+02
32.000000 -16.000000 -1.156717E+02
32.000000 -18.000000 -4.999068E+01
32.000000 -20.000000 -3.197502E+00
32.000000 -22.000000 1.708219E+01
32.000000 -24.000000 1.756355E+01
32.000000 -26.000000 1.418730E+01
32.000000 -28.000000 1.555040E+01
32.000000 -30.000000 1.709411E+01
32.000000 -32.000000 2.328688E+01
32.000000 -34.000000 2.466686E+01
32.000000 -36.000000 2.075546E+01
32.000000 -38.000000 1.685616E+01
32.000000 -40.000000 1.488211E+01
34.000000 40.000000 -1.745953E+01
34.000000 38.000000 -1.875516E+01
34.000000 36.000000 -2.330969E+01
34.000000 34.000000 -3.090429E+01
34.000000 32.000000 -2.416077E+01
34.000000 30.000000 -2.342683E+00
34.000000 28.000000 2.519766E+01
34.000000 26.000000 4.611340E+01
34.000000 24.000000 5.962020E+01
34.000000 22.000000 6.536037E+01
34.000000 20.000000 7.188262E+01
34.000000 18.000000 7.216153E+01
34.000000 16.000000 6.444416E+01
34.000000 14.000000 5.496653E+01
34.000000 12.000000 4.427391E+01
34.000000 10.000000 2.863985E+01
34.000000 8.000000 1.268266E+01
34.000000 6.000000 1.111165E+00
34.000000 4.000000 -3.627222E+00
34.000000 2.000000 -1.075172E+01
34.000000 0.000000 -1.988310E+01
34.000000 -2.000000 -2.892986E+01
34.000000 -4.000000 -3.955437E+01
34.000000 -6.000000 -6.587583E+01
34.000000 -8.000000 -1.120568E+02
34.000000 -10.000000 -1.621239E+02
34.000000 -12.000000 -1.783947E+02
34.000000 -14.000000 -1.547400E+02
34.000000 -16.000000 -9.927057E+01
34.000000 -18.000000 -4.044974E+01
34.000000 -20.000000 -1.708927E-01
34.000000 -22.000000 1.670875E+01
34.000000 -24.000000 1.788457E+01
34.000000 -26.000000 1.397575E+01
34.000000 -28.000000 1.190736E+01
34.000000 -30.000000 9.689646E+00
34.000000 -32.000000 1.179348E+01
34.000000 -34.000000 1.080948E+01
34.000000 -36.000000 6.792458E+00
34.000000 -38.000000 3.969696E+00
34.000000 -40.000000 2.774910E+00
36.000000 40.000000 -3.220615E+01
36.000000 38.000000 -3.160482E+01
36.000000 36.000000 -3.193851E+01
36.000000 34.000000 -3.472973E+01
36.000000 32.000000 -2.535012E+01
36.000000 30.000000 -2.445115E+00
36.000000 28.000000 2.532466E+01
36.000000 26.000000 4.764797E+01
36.000000 24.000000 6.440056E+01
36.000000 22.000000 7.090515E+01
36.000000 20.000000 7.369826E+01
36.000000 18.000000 6.553032E+01
36.000000 16.000000 5.002096E+01
36.000000 14.000000 3.461411E+01
36.000000 12.000000 2.138577E+01
36.000000 10.000000 1.588774E+00
36.000000 8.000000 -1.847104E+01
36.000000 6.000000 -3.538262E+01
36.000000 4.000000 -4.078552E+01
36.000000 2.000000 -4.350697E+01
36.000000 0.000000 -4.527620E+01
36.000000 -2.000000 -4.679931E+01
36.000000 -4.000000 -4.868532E+01
36.000000 -6.000000 -6.027608E+01
36.000000 -8.000000 -9.001171E+01
36.000000 -10.000000 -1.245579E+02
36.000000 -12.000000 -1.352784E+02
36.000000 -14.000000 -1.141051E+02
36.000000 -16.000000 -6.794622E+01
36.000000 -18.000000 -2.266511E+01
36.000000 -20.000000 5.793425E+00
36.000000 -22.000000 1.631921E+01
36.000000 -24.000000 1.581344E+01
36.000000 -26.000000 9.798090E+00
36.000000 -28.000000 4.887623E+00
36.000000 -30.000000 1.709251E-01
36.000000 -32.000000 -1.534380E+00
36.000000 -34.000000 -4.616281E+00
36.000000 -36.000000 -8.520780E+00
36.000000 -38.000000 -1.090356E+01
36.000000 -40.000000 -1.262424E+01
38.000000 40.000000 -4.700745E+01
38.000000 38.000000 -4.697710E+01
38.000000 36.000000 -4.435085E+01
38.000000 34.000000 -3.990614E+01
38.000000 32.000000 -2.491024E+01
38.000000 30.000000 -1.119667E+00
38.000000 28.000000 2.405302E+01
38.000000 26.000000 4.118055E+01
38.000000 24.000000 5.175084E+01
38.000000 22.000000 5.419992E+01
38.000000 20.000000 5.460805E+01
38.000000 18.000000 4.915219E+01
38.000000 16.000000 3.962549E+01
38.000000 14.000000 2.927026E+01
38.000000 12.000000 1.753428E+01
38.000000 10.000000 -3.760736E+00
38.000000 8.000000 -3.011413E+01
38.000000 6.000000 -5.584767E+01
38.000000 4.000000 -6.878934E+01
38.000000 2.000000 -7.114549E+01
38.000000 0.000000 -6.747256E+01
38.000000 -2.000000 -6.054935E+01
38.000000 -4.000000 -5.278584E+01
38.000000 -6.000000 -4.940230E+01
38.000000 -8.000000 -6.255297E+01
38.000000 -10.000000 -8.157838E+01
38.000000 -12.000000 -8.840873E+01
38.000000 -14.000000 -7.307768E+01
38.000000 -16.000000 -3.918737E+01
38.000000 -18.000000 -9.914525E+00
38.000000 -20.000000 5.872931E+00
38.000000 -22.000000 1.080611E+01
38.000000 -24.000000 1.006407E+01
38.000000 -26.000000 3.923056E+00
38.000000 -28.000000 -3.000729E+00
38.000000 -30.000000 -1.049025E+01
38.000000 -32.000000 -1.537572E+01
38.000000 -34.000000 -2.050445E+01
38.000000 -36.000000 -2.485469E+01
38.000000 -38.000000 -2.656189E+01
38.000000 -40.000000 -2.834356E+01
40.000000 40.000000 -6.073402E+01
40.000000 38.000000 -6.289454E+01
40.000000 36.000000 -5.904223E+01
40.000000 34.000000 -4.885718E+01
40.000000 32.000000 -2.796152E+01
40.000000 30.000000 -2.086316E+00
40.000000 28.000000 2.108844E+01
40.000000 26.000000 3.166908E+01
40.000000 24.000000 3.128106E+01
40.000000 22.000000 2.639098E+01
40.000000 20.000000 2.565027E+01
40.000000 18.000000 2.927417E+01
40.000000 16.000000 3.289314E+01
40.000000 14.000000 3.407479E+01
40.000000 12.000000 2.754795E+01
40.000000 10.000000 9.326369E+00
40.000000 8.000000 -2.134896E+01
40.000000 6.000000 -5.440884E+01
40.000000 4.000000 -7.729389E+01
40.000000 2.000000 -8.376009E+01
40.000000 0.000000 -7.727265E+01
40.000000 -2.000000 -6.191115E+01
40.000000 -4.000000 -4.524547E+01
40.000000 -6.000000 -3.221152E+01
40.000000 -8.000000 -3.501234E+01
40.000000 -10.000000 -4.628100E+01
40.000000 -12.000000 -5.442418E+01
40.000000 -14.000000 -4.774969E+01
40.000000 -16.000000 -2.806172E+01
40.000000 -18.000000 -1.176799E+01
40.000000 -20.000000 -3.644176E+00
40.000000 -22.000000 -5.397263E-01
40.000000 -24.000000 3.432941E-01
40.000000 -26.000000 -3.840459E+00
40.000000 -28.000000 -1.213696E+01
40.000000 -30.000000 -2.242384E+01
40.000000 -32.000000 -3.018447E+01
40.000000 -34.000000 -3.679626E+01
40.000000 -36.000000 -4.124061E+01
40.000000 -38.000000 -4.133881E+01
40.000000 -40.000000 -4.165160E+01
42.000000 40.000000 -7.263079E+01
42.000000 38.000000 -7.686432E+01
42.000000 36.000000 -7.405696E+01
42.000000 34.000000 -6.129563E+01
42.000000 32.000000 -3.489038E+01
42.000000 30.000000 -4.747617E+00
42.000000 28.000000 1.851495E+01
42.000000 26.000000 2.515506E+01
42.000000 24.000000 1.522816E+01
42.000000 22.000000 1.785133E+00
42.000000 20.000000 -2.077312E+00
42.000000 18.000000 7.306152E+00
42.000000 16.000000 2.222502E+01
42.000000 14.000000 3.465099E+01
42.000000 12.000000 3.556644E+01
42.000000 10.000000 2.286345E+01
42.000000 8.000000 -6.932579E+00
42.000000 6.000000 -4.038223E+01
42.000000 4.000000 -6.671581E+01
42.000000 2.000000 -7.458585E+01
42.000000 0.000000 -6.453586E+01
42.000000 -2.000000 -4.361908E+01
42.000000 -4.000000 -2.146477E+01
42.000000 -6.000000 -6.006575E+00
42.000000 -8.000000 -8.163681E+00
42.000000 -10.000000 -2.101316E+01
42.000000 -12.000000 -3.625987E+01
42.000000 -14.000000 -4.059762E+01
42.000000 -16.000000 -3.571222E+01
42.000000 -18.000000 -2.885431E+01
42.000000 -20.000000 -2.272131E+01
42.000000 -22.000000 -1.687884E+01
42.000000 -24.000000 -1.282295E+01
42.000000 -26.000000 -1.530048E+01
42.000000 -28.000000 -2.447237E+01
42.000000 -30.000000 -3.663515E+01
42.000000 -32.000000 -4.644092E+01
42.000000 -34.000000 -5.329146E+01
42.000000 -36.000000 -5.641670E+01
42.000000 -38.000000 -5.365917E+01
42.000000 -40.000000 -5.119491E+01
44.000000 40.000000 -8.031314E+01
44.000000 38.000000 -8.657819E+01
44.000000 36.000000 -8.717422E+01
44.000000 34.000000 -7.452530E+01
44.000000 32.000000 -4.388632E+01
44.000000 30.000000 -9.044093E+00
44.000000 28.000000 1.584346E+01
44.000000 26.000000 2.129783E+01
44.000000 24.000000 6.655651E+00
44.000000 22.000000 -1.342011E+01
44.000000 20.000000 -2.245453E+01
44.000000 18.000000 -1.401301E+01
44.000000 16.000000 5.448091E+00
44.000000 14.000000 2.442302E+01
44.000000 12.000000 3.285905E+01
44.000000 10.000000 2.670641E+01
44.000000 8.000000 4.467034E+00
44.000000 6.000000 -2.124355E+01
44.000000 4.000000 -4.121029E+01
44.000000 2.000000 -4.460778E+01
44.000000 0.000000 -3.167286E+01
44.000000 -2.000000 -9.166505E+00
44.000000 -4.000000 1.383612E+01
44.000000 -6.000000 2.496399E+01
44.000000 -8.000000 1.543584E+01
44.000000 -10.000000 -5.658134E+00
44.000000 -12.000000 -3.213810E+01
44.000000 -14.000000 -4.846171E+01
44.000000 -16.000000 -5.523508E+01
44.000000 -18.000000 -5.450850E+01
44.000000 -20.000000 -4.657986E+01
44.000000 -22.000000 -3.542916E+01
44.000000 -24.000000 -2.722354E+01
44.000000 -26.000000 -2.884950E+01
44.000000 -28.000000 -3.920677E+01
44.000000 -30.000000 -5.263584E+01
44.000000 -32.000000 -6.322130E+01
44.000000 -34.000000 -6.895000E+01
44.000000 -36.000000 -6.914382E+01
44.000000 -38.000000 -6.275907E+01
44.000000 -40.000000 -5.686503E+01
46.000000 40.000000 -8.274916E+01
46.000000 38.000000 -9.064028E+01
46.000000 36.000000 -9.526736E+01
46.000000 34.000000 -8.492056E+01
46.000000 32.000000 -5.243696E+01
46.000000 30.000000 -1.395664E+01
46.000000 28.000000 1.356258E+01
46.000000 26.000000 1.922604E+01
46.000000 24.000000 2.029225E+00
46.000000 22.000000 -2.344863E+01
46.000000 20.000000 -3.778122E+01
46.000000 18.000000 -3.331898E+01
46.000000 16.000000 -1.352935E+01
46.000000 14.000000 8.472173E+00
46.000000 12.000000 2.323918E+01
46.000000 10.000000 2.477063E+01
46.000000 8.000000 1.456184E+01
46.000000 6.000000 2.217392E+00
46.000000 4.000000 -5.340230E+00
46.000000 2.000000 -2.967840E+00
46.000000 0.000000 9.625564E+00
46.000000 -2.000000 2.754877E+01
46.000000 -4.000000 4.580859E+01
46.000000 -6.000000 4.875386E+01
46.000000 -8.000000 2.941395E+01
46.000000 -10.000000 -1.260995E+00
46.000000 -12.000000 -3.760459E+01
46.000000 -14.000000 -6.399505E+01
46.000000 -16.000000 -7.816256E+01
46.000000 -18.000000 -7.976855E+01
46.000000 -20.000000 -6.900896E+01
46.000000 -22.000000 -5.277851E+01
46.000000 -24.000000 -4.134791E+01
46.000000 -26.000000 -4.309224E+01
46.000000 -28.000000 -5.466074E+01
46.000000 -30.000000 -6.802875E+01
46.000000 -32.000000 -7.834572E+01
46.000000 -34.000000 -8.207208E+01
46.000000 -36.000000 -7.836562E+01
46.000000 -38.000000 -6.801498E+01
46.000000 -40.000000 -5.838084E+01
48.000000 40.000000 -8.081723E+01
48.000000 38.000000 -8.844782E+01
48.000000 36.000000 -9.502554E+01
48.000000 34.000000 -8.830994E+01
48.000000 32.000000 -5.796889E+01
48.000000 30.000000 -1.853246E+01
48.000000 28.000000 1.150072E+01
48.000000 26.000000 1.827385E+01
48.000000 24.000000 -1.401891E+00
48.000000 22.000000 -3.239073E+01
48.000000 20.000000 -5.149741E+01
48.000000 18.000000 -4.986015E+01
48.000000 16.000000 -2.976224E+01
48.000000 14.000000 -5.295412E+00
48.000000 12.000000 1.524138E+01
48.000000 10.000000 2.587676E+01
48.000000 8.000000 2.800846E+01
48.000000 6.000000 2.980770E+01
48.000000 4.000000 3.340885E+01
48.000000 2.000000 3.656678E+01
48.000000 0.000000 4.330153E+01
48.000000 -2.000000 5.099553E+01
48.000000 -4.000000 5.924326E+01
48.000000 -6.000000 5.405254E+01
48.000000 -8.000000 2.910024E+01
48.000000 -10.000000 -6.987579E+00
48.000000 -12.000000 -4.765515E+01
48.000000 -14.000000 -7.891515E+01
48.000000 -16.000000 -9.613406E+01
48.000000 -18.000000 -9.818148E+01
48.000000 -20.000000 -8.609271E+01
48.000000 -22.000000 -6.775875E+01
48.000000 -24.000000 -5.442162E+01
48.000000 -26.000000 -5.665430E+01
48.000000 -28.000000 -6.880570E+01
48.000000 -30.000000 -8.033706E+01
48.000000 -32.000000 -8.889061E+01
48.000000 -34.000000 -9.015916E+01
48.000000 -36.000000 -8.272419E+01
48.000000 -38.000000 -6.861959E+01
48.000000 -40.000000 -5.556219E+01
50.000000 40.000000 -7.548845E+01
50.000000 38.000000 -8.031916E+01
50.000000 36.000000 -8.614323E+01
50.000000 34.000000 -8.428638E+01
50.000000 32.000000 -5.947261E+01
50.000000 30.000000 -2.161179E+01
50.000000 28.000000 1.075917E+01
50.000000 26.000000 1.939223E+01
50.000000 24.000000 -2.815936E+00
50.000000 22.000000 -3.949187E+01
50.000000 20.000000 -6.209111E+01
50.000000 18.000000 -5.964078E+01
50.000000 16.000000 -3.807187E+01
50.000000 14.000000 -1.144091E+01
50.000000 12.000000 1.384220E+01
50.000000 10.000000 3.299235E+01
50.000000 8.000000 4.271436E+01
50.000000 6.000000 5.280479E+01
50.000000 4.000000 6.030450E+01
50.000000 2.000000 5.917217E+01
50.000000 0.000000 5.663433E+01
50.000000 -2.000000 5.265449E+01
50.000000 -4.000000 4.923642E+01
50.000000 -6.000000 3.848377E+01
50.000000 -8.000000 1.388282E+01
50.000000 -10.000000 -2.131752E+01
50.000000 -12.000000 -5.956549E+01
50.000000 -14.000000 -8.869553E+01
50.000000 -16.000000 -1.037316E+02
50.000000 -18.000000 -1.046311E+02
50.000000 -20.000000 -9.273824E+01
50.000000 -22.000000 -7.688675E+01
50.000000 -24.000000 -6.570891E+01
50.000000 -26.000000 -6.792079E+01
50.000000 -28.000000 -7.894906E+01
50.000000 -30.000000 -8.828456E+01
50.000000 -32.000000 -9.350120E+01
50.000000 -34.000000 -9.149755E+01
50.000000 -36.000000 -8.061268E+01
50.000000 -38.000000 -6.432698E+01
50.000000 -40.000000 -4.989087E+01
52.000000 40.000000 -6.738260E+01
52.000000 38.000000 -6.830406E+01
52.000000 36.000000 -7.334863E+01
52.000000 34.000000 -7.637857E+01
52.000000 32.000000 -5.675426E+01
52.000000 30.000000 -2.105400E+01
52.000000 28.000000 1.347746E+01
52.000000 26.000000 2.445192E+01
52.000000 24.000000 2.455437E+00
52.000000 22.000000 -3.564604E+01
52.000000 20.000000 -5.877596E+01
52.000000 18.000000 -5.475975E+01
52.000000 16.000000 -3.362742E+01
52.000000 14.000000 -8.791330E+00
52.000000 12.000000 1.541078E+01
52.000000 10.000000 3.661020E+01
52.000000 8.000000 4.687640E+01
52.000000 6.000000 5.644186E+01
52.000000 4.000000 6.028820E+01
52.000000 2.000000 5.276423E+01
52.000000 0.000000 4.133665E+01
52.000000 -2.000000 2.847339E+01
52.000000 -4.000000 1.803182E+01
52.000000 -6.000000 6.991252E+00
52.000000 -8.000000 -1.199581E+01
52.000000 -10.000000 -3.986481E+01
52.000000 -12.000000 -6.898131E+01
52.000000 -14.000000 -8.997517E+01
52.000000 -16.000000 -9.809188E+01
52.000000 -18.000000 -9.514529E+01
52.000000 -20.000000 -8.499632E+01
52.000000 -22.000000 -7.478846E+01
52.000000 -24.000000 -7.163819E+01
52.000000 -26.000000 -7.597958E+01
52.000000 -28.000000 -8.396986E+01
52.000000 -30.000000 -9.111966E+01
52.000000 -32.000000 -9.299958E+01
52.000000 -34.000000 -8.720448E+01
52.000000 -36.000000 -7.234470E+01
52.000000 -38.000000 -5.549947E+01
52.000000 -40.000000 -4.303346E+01
54.000000 40.000000 -5.781704E+01
54.000000 38.000000 -5.621365E+01
54.000000 36.000000 -6.130285E+01
54.000000 34.000000 -6.590668E+01
54.000000 32.000000 -4.898246E+01
54.000000 30.000000 -1.600925E+01
54.000000 28.000000 1.801340E+01
54.000000 26.000000 3.128575E+01
54.000000 24.000000 1.571873E+01
54.000000 22.000000 -1.397577E+01
54.000000 20.000000 -3.108462E+01
54.000000 18.000000 -2.840181E+01
54.000000 16.000000 -1.530776E+01
54.000000 14.000000 -9.167200E-01
54.000000 12.000000 1.195019E+01
54.000000 10.000000 2.392497E+01
54.000000 8.000000 2.843485E+01
54.000000 6.000000 3.217535E+01
54.000000 4.000000 3.015732E+01
54.000000 2.000000 1.797512E+01
54.000000 0.000000 1.253966E+00
54.000000 -2.000000 -1.530553E+01
54.000000 -4.000000 -2.623586E+01
54.000000 -6.000000 -3.184971E+01
54.000000 -8.000000 -3.974071E+01
54.000000 -10.000000 -5.451729E+01
54.000000 -12.000000 -7.095937E+01
54.000000 -14.000000 -8.082063E+01
54.000000 -16.000000 -7.978055E+01
54.000000 -18.000000 -7.292025E+01
54.000000 -20.000000 -6.617844E+01
54.000000 -22.000000 -6.281905E+01
54.000000 -24.000000 -6.961685E+01
54.000000 -26.000000 -7.870010E+01
54.000000 -28.000000 -8.463484E+01
54.000000 -30.000000 -8.935295E+01
54.000000 -32.000000 -8.844155E+01
54.000000 -34.000000 -7.961847E+01
54.000000 -36.000000 -6.138260E+01
54.000000 -38.000000 -4.460175E+01
54.000000 -40.000000 -3.582237E+01
56.000000 40.000000 -5.173594E+01
56.000000 38.000000 -4.905577E+01
56.000000 36.000000 -5.333092E+01
56.000000 34.000000 -5.494163E+01
56.000000 32.000000 -3.805998E+01
56.000000 30.000000 -8.697639E+00
56.000000 28.000000 2.216784E+01
56.000000 26.000000 3.669284E+01
56.000000 24.000000 3.453054E+01
56.000000 22.000000 2.137023E+01
56.000000 20.000000 1.699158E+01
56.000000 18.000000 1.734798E+01
56.000000 16.000000 1.401728E+01
56.000000 14.000000 6.738518E+00
56.000000 12.000000 -2.380020E+00
56.000000 10.000000 -8.849632E+00
56.000000 8.000000 -1.350734E+01
56.000000 6.000000 -1.669451E+01
56.000000 4.000000 -2.126922E+01
56.000000 2.000000 -3.290672E+01
56.000000 0.000000 -4.973253E+01
56.000000 -2.000000 -6.439477E+01
56.000000 -4.000000 -7.128631E+01
56.000000 -6.000000 -6.766886E+01
56.000000 -8.000000 -6.175670E+01
56.000000 -10.000000 -6.071449E+01
56.000000 -12.000000 -6.344252E+01
56.000000 -14.000000 -6.249020E+01
56.000000 -16.000000 -5.409900E+01
56.000000 -18.000000 -4.559239E+01
56.000000 -20.000000 -4.252057E+01
56.000000 -22.000000 -4.676922E+01
56.000000 -24.000000 -6.146986E+01
56.000000 -26.000000 -7.521248E+01
56.000000 -28.000000 -8.151045E+01
56.000000 -30.000000 -8.495021E+01
56.000000 -32.000000 -8.143102E+01
56.000000 -34.000000 -7.167145E+01
56.000000 -36.000000 -5.321320E+01
56.000000 -38.000000 -3.878106E+01
56.000000 -40.000000 -3.174509E+01
58.000000 40.000000 -4.813544E+01
58.000000 38.000000 -4.304202E+01
58.000000 36.000000 -4.735867E+01
58.000000 34.000000 -4.831885E+01
58.000000 32.000000 -3.056206E+01
58.000000 30.000000 -3.782586E+00
58.000000 28.000000 2.380236E+01
58.000000 26.000000 4.129179E+01
58.000000 24.000000 4.782461E+01
58.000000 22.000000 4.860630E+01
58.000000 20.000000 5.404806E+01
58.000000 18.000000 5.199678E+01
58.000000 16.000000 3.510755E+01
58.000000 14.000000 1.052772E+01
58.000000 12.000000 -1.656685E+01
58.000000 10.000000 -3.880715E+01
58.000000 8.000000 -5.027732E+01
58.000000 6.000000 -5.934293E+01
58.000000 4.000000 -6.318341E+01
58.000000 2.000000 -7.079185E+01
58.000000 0.000000 -8.338167E+01
58.000000 -2.000000 -9.271275E+01
58.000000 -4.000000 -9.542417E+01
58.000000 -6.000000 -8.539361E+01
58.000000 -8.000000 -7.119427E+01
58.000000 -10.000000 -6.035093E+01
58.000000 -12.000000 -5.337835E+01
58.000000 -14.000000 -4.593122E+01
58.000000 -16.000000 -3.551726E+01
58.000000 -18.000000 -2.787878E+01
58.000000 -20.000000 -2.768256E+01
58.000000 -22.000000 -3.651109E+01
58.000000 -24.000000 -5.297867E+01
58.000000 -26.000000 -6.821558E+01
58.000000 -28.000000 -7.741352E+01
58.000000 -30.000000 -8.068897E+01
58.000000 -32.000000 -7.561354E+01
58.000000 -34.000000 -6.446674E+01
58.000000 -36.000000 -4.746192E+01
58.000000 -38.000000 -3.523199E+01
58.000000 -40.000000 -2.874387E+01
60.000000 40.000000 -4.600172E+01
60.000000 38.000000 -3.990236E+01
60.000000 36.000000 -4.239239E+01
60.000000 34.000000 -4.152262E+01
60.000000 32.000000 -2.380744E+01
60.000000 30.000000 8.606759E-01
60.000000 28.000000 2.621187E+01
60.000000 26.000000 4.327362E+01
60.000000 24.000000 5.641514E+01
60.000000 22.000000 6.496144E+01
60.000000 20.000000 7.587169E+01
60.000000 18.000000 7.176083E+01
60.000000 16.000000 4.605436E+01
60.000000 14.000000 1.134311E+01
60.000000 12.000000 -2.628550E+01
60.000000 10.000000 -5.976719E+01
