-30.000000 14.000000 3.584485E+01
-30.000000 12.000000 4.298401E+01
-30.000000 10.000000 4.818172E+01
-30.000000 8.000000 4.739050E+01
-30.000000 6.000000 4.618776E+01
-30.000000 4.000000 4.558284E+01
-30.000000 2.000000 4.497633E+01
-30.000000 0.000000 4.211491E+01
-30.000000 -2.000000 3.372069E+01
-30.000000 -4.000000 2.390386E+01
-30.000000 -6.000000 1.742064E+01
-30.000000 -8.000000 9.806422E+00
-30.000000 -10.000000 -2.856454E+00
-30.000000 -12.000000 -2.646750E+01
-30.000000 -14.000000 -5.094298E+01
-30.000000 -16.000000 -6.584154E+01
-30.000000 -18.000000 -6.860359E+01
-30.000000 -20.000000 -6.001259E+01
-30.000000 -22.000000 -4.151968E+01
-30.000000 -24.000000 -1.496370E+01
-30.000000 -26.000000 8.409634E+00
-30.000000 -28.000000 1.944390E+01
-30.000000 -30.000000 2.417396E+01
-30.000000 -32.000000 2.173678E+01
-30.000000 -34.000000 1.536826E+01
-30.000000 -36.000000 8.964481E+00
-30.000000 -38.000000 4.537344E+00
-30.000000 -40.000000 1.700624E+00
-28.000000 40.000000 5.412236E+01
-28.000000 38.000000 5.042682E+01
-28.000000 36.000000 4.245915E+01
-28.000000 34.000000 3.436423E+01
-28.000000 32.000000 3.408375E+01
-28.000000 30.000000 3.844258E+01
-28.000000 28.000000 5.130696E+01
-28.000000 26.000000 6.839711E+01
-28.000000 24.000000 8.262555E+01
-28.000000 22.000000 7.892947E+01
-28.000000 20.000000 6.530362E+01
-28.000000 18.000000 4.689810E+01
-28.000000 16.000000 3.910587E+01
-28.000000 14.000000 4.152632E+01
-28.000000 12.000000 4.650584E+01
-28.000000 10.000000 4.921755E+01
-28.000000 8.000000 4.637892E+01
-28.000000 6.000000 4.332482E+01
-28.000000 4.000000 4.298949E+01
-28.000000 2.000000 4.327370E+01
-28.000000 0.000000 4.148358E+01
-28.000000 -2.000000 3.433536E+01
-28.000000 -4.000000 2.559399E+01
-28.000000 -6.000000 2.212379E+01
-28.000000 -8.000000 1.552473E+01
-28.000000 -10.000000 3.192140E+00
-28.000000 -12.000000 -2.064955E+01
-28.000000 -14.000000 -4.626942E+01
-28.000000 -16.000000 -6.227923E+01
-28.000000 -18.000000 -6.459824E+01
-28.000000 -20.000000 -5.670422E+01
-28.000000 -22.000000 -3.933952E+01
-28.000000 -24.000000 -1.370803E+01
-28.000000 -26.000000 1.047300E+01
-28.000000 -28.000000 2.168531E+01
-28.000000 -30.000000 2.481262E+01
-28.000000 -32.000000 2.214201E+01
-28.000000 -34.000000 1.542919E+01
-28.000000 -36.000000 7.586824E+00
-28.000000 -38.000000 2.152266E+00
-28.000000 -40.000000 -9.627247E-01
-26.000000 40.000000 5.563258E+01
-26.000000 38.000000 5.269746E+01
-26.000000 36.000000 4.533179E+01
-26.000000 34.000000 3.493274E+01
-26.000000 32.000000 3.171185E+01
-26.000000 30.000000 3.278505E+01
-26.000000 28.000000 4.391952E+01
-26.000000 26.000000 6.148239E+01
-26.000000 24.000000 7.903808E+01
-26.000000 22.000000 7.886641E+01
-26.000000 20.000000 6.825984E+01
-26.000000 18.000000 5.343778E+01
-26.000000 16.000000 4.546776E+01
-26.000000 14.000000 4.537525E+01
-26.000000 12.000000 4.647572E+01
-26.000000 10.000000 4.590521E+01
-26.000000 8.000000 4.076798E+01
-26.000000 6.000000 3.632616E+01
-26.000000 4.000000 3.836279E+01
-26.000000 2.000000 4.037820E+01
-26.000000 0.000000 3.980458E+01
-26.000000 -2.000000 3.406781E+01
-26.000000 -4.000000 2.585826E+01
-26.000000 -6.000000 2.242533E+01
-26.000000 -8.000000 1.831083E+01
-26.000000 -10.000000 9.101969E+00
-26.000000 -12.000000 -1.103783E+01
-26.000000 -14.000000 -3.501455E+01
-26.000000 -16.000000 -5.123481E+01
-26.000000 -18.000000 -5.387377E+01
-26.000000 -20.000000 -4.754076E+01
-26.000000 -22.000000 -3.259404E+01
-26.000000 -24.000000 -6.890457E+00
-26.000000 -26.000000 1.471424E+01
-26.000000 -28.000000 2.169402E+01
-26.000000 -30.000000 2.293111E+01
-26.000000 -32.000000 1.976511E+01
-26.000000 -34.000000 1.294779E+01
-26.000000 -36.000000 4.699789E+00
-26.000000 -38.000000 -3.949966E-01
-26.000000 -40.000000 -2.956244E+00
-24.000000 40.000000 5.595000E+01
-24.000000 38.000000 5.473409E+01
-24.000000 36.000000 4.594288E+01
-24.000000 34.000000 3.360303E+01
-24.000000 32.000000 2.806300E+01
-24.000000 30.000000 2.611093E+01
-24.000000 28.000000 3.451804E+01
-24.000000 26.000000 5.129249E+01
-24.000000 24.000000 6.656017E+01
-24.000000 22.000000 7.064555E+01
-24.000000 20.000000 6.473421E+01
-24.000000 18.000000 5.505366E+01
-24.000000 16.000000 4.824565E+01
-24.000000 14.000000 4.548778E+01
-24.000000 12.000000 4.315245E+01
-24.000000 10.000000 3.932052E+01
-24.000000 8.000000 3.262862E+01
-24.000000 6.000000 2.889409E+01
-24.000000 4.000000 3.485623E+01
-24.000000 2.000000 3.846225E+01
-24.000000 0.000000 3.679369E+01
-24.000000 -2.000000 2.916115E+01
-24.000000 -4.000000 1.920780E+01
-24.000000 -6.000000 1.388733E+01
-24.000000 -8.000000 1.452726E+01
-24.000000 -10.000000 1.417901E+01
-24.000000 -12.000000 3.680393E+00
-24.000000 -14.000000 -1.401853E+01
-24.000000 -16.000000 -2.903608E+01
-24.000000 -18.000000 -3.402863E+01
-24.000000 -20.000000 -3.067453E+01
-24.000000 -22.000000 -1.991849E+01
-24.000000 -24.000000 1.341070E+00
-24.000000 -26.000000 1.904646E+01
-24.000000 -28.000000 2.262190E+01
-24.000000 -30.000000 2.014319E+01
-24.000000 -32.000000 1.451231E+01
-24.000000 -34.000000 7.347506E+00
-24.000000 -36.000000 1.441956E-02
-24.000000 -38.000000 -4.475374E+00
-24.000000 -40.000000 -6.688849E+00
-22.000000 40.000000 5.178217E+01
-22.000000 38.000000 5.277665E+01
-22.000000 36.000000 4.423035E+01
-22.000000 34.000000 3.135557E+01
-22.000000 32.000000 2.471027E+01
-22.000000 30.000000 2.103074E+01
-22.000000 28.000000 2.656152E+01
-22.000000 26.000000 3.996262E+01
-22.000000 24.000000 5.240284E+01
-22.000000 22.000000 5.710314E+01
-22.000000 20.000000 5.273689E+01
-22.000000 18.000000 4.709570E+01
-22.000000 16.000000 4.422650E+01
-22.000000 14.000000 4.353305E+01
-22.000000 12.000000 4.276312E+01
-22.000000 10.000000 3.774998E+01
-22.000000 8.000000 3.046135E+01
-22.000000 6.000000 2.764308E+01
-22.000000 4.000000 3.256903E+01
-22.000000 2.000000 3.334148E+01
-22.000000 0.000000 2.938690E+01
-22.000000 -2.000000 1.823949E+01
-22.000000 -4.000000 5.559098E+00
-22.000000 -6.000000 1.022639E+00
-22.000000 -8.000000 8.403075E+00
-22.000000 -10.000000 1.926351E+01
-22.000000 -12.000000 1.952763E+01
-22.000000 -14.000000 7.787845E+00
-22.000000 -16.000000 -7.153965E+00
-22.000000 -18.000000 -1.439974E+01
-22.000000 -20.000000 -1.351240E+01
-22.000000 -22.000000 -5.936679E+00
-22.000000 -24.000000 1.174775E+01
-22.000000 -26.000000 2.600266E+01
-22.000000 -28.000000 2.495601E+01
-22.000000 -30.000000 1.691589E+01
-22.000000 -32.000000 8.237335E+00
-22.000000 -34.000000 1.080080E+00
-22.000000 -36.000000 -6.225130E+00
-22.000000 -38.000000 -1.080505E+01
-22.000000 -40.000000 -1.328324E+01
-20.000000 40.000000 4.242291E+01
-20.000000 38.000000 4.520581E+01
-20.000000 36.000000 3.957801E+01
-20.000000 34.000000 2.819646E+01
-20.000000 32.000000 2.138904E+01
-20.000000 30.000000 1.659604E+01
-20.000000 28.000000 1.950882E+01
-20.000000 26.000000 3.021207E+01
-20.000000 24.000000 3.841603E+01
-20.000000 22.000000 4.137614E+01
-20.000000 20.000000 3.830095E+01
-20.000000 18.000000 3.766054E+01
-20.000000 16.000000 4.144374E+01
-20.000000 14.000000 4.699783E+01
-20.000000 12.000000 5.059344E+01
-20.000000 10.000000 4.426166E+01
-20.000000 8.000000 3.166154E+01
-20.000000 6.000000 2.412572E+01
-20.000000 4.000000 2.420426E+01
-20.000000 2.000000 2.168221E+01
-20.000000 0.000000 1.706198E+01
-20.000000 -2.000000 6.023463E+00
-20.000000 -4.000000 -6.559980E+00
-20.000000 -6.000000 -9.736184E+00
-20.000000 -8.000000 1.869451E+00
-20.000000 -10.000000 2.034610E+01
-20.000000 -12.000000 2.973021E+01
-20.000000 -14.000000 2.303984E+01
-20.000000 -16.000000 9.577594E+00
-20.000000 -18.000000 2.755959E+00
-20.000000 -20.000000 2.054042E+00
-20.000000 -22.000000 7.606374E+00
-20.000000 -24.000000 2.197099E+01
-20.000000 -26.000000 3.197390E+01
-20.000000 -28.000000 2.505718E+01
-20.000000 -30.000000 1.191571E+01
-20.000000 -32.000000 1.688856E+00
-20.000000 -34.000000 -4.669056E+00
-20.000000 -36.000000 -1.224584E+01
-20.000000 -38.000000 -1.801034E+01
-20.000000 -40.000000 -2.132292E+01
-18.000000 40.000000 3.209006E+01
-18.000000 38.000000 3.273916E+01
-18.000000 36.000000 2.831578E+01
-18.000000 34.000000 1.934415E+01
-18.000000 32.000000 1.420110E+01
-18.000000 30.000000 9.995796E+00
-18.000000 28.000000 1.220656E+01
-18.000000 26.000000 2.173331E+01
-18.000000 24.000000 2.591045E+01
-18.000000 22.000000 2.791989E+01
-18.000000 20.000000 2.856328E+01
-18.000000 18.000000 3.335911E+01
-18.000000 16.000000 4.415493E+01
-18.000000 14.000000 5.927618E+01
-18.000000 12.000000 7.009084E+01
-18.000000 10.000000 6.337507E+01
-18.000000 8.000000 3.932317E+01
-18.000000 6.000000 1.894146E+01
-18.000000 4.000000 9.660267E+00
-18.000000 2.000000 5.049610E+00
-18.000000 0.000000 1.772594E+00
-18.000000 -2.000000 -4.542036E+00
-18.000000 -4.000000 -1.181725E+01
-18.000000 -6.000000 -1.215064E+01
-18.000000 -8.000000 -1.602354E-01
-18.000000 -10.000000 1.854078E+01
-18.000000 -12.000000 3.001863E+01
-18.000000 -14.000000 2.472581E+01
-18.000000 -16.000000 1.372151E+01
-18.000000 -18.000000 9.692057E+00
-18.000000 -20.000000 1.004191E+01
-18.000000 -22.000000 1.541650E+01
-18.000000 -24.000000 2.655339E+01
-18.000000 -26.000000 3.214255E+01
-18.000000 -28.000000 2.088232E+01
-18.000000 -30.000000 5.287233E+00
-18.000000 -32.000000 -4.832862E+00
-18.000000 -34.000000 -1.035740E+01
-18.000000 -36.000000 -1.824777E+01
-18.000000 -38.000000 -2.531425E+01
-18.000000 -40.000000 -3.000111E+01
-16.000000 40.000000 2.202577E+01
-16.000000 38.000000 1.842179E+01
-16.000000 36.000000 1.249874E+01
-16.000000 34.000000 5.292423E+00
-16.000000 32.000000 3.039509E+00
-16.000000 30.000000 2.595268E+00
-16.000000 28.000000 7.157772E+00
-16.000000 26.000000 1.703197E+01
-16.000000 24.000000 1.770678E+01
-16.000000 22.000000 1.786035E+01
-16.000000 20.000000 2.008434E+01
-16.000000 18.000000 2.717981E+01
-16.000000 16.000000 4.431778E+01
-16.000000 14.000000 7.095287E+01
-16.000000 12.000000 9.275608E+01
-16.000000 10.000000 9.088226E+01
-16.000000 8.000000 5.707360E+01
-16.000000 6.000000 2.214671E+01
-16.000000 4.000000 4.502468E-01
-16.000000 2.000000 -8.280682E+00
-16.000000 0.000000 -8.904648E+00
-16.000000 -2.000000 -8.476412E+00
-16.000000 -4.000000 -7.147785E+00
-16.000000 -6.000000 -1.268157E+00
-16.000000 -8.000000 8.189866E+00
-16.000000 -10.000000 1.830945E+01
-16.000000 -12.000000 2.024374E+01
-16.000000 -14.000000 1.196215E+01
-16.000000 -16.000000 3.494786E+00
-16.000000 -18.000000 2.515251E+00
-16.000000 -20.000000 6.073444E+00
-16.000000 -22.000000 1.258769E+01
-16.000000 -24.000000 2.009055E+01
-16.000000 -26.000000 2.098209E+01
-16.000000 -28.000000 8.597914E+00
-16.000000 -30.000000 -6.086926E+00
-16.000000 -32.000000 -1.428698E+01
-16.000000 -34.000000 -1.785985E+01
-16.000000 -36.000000 -2.417185E+01
-16.000000 -38.000000 -3.093844E+01
-16.000000 -40.000000 -3.643871E+01
-14.000000 40.000000 8.906099E+00
-14.000000 38.000000 4.278534E+00
-14.000000 36.000000 -1.660328E+00
-14.000000 34.000000 -7.536823E+00
-14.000000 32.000000 -6.476074E+00
-14.000000 30.000000 -7.699547E-01
-14.000000 28.000000 8.827461E+00
-14.000000 26.000000 1.986549E+01
-14.000000 24.000000 1.775468E+01
-14.000000 22.000000 1.223292E+01
-14.000000 20.000000 8.626438E+00
-14.000000 18.000000 1.354992E+01
-14.000000 16.000000 3.674346E+01
-14.000000 14.000000 7.432862E+01
-14.000000 12.000000 1.079060E+02
-14.000000 10.000000 1.133795E+02
-14.000000 8.000000 7.632639E+01
-14.000000 6.000000 3.285194E+01
-14.000000 4.000000 2.892006E+00
-14.000000 2.000000 -8.350132E+00
-14.000000 0.000000 -7.587231E+00
-14.000000 -2.000000 -4.753887E+00
-14.000000 -4.000000 1.190956E+00
-14.000000 -6.000000 1.186031E+01
-14.000000 -8.000000 1.783830E+01
-14.000000 -10.000000 1.693527E+01
-14.000000 -12.000000 6.064069E+00
-14.000000 -14.000000 -6.655302E+00
-14.000000 -16.000000 -1.448516E+01
-14.000000 -18.000000 -1.439198E+01
-14.000000 -20.000000 -8.489796E+00
-14.000000 -22.000000 -4.052162E-01
-14.000000 -24.000000 4.107877E+00
-14.000000 -26.000000 5.101166E-01
-14.000000 -28.000000 -1.190740E+01
-14.000000 -30.000000 -2.294436E+01
-14.000000 -32.000000 -2.701508E+01
-14.000000 -34.000000 -2.736873E+01
-14.000000 -36.000000 -3.125006E+01
-14.000000 -38.000000 -3.618458E+01
-14.000000 -40.000000 -3.991776E+01
-12.000000 40.000000 -5.540586E+00
-12.000000 38.000000 -8.292334E+00
-12.000000 36.000000 -1.278894E+01
-12.000000 34.000000 -1.696753E+01
-12.000000 32.000000 -1.204684E+01
-12.000000 30.000000 8.495750E-01
-12.000000 28.000000 1.664219E+01
-12.000000 26.000000 2.879102E+01
-12.000000 24.000000 2.434769E+01
-12.000000 22.000000 1.152091E+01
-12.000000 20.000000 3.972626E-02
-12.000000 18.000000 2.223553E+00
-12.000000 16.000000 3.109194E+01
-12.000000 14.000000 7.578144E+01
-12.000000 12.000000 1.162490E+02
-12.000000 10.000000 1.247828E+02
-12.000000 8.000000 8.685176E+01
-12.000000 6.000000 3.981787E+01
-12.000000 4.000000 6.120512E+00
-12.000000 2.000000 -5.009521E+00
-12.000000 0.000000 -2.846851E+00
-12.000000 -2.000000 -7.413712E-01
-12.000000 -4.000000 4.112724E+00
-12.000000 -6.000000 1.633896E+01
-12.000000 -8.000000 2.015563E+01
-12.000000 -10.000000 1.233761E+01
-12.000000 -12.000000 -6.677430E+00
-12.000000 -14.000000 -2.372036E+01
-12.000000 -16.000000 -3.362312E+01
-12.000000 -18.000000 -3.521343E+01
-12.000000 -20.000000 -2.860875E+01
-12.000000 -22.000000 -1.951860E+01
-12.000000 -24.000000 -1.594404E+01
-12.000000 -26.000000 -2.113699E+01
-12.000000 -28.000000 -3.346395E+01
-12.000000 -30.000000 -4.030139E+01
-12.000000 -32.000000 -3.959402E+01
-12.000000 -34.000000 -3.738504E+01
-12.000000 -36.000000 -3.932517E+01
-12.000000 -38.000000 -4.216682E+01
-12.000000 -40.000000 -4.271318E+01
-10.000000 40.000000 -1.924089E+01
-10.000000 38.000000 -1.874466E+01
-10.000000 36.000000 -2.106170E+01
-10.000000 34.000000 -2.232306E+01
-10.000000 32.000000 -1.274104E+01
-10.000000 30.000000 6.204399E+00
-10.000000 28.000000 2.686457E+01
-10.000000 26.000000 3.945968E+01
-10.000000 24.000000 3.408072E+01
-10.000000 22.000000 1.657252E+01
-10.000000 20.000000 1.229504E+00
-10.000000 18.000000 3.629070E+00
-10.000000 16.000000 3.660877E+01
-10.000000 14.000000 8.362945E+01
-10.000000 12.000000 1.221340E+02
-10.000000 10.000000 1.255861E+02
-10.000000 8.000000 8.527602E+01
-10.000000 6.000000 3.629254E+01
-10.000000 4.000000 5.844650E-01
-10.000000 2.000000 -1.008588E+01
-10.000000 0.000000 -4.912239E+00
-10.000000 -2.000000 -2.534510E+00
-10.000000 -4.000000 -1.164677E+00
-10.000000 -6.000000 8.956576E+00
-10.000000 -8.000000 1.065387E+01
-10.000000 -10.000000 -4.745922E-01
-10.000000 -12.000000 -2.002996E+01
-10.000000 -14.000000 -3.813688E+01
-10.000000 -16.000000 -5.032231E+01
-10.000000 -18.000000 -5.461909E+01
-10.000000 -20.000000 -5.002019E+01
-10.000000 -22.000000 -4.103470E+01
-10.000000 -24.000000 -3.464511E+01
-10.000000 -26.000000 -3.710752E+01
-10.000000 -28.000000 -4.733266E+01
-10.000000 -30.000000 -5.217671E+01
-10.000000 -32.000000 -4.894564E+01
-10.000000 -34.000000 -4.588610E+01
-10.000000 -36.000000 -4.619522E+01
-10.000000 -38.000000 -4.756539E+01
-10.000000 -40.000000 -4.643910E+01
-8.000000 40.000000 -3.239348E+01
-8.000000 38.000000 -2.778603E+01
-8.000000 36.000000 -2.621438E+01
-8.000000 34.000000 -2.304543E+01
-8.000000 32.000000 -9.524345E+00
-8.000000 30.000000 1.171149E+01
-8.000000 28.000000 3.365687E+01
-8.000000 26.000000 4.692379E+01
-8.000000 24.000000 4.511223E+01
-8.000000 22.000000 2.781853E+01
-8.000000 20.000000 1.254982E+01
-8.000000 18.000000 1.707906E+01
-8.000000 16.000000 5.295234E+01
-8.000000 14.000000 1.005396E+02
-8.000000 12.000000 1.298375E+02
-8.000000 10.000000 1.190901E+02
-8.000000 8.000000 7.155544E+01
-8.000000 6.000000 2.154484E+01
-8.000000 4.000000 -1.075659E+01
-8.000000 2.000000 -1.954192E+01
-8.000000 0.000000 -1.311273E+01
-8.000000 -2.000000 -1.120567E+01
-8.000000 -4.000000 -1.406839E+01
-8.000000 -6.000000 -9.429670E+00
-8.000000 -8.000000 -9.367826E+00
-8.000000 -10.000000 -1.991265E+01
-8.000000 -12.000000 -3.547376E+01
-8.000000 -14.000000 -5.191567E+01
-8.000000 -16.000000 -6.500064E+01
-8.000000 -18.000000 -7.027749E+01
-8.000000 -20.000000 -6.772836E+01
-8.000000 -22.000000 -5.850395E+01
-8.000000 -24.000000 -4.663664E+01
-8.000000 -26.000000 -4.345199E+01
-8.000000 -28.000000 -5.044690E+01
-8.000000 -30.000000 -5.529377E+01
-8.000000 -32.000000 -5.289227E+01
-8.000000 -34.000000 -5.120151E+01
-8.000000 -36.000000 -5.194121E+01
-8.000000 -38.000000 -5.334764E+01
-8.000000 -40.000000 -5.151363E+01
-6.000000 40.000000 -4.258797E+01
-6.000000 38.000000 -3.479760E+01
-6.000000 36.000000 -2.935723E+01
-6.000000 34.000000 -2.221769E+01
-6.000000 32.000000 -6.855736E+00
-6.000000 30.000000 1.241788E+01
-6.000000 28.000000 3.212826E+01
-6.000000 26.000000 4.787674E+01
-6.000000 24.000000 5.270140E+01
-6.000000 22.000000 3.795771E+01
-6.000000 20.000000 2.413362E+01
-6.000000 18.000000 3.105724E+01
-6.000000 16.000000 7.093214E+01
-6.000000 14.000000 1.195429E+02
-6.000000 12.000000 1.377729E+02
-6.000000 10.000000 1.080508E+02
-6.000000 8.000000 5.130304E+01
-6.000000 6.000000 4.222464E+00
-6.000000 4.000000 -1.894476E+01
-6.000000 2.000000 -2.497951E+01
-6.000000 0.000000 -2.161517E+01
-6.000000 -2.000000 -2.266607E+01
-6.000000 -4.000000 -2.798626E+01
-6.000000 -6.000000 -2.688352E+01
-6.000000 -8.000000 -2.565476E+01
-6.000000 -10.000000 -3.314601E+01
-6.000000 -12.000000 -4.665977E+01
-6.000000 -14.000000 -6.324480E+01
-6.000000 -16.000000 -7.747169E+01
-6.000000 -18.000000 -8.289629E+01
-6.000000 -20.000000 -7.848077E+01
-6.000000 -22.000000 -6.589989E+01
-6.000000 -24.000000 -4.888108E+01
-6.000000 -26.000000 -4.027197E+01
-6.000000 -28.000000 -4.458160E+01
-6.000000 -30.000000 -4.989552E+01
-6.000000 -32.000000 -5.154920E+01
-6.000000 -34.000000 -5.442422E+01
-6.000000 -36.000000 -5.839746E+01
-6.000000 -38.000000 -6.062290E+01
-6.000000 -40.000000 -5.755099E+01
-4.000000 40.000000 -4.810217E+01
-4.000000 38.000000 -3.854937E+01
-4.000000 36.000000 -3.093381E+01
-4.000000 34.000000 -2.181748E+01
-4.000000 32.000000 -7.036718E+00
-4.000000 30.000000 7.584894E+00
-4.000000 28.000000 2.296687E+01
-4.000000 26.000000 4.083098E+01
-4.000000 24.000000 4.839985E+01
-4.000000 22.000000 3.410386E+01
-4.000000 20.000000 2.000182E+01
-4.000000 18.000000 2.984906E+01
-4.000000 16.000000 7.636050E+01
-4.000000 14.000000 1.283983E+02
-4.000000 12.000000 1.415961E+02
-4.000000 10.000000 1.009264E+02
-4.000000 8.000000 3.994031E+01
-4.000000 6.000000 -3.517231E+00
-4.000000 4.000000 -2.114067E+01
-4.000000 2.000000 -2.528979E+01
-4.000000 0.000000 -2.488631E+01
-4.000000 -2.000000 -2.760326E+01
-4.000000 -4.000000 -3.162951E+01
-4.000000 -6.000000 -2.888672E+01
-4.000000 -8.000000 -2.468648E+01
-4.000000 -10.000000 -2.956596E+01
-4.000000 -12.000000 -4.435552E+01
-4.000000 -14.000000 -6.395085E+01
-4.000000 -16.000000 -8.189437E+01
-4.000000 -18.000000 -8.961275E+01
-4.000000 -20.000000 -8.281666E+01
-4.000000 -22.000000 -6.577343E+01
-4.000000 -24.000000 -4.477003E+01
-4.000000 -26.000000 -3.172838E+01
-4.000000 -28.000000 -3.403377E+01
-4.000000 -30.000000 -4.075830E+01
-4.000000 -32.000000 -4.842968E+01
-4.000000 -34.000000 -5.774524E+01
-4.000000 -36.000000 -6.562838E+01
-4.000000 -38.000000 -6.736006E+01
-4.000000 -40.000000 -6.261997E+01
-2.000000 40.000000 -5.035535E+01
-2.000000 38.000000 -3.949309E+01
-2.000000 36.000000 -3.029553E+01
-2.000000 34.000000 -2.020988E+01
-2.000000 32.000000 -8.102583E+00
-2.000000 30.000000 1.801662E-01
-2.000000 28.000000 8.985138E+00
-2.000000 26.000000 2.410257E+01
-2.000000 24.000000 2.869362E+01
-2.000000 22.000000 1.297158E+01
-2.000000 20.000000 -5.114811E+00
-2.000000 18.000000 6.247677E+00
-2.000000 16.000000 6.113054E+01
-2.000000 14.000000 1.198703E+02
-2.000000 12.000000 1.400022E+02
-2.000000 10.000000 1.086028E+02
-2.000000 8.000000 5.107416E+01
-2.000000 6.000000 5.179741E+00
-2.000000 4.000000 -1.688049E+01
-2.000000 2.000000 -2.322867E+01
-2.000000 0.000000 -2.447041E+01
-2.000000 -2.000000 -2.533262E+01
-2.000000 -4.000000 -2.422884E+01
-2.000000 -6.000000 -1.594755E+01
-2.000000 -8.000000 -8.089874E+00
-2.000000 -10.000000 -9.947610E+00
-2.000000 -12.000000 -2.576030E+01
-2.000000 -14.000000 -4.829507E+01
-2.000000 -16.000000 -7.092295E+01
-2.000000 -18.000000 -8.329531E+01
-2.000000 -20.000000 -7.906214E+01
-2.000000 -22.000000 -6.171344E+01
-2.000000 -24.000000 -3.907678E+01
-2.000000 -26.000000 -2.382444E+01
-2.000000 -28.000000 -2.487128E+01
-2.000000 -30.000000 -3.289474E+01
-2.000000 -32.000000 -4.493334E+01
-2.000000 -34.000000 -5.980532E+01
-2.000000 -36.000000 -7.119349E+01
-2.000000 -38.000000 -7.235219E+01
-2.000000 -40.000000 -6.639567E+01
0.000000 40.000000 -5.023467E+01
0.000000 38.000000 -3.875639E+01
0.000000 36.000000 -2.899314E+01
0.000000 34.000000 -1.806850E+01
0.000000 32.000000 -9.227924E+00
0.000000 30.000000 -7.759529E+00
0.000000 28.000000 -6.337555E+00
0.000000 26.000000 2.218033E+00
0.000000 24.000000 1.150402E+00
0.000000 22.000000 -1.454675E+01
0.000000 20.000000 -3.478857E+01
0.000000 18.000000 -2.374959E+01
0.000000 16.000000 3.378078E+01
0.000000 14.000000 9.857491E+01
0.000000 12.000000 1.326929E+02
0.000000 10.000000 1.202362E+02
0.000000 8.000000 7.135386E+01
0.000000 6.000000 2.311804E+01
0.000000 4.000000 -8.000624E+00
0.000000 2.000000 -2.179377E+01
0.000000 0.000000 -2.657254E+01
0.000000 -2.000000 -2.558265E+01
0.000000 -4.000000 -1.773424E+01
0.000000 -6.000000 -1.196402E+00
0.000000 -8.000000 1.231226E+01
0.000000 -10.000000 1.651467E+01
0.000000 -12.000000 3.281074E+00
0.000000 -14.000000 -1.799224E+01
0.000000 -16.000000 -4.315630E+01
0.000000 -18.000000 -6.185633E+01
0.000000 -20.000000 -6.484640E+01
0.000000 -22.000000 -5.255391E+01
0.000000 -24.000000 -3.257782E+01
0.000000 -26.000000 -1.865701E+01
0.000000 -28.000000 -1.844974E+01
0.000000 -30.000000 -2.595122E+01
0.000000 -32.000000 -3.935648E+01
0.000000 -34.000000 -5.860322E+01
0.000000 -36.000000 -7.411666E+01
0.000000 -38.000000 -7.649297E+01
0.000000 -40.000000 -7.028930E+01
2.000000 40.000000 -4.988626E+01
2.000000 38.000000 -3.745023E+01
2.000000 36.000000 -2.731727E+01
2.000000 34.000000 -1.622356E+01
2.000000 32.000000 -1.010099E+01
2.000000 30.000000 -1.300509E+01
2.000000 28.000000 -1.567418E+01
2.000000 26.000000 -1.237823E+01
2.000000 24.000000 -1.904897E+01
2.000000 22.000000 -3.399446E+01
2.000000 20.000000 -5.281614E+01
2.000000 18.000000 -4.381808E+01
2.000000 16.000000 6.554762E+00
2.000000 14.000000 7.078183E+01
2.000000 12.000000 1.162552E+02
2.000000 10.000000 1.231009E+02
2.000000 8.000000 8.825700E+01
2.000000 6.000000 4.103634E+01
2.000000 4.000000 -1.380531E+00
2.000000 2.000000 -2.706723E+01
2.000000 0.000000 -3.748854E+01
2.000000 -2.000000 -3.511534E+01
2.000000 -4.000000 -1.932727E+01
2.000000 -6.000000 7.151844E+00
2.000000 -8.000000 2.639356E+01
2.000000 -10.000000 3.650465E+01
2.000000 -12.000000 2.842618E+01
2.000000 -14.000000 1.265528E+01
2.000000 -16.000000 -1.012512E+01
2.000000 -18.000000 -3.287036E+01
2.000000 -20.000000 -4.327395E+01
2.000000 -22.000000 -3.741571E+01
2.000000 -24.000000 -2.248960E+01
2.000000 -26.000000 -1.273271E+01
2.000000 -28.000000 -1.361311E+01
2.000000 -30.000000 -2.012968E+01
2.000000 -32.000000 -3.282898E+01
2.000000 -34.000000 -5.504154E+01
2.000000 -36.000000 -7.547485E+01
2.000000 -38.000000 -8.005246E+01
2.000000 -40.000000 -7.325294E+01
4.000000 40.000000 -5.150899E+01
4.000000 38.000000 -3.706036E+01
4.000000 36.000000 -2.587776E+01
4.000000 34.000000 -1.542240E+01
4.000000 32.000000 -1.057582E+01
4.000000 30.000000 -1.360386E+01
4.000000 28.000000 -1.489378E+01
4.000000 26.000000 -1.108793E+01
4.000000 24.000000 -1.883211E+01
4.000000 22.000000 -3.531523E+01
4.000000 20.000000 -5.519562E+01
4.000000 18.000000 -5.264139E+01
4.000000 16.000000 -1.422503E+01
4.000000 14.000000 4.331357E+01
4.000000 12.000000 9.472023E+01
4.000000 10.000000 1.180802E+02
4.000000 8.000000 9.940222E+01
4.000000 6.000000 5.639916E+01
4.000000 4.000000 5.414265E+00
4.000000 2.000000 -3.305690E+01
4.000000 0.000000 -5.313333E+01
4.000000 -2.000000 -5.295829E+01
4.000000 -4.000000 -3.100797E+01
4.000000 -6.000000 3.919316E+00
4.000000 -8.000000 2.618609E+01
4.000000 -10.000000 3.647169E+01
4.000000 -12.000000 3.240445E+01
4.000000 -14.000000 2.471336E+01
4.000000 -16.000000 1.054001E+01
4.000000 -18.000000 -9.427791E+00
4.000000 -20.000000 -2.242235E+01
4.000000 -22.000000 -2.077845E+01
4.000000 -24.000000 -1.113106E+01
4.000000 -26.000000 -6.840698E+00
4.000000 -28.000000 -1.059562E+01
4.000000 -30.000000 -1.646964E+01
4.000000 -32.000000 -2.748500E+01
4.000000 -34.000000 -5.096683E+01
4.000000 -36.000000 -7.542578E+01
4.000000 -38.000000 -8.197479E+01
4.000000 -40.000000 -7.359829E+01
6.000000 40.000000 -5.411248E+01
6.000000 38.000000 -3.751565E+01
6.000000 36.000000 -2.562173E+01
6.000000 34.000000 -1.532095E+01
6.000000 32.000000 -9.602530E+00
6.000000 30.000000 -1.028204E+01
6.000000 28.000000 -7.663939E+00
6.000000 26.000000 2.792530E-01
6.000000 24.000000 -2.919153E+00
6.000000 22.000000 -2.090470E+01
6.000000 20.000000 -4.358181E+01
6.000000 18.000000 -5.153745E+01
6.000000 16.000000 -2.807941E+01
6.000000 14.000000 2.097033E+01
6.000000 12.000000 7.672726E+01
6.000000 10.000000 1.143474E+02
6.000000 8.000000 1.113657E+02
6.000000 6.000000 7.662590E+01
6.000000 4.000000 2.069449E+01
6.000000 2.000000 -3.219791E+01
6.000000 0.000000 -6.638155E+01
6.000000 -2.000000 -7.283353E+01
6.000000 -4.000000 -4.891376E+01
6.000000 -6.000000 -9.488159E+00
6.000000 -8.000000 1.254238E+01
6.000000 -10.000000 1.646397E+01
6.000000 -12.000000 1.034829E+01
6.000000 -14.000000 7.054489E+00
6.000000 -16.000000 2.543663E+00
6.000000 -18.000000 -6.393288E+00
6.000000 -20.000000 -1.293148E+01
6.000000 -22.000000 -1.128542E+01
6.000000 -24.000000 -5.597383E+00
6.000000 -26.000000 -5.054367E+00
6.000000 -28.000000 -1.033534E+01
6.000000 -30.000000 -1.599679E+01
6.000000 -32.000000 -2.617347E+01
6.000000 -34.000000 -4.932642E+01
6.000000 -36.000000 -7.347680E+01
6.000000 -38.000000 -7.944990E+01
6.000000 -40.000000 -6.961609E+01
8.000000 40.000000 -5.632554E+01
8.000000 38.000000 -3.780228E+01
8.000000 36.000000 -2.553119E+01
8.000000 34.000000 -1.462823E+01
8.000000 32.000000 -6.906319E+00
8.000000 30.000000 -4.513723E+00
8.000000 28.000000 1.575979E+00
8.000000 26.000000 1.293527E+01
8.000000 24.000000 1.598846E+01
8.000000 22.000000 -1.130526E+00
8.000000 20.000000 -2.761402E+01
8.000000 18.000000 -4.641509E+01
8.000000 16.000000 -3.436540E+01
8.000000 14.000000 9.968853E+00
8.000000 12.000000 7.197837E+01
8.000000 10.000000 1.223642E+02
8.000000 8.000000 1.314604E+02
8.000000 6.000000 1.034416E+02
8.000000 4.000000 3.945162E+01
8.000000 2.000000 -3.120670E+01
8.000000 0.000000 -7.904967E+01
8.000000 -2.000000 -9.072776E+01
8.000000 -4.000000 -6.673991E+01
8.000000 -6.000000 -2.586233E+01
8.000000 -8.000000 -6.610074E+00
8.000000 -10.000000 -1.092630E+01
8.000000 -12.000000 -2.419190E+01
8.000000 -14.000000 -3.186523E+01
8.000000 -16.000000 -3.241186E+01
8.000000 -18.000000 -2.759172E+01
8.000000 -20.000000 -2.179869E+01
8.000000 -22.000000 -1.486388E+01
8.000000 -24.000000 -9.148843E+00
8.000000 -26.000000 -9.139467E+00
8.000000 -28.000000 -1.487750E+01
8.000000 -30.000000 -2.118558E+01
8.000000 -32.000000 -3.125194E+01
8.000000 -34.000000 -5.163186E+01
8.000000 -36.000000 -6.944247E+01
8.000000 -38.000000 -7.150353E+01
8.000000 -40.000000 -6.107777E+01
10.000000 40.000000 -5.831129E+01
10.000000 38.000000 -3.832016E+01
10.000000 36.000000 -2.535908E+01
10.000000 34.000000 -1.450584E+01
10.000000 32.000000 -5.356857E+00
10.000000 30.000000 7.311954E-01
10.000000 28.000000 1.046981E+01
10.000000 26.000000 2.464227E+01
10.000000 24.000000 3.198261E+01
10.000000 22.000000 1.782049E+01
10.000000 20.000000 -1.052278E+01
10.000000 18.000000 -3.597997E+01
10.000000 16.000000 -2.741663E+01
10.000000 14.000000 1.692681E+01
10.000000 12.000000 8.372333E+01
10.000000 10.000000 1.404602E+02
10.000000 8.000000 1.513280E+02
10.000000 6.000000 1.209937E+02
10.000000 4.000000 4.737064E+01
10.000000 2.000000 -3.636424E+01
10.000000 0.000000 -9.338090E+01
10.000000 -2.000000 -1.078074E+02
10.000000 -4.000000 -8.410563E+01
10.000000 -6.000000 -4.237048E+01
10.000000 -8.000000 -2.443474E+01
10.000000 -10.000000 -3.407360E+01
10.000000 -12.000000 -5.539152E+01
10.000000 -14.000000 -7.138081E+01
10.000000 -16.000000 -7.288528E+01
10.000000 -18.000000 -5.920872E+01
10.000000 -20.000000 -4.182825E+01
10.000000 -22.000000 -2.877463E+01
10.000000 -24.000000 -2.165935E+01
10.000000 -26.000000 -2.037929E+01
10.000000 -28.000000 -2.513145E+01
10.000000 -30.000000 -3.195316E+01
10.000000 -32.000000 -4.094538E+01
10.000000 -34.000000 -5.637000E+01
10.000000 -36.000000 -6.522005E+01
10.000000 -38.000000 -6.258542E+01
10.000000 -40.000000 -5.107928E+01
12.000000 40.000000 -6.001641E+01
12.000000 38.000000 -3.970818E+01
12.000000 36.000000 -2.585803E+01
12.000000 34.000000 -1.502702E+01
12.000000 32.000000 -5.181488E+00
12.000000 30.000000 3.500278E+00
12.000000 28.000000 1.590308E+01
12.000000 26.000000 3.173367E+01
12.000000 24.000000 4.064195E+01
12.000000 22.000000 3.184056E+01
12.000000 20.000000 8.167694E+00
12.000000 18.000000 -1.446748E+01
12.000000 16.000000 -2.813663E+00
12.000000 14.000000 4.382789E+01
12.000000 12.000000 1.098481E+02
12.000000 10.000000 1.635373E+02
12.000000 8.000000 1.642091E+02
12.000000 6.000000 1.211393E+02
12.000000 4.000000 3.700177E+01
12.000000 2.000000 -5.097317E+01
12.000000 0.000000 -1.104434E+02
12.000000 -2.000000 -1.247273E+02
12.000000 -4.000000 -9.991884E+01
12.000000 -6.000000 -5.626488E+01
12.000000 -8.000000 -3.630567E+01
12.000000 -10.000000 -4.658797E+01
12.000000 -12.000000 -7.491400E+01
12.000000 -14.000000 -9.812587E+01
12.000000 -16.000000 -1.028902E+02
12.000000 -18.000000 -8.675551E+01
12.000000 -20.000000 -6.236375E+01
12.000000 -22.000000 -4.577465E+01
12.000000 -24.000000 -3.799860E+01
12.000000 -26.000000 -3.627626E+01
12.000000 -28.000000 -4.003912E+01
12.000000 -30.000000 -4.673662E+01
12.000000 -32.000000 -5.345736E+01
12.000000 -34.000000 -6.236113E+01
12.000000 -36.000000 -6.275683E+01
12.000000 -38.000000 -5.589609E+01
12.000000 -40.000000 -4.185697E+01
14.000000 40.000000 -6.166898E+01
14.000000 38.000000 -4.159738E+01
14.000000 36.000000 -2.662199E+01
14.000000 34.000000 -1.479471E+01
14.000000 32.000000 -5.099475E+00
14.000000 30.000000 3.396910E+00
14.000000 28.000000 1.654560E+01
14.000000 26.000000 3.287733E+01
14.000000 24.000000 4.307662E+01
14.000000 22.000000 4.199047E+01
14.000000 20.000000 2.900304E+01
14.000000 18.000000 1.729200E+01
14.000000 16.000000 3.445208E+01
14.000000 14.000000 8.172592E+01
14.000000 12.000000 1.402547E+02
14.000000 10.000000 1.817579E+02
14.000000 8.000000 1.657496E+02
14.000000 6.000000 1.079658E+02
14.000000 4.000000 1.660405E+01
14.000000 2.000000 -6.902913E+01
14.000000 0.000000 -1.249290E+02
14.000000 -2.000000 -1.364233E+02
14.000000 -4.000000 -1.098792E+02
14.000000 -6.000000 -6.491417E+01
14.000000 -8.000000 -4.322127E+01
14.000000 -10.000000 -5.226276E+01
14.000000 -12.000000 -8.468806E+01
14.000000 -14.000000 -1.110012E+02
14.000000 -16.000000 -1.179119E+02
14.000000 -18.000000 -1.033846E+02
14.000000 -20.000000 -8.010881E+01
14.000000 -22.000000 -6.197863E+01
14.000000 -24.000000 -5.211066E+01
14.000000 -26.000000 -5.140267E+01
14.000000 -28.000000 -5.737926E+01
14.000000 -30.000000 -6.444737E+01
14.000000 -32.000000 -6.696113E+01
14.000000 -34.000000 -6.766374E+01
14.000000 -36.000000 -6.071013E+01
14.000000 -38.000000 -5.021559E+01
14.000000 -40.000000 -3.356925E+01
16.000000 40.000000 -6.440971E+01
16.000000 38.000000 -4.362325E+01
16.000000 36.000000 -2.645928E+01
16.000000 34.000000 -1.283785E+01
16.000000 32.000000 -3.720313E+00
16.000000 30.000000 2.503381E+00
16.000000 28.000000 1.440850E+01
16.000000 26.000000 3.210038E+01
16.000000 24.000000 4.595916E+01
16.000000 22.000000 5.202146E+01
16.000000 20.000000 4.972386E+01
16.000000 18.000000 4.770260E+01
16.000000 16.000000 6.709818E+01
16.000000 14.000000 1.106735E+02
16.000000 12.000000 1.578291E+02
16.000000 10.000000 1.830105E+02
16.000000 8.000000 1.533146E+02
16.000000 6.000000 9.013313E+01
16.000000 4.000000 3.633698E+00
16.000000 2.000000 -7.243816E+01
16.000000 0.000000 -1.217370E+02
16.000000 -2.000000 -1.331094E+02
16.000000 -4.000000 -1.124799E+02
16.000000 -6.000000 -7.415169E+01
16.000000 -8.000000 -5.466753E+01
16.000000 -10.000000 -6.223575E+01
16.000000 -12.000000 -9.227983E+01
16.000000 -14.000000 -1.146696E+02
16.000000 -16.000000 -1.203142E+02
16.000000 -18.000000 -1.092162E+02
16.000000 -20.000000 -9.138407E+01
16.000000 -22.000000 -7.337086E+01
16.000000 -24.000000 -6.120729E+01
16.000000 -26.000000 -6.152798E+01
16.000000 -28.000000 -7.158098E+01
16.000000 -30.000000 -7.940322E+01
16.000000 -32.000000 -7.679876E+01
16.000000 -34.000000 -6.989870E+01
16.000000 -36.000000 -5.802188E+01
16.000000 -38.000000 -4.559563E+01
16.000000 -40.000000 -2.702362E+01
18.000000 40.000000 -6.835834E+01
18.000000 38.000000 -4.636865E+01
18.000000 36.000000 -2.611262E+01
18.000000 34.000000 -8.964506E+00
18.000000 32.000000 1.623933E+00
18.000000 30.000000 6.089037E+00
18.000000 28.000000 1.467385E+01
18.000000 26.000000 3.378696E+01
18.000000 24.000000 5.087310E+01
18.000000 22.000000 5.894979E+01
18.000000 20.000000 6.180895E+01
18.000000 18.000000 6.349524E+01
18.000000 16.000000 7.999049E+01
18.000000 14.000000 1.136393E+02
18.000000 12.000000 1.460507E+02
18.000000 10.000000 1.577078E+02
18.000000 8.000000 1.288118E+02
18.000000 6.000000 7.739158E+01
18.000000 4.000000 1.237481E+01
18.000000 2.000000 -4.733532E+01
18.000000 0.000000 -9.125214E+01
18.000000 -2.000000 -1.114133E+02
18.000000 -4.000000 -1.088279E+02
18.000000 -6.000000 -8.875618E+01
18.000000 -8.000000 -7.692303E+01
18.000000 -10.000000 -8.350913E+01
18.000000 -12.000000 -1.017261E+02
18.000000 -14.000000 -1.127743E+02
18.000000 -16.000000 -1.127481E+02
18.000000 -18.000000 -1.048195E+02
18.000000 -20.000000 -9.224434E+01
18.000000 -22.000000 -7.664921E+01
18.000000 -24.000000 -6.497935E+01
18.000000 -26.000000 -6.517156E+01
18.000000 -28.000000 -7.640574E+01
18.000000 -30.000000 -8.363169E+01
18.000000 -32.000000 -7.877851E+01
18.000000 -34.000000 -6.885263E+01
18.000000 -36.000000 -5.543469E+01
18.000000 -38.000000 -4.241174E+01
18.000000 -40.000000 -2.279433E+01
20.000000 40.000000 -7.386573E+01
20.000000 38.000000 -5.024666E+01
20.000000 36.000000 -2.545615E+01
20.000000 34.000000 -2.131174E+00
20.000000 32.000000 1.297997E+01
20.000000 30.000000 1.774953E+01
20.000000 28.000000 2.261018E+01
20.000000 26.000000 3.891187E+01
20.000000 24.000000 5.207140E+01
20.000000 22.000000 5.419985E+01
20.000000 20.000000 5.426122E+01
20.000000 18.000000 5.518066E+01
20.000000 16.000000 6.730200E+01
20.000000 14.000000 8.871196E+01
20.000000 12.000000 1.080148E+02
20.000000 10.000000 1.161050E+02
20.000000 8.000000 1.050946E+02
20.000000 6.000000 7.872608E+01
20.000000 4.000000 4.130071E+01
20.000000 2.000000 -4.559433E+00
20.000000 0.000000 -4.825495E+01
20.000000 -2.000000 -8.287894E+01
20.000000 -4.000000 -1.010410E+02
20.000000 -6.000000 -1.002927E+02
20.000000 -8.000000 -9.676908E+01
20.000000 -10.000000 -1.018720E+02
20.000000 -12.000000 -1.063780E+02
20.000000 -14.000000 -1.058375E+02
20.000000 -16.000000 -9.995132E+01
20.000000 -18.000000 -9.455080E+01
20.000000 -20.000000 -8.741284E+01
20.000000 -22.000000 -7.607169E+01
20.000000 -24.000000 -6.616902E+01
20.000000 -26.000000 -6.480643E+01
20.000000 -28.000000 -7.263655E+01
20.000000 -30.000000 -7.689952E+01
20.000000 -32.000000 -7.266162E+01
20.000000 -34.000000 -6.386327E+01
20.000000 -36.000000 -5.108213E+01
20.000000 -38.000000 -3.842156E+01
20.000000 -40.000000 -1.983024E+01
22.000000 40.000000 -8.009444E+01
22.000000 38.000000 -5.554784E+01
22.000000 36.000000 -2.610879E+01
22.000000 34.000000 5.262069E+00
22.000000 32.000000 2.764511E+01
22.000000 30.000000 3.512106E+01
22.000000 28.000000 3.654910E+01
22.000000 26.000000 4.446526E+01
22.000000 24.000000 4.457442E+01
22.000000 22.000000 3.458088E+01
22.000000 20.000000 2.676885E+01
22.000000 18.000000 2.636964E+01
22.000000 16.000000 3.850485E+01
22.000000 14.000000 5.477770E+01
22.000000 12.000000 6.998304E+01
22.000000 10.000000 8.490092E+01
22.000000 8.000000 9.643832E+01
22.000000 6.000000 9.330854E+01
22.000000 4.000000 7.327608E+01
22.000000 2.000000 3.174506E+01
22.000000 0.000000 -1.620623E+01
22.000000 -2.000000 -6.208376E+01
22.000000 -4.000000 -9.283450E+01
22.000000 -6.000000 -1.031297E+02
22.000000 -8.000000 -1.033593E+02
22.000000 -10.000000 -1.039680E+02
22.000000 -12.000000 -1.003264E+02
22.000000 -14.000000 -9.447915E+01
22.000000 -16.000000 -8.846432E+01
22.000000 -18.000000 -8.659453E+01
22.000000 -20.000000 -8.407214E+01
22.000000 -22.000000 -7.665488E+01
22.000000 -24.000000 -6.719438E+01
22.000000 -26.000000 -6.213217E+01
22.000000 -28.000000 -6.388947E+01
22.000000 -30.000000 -6.386569E+01
22.000000 -32.000000 -6.002899E+01
22.000000 -34.000000 -5.326405E+01
22.000000 -36.000000 -4.297560E+01
22.000000 -38.000000 -3.274477E+01
22.000000 -40.000000 -1.754540E+01
24.000000 40.000000 -8.501814E+01
24.000000 38.000000 -6.153235E+01
24.000000 36.000000 -2.949811E+01
24.000000 34.000000 9.124378E+00
24.000000 32.000000 3.889809E+01
24.000000 30.000000 4.987928E+01
24.000000 28.000000 4.884722E+01
24.000000 26.000000 4.541158E+01
24.000000 24.000000 2.837543E+01
24.000000 22.000000 5.756972E+00
24.000000 20.000000 -7.471164E+00
24.000000 18.000000 -4.404319E+00
24.000000 16.000000 1.502412E+01
24.000000 14.000000 3.907862E+01
24.000000 12.000000 6.210681E+01
24.000000 10.000000 8.473938E+01
24.000000 8.000000 1.029277E+02
24.000000 6.000000 1.060546E+02
24.000000 4.000000 8.707991E+01
24.000000 2.000000 4.294637E+01
24.000000 0.000000 -8.567452E+00
24.000000 -2.000000 -5.723591E+01
24.000000 -4.000000 -8.833679E+01
24.000000 -6.000000 -9.807557E+01
24.000000 -8.000000 -9.764960E+01
24.000000 -10.000000 -9.361928E+01
24.000000 -12.000000 -8.679313E+01
24.000000 -14.000000 -8.194198E+01
24.000000 -16.000000 -8.222876E+01
24.000000 -18.000000 -8.621488E+01
24.000000 -20.000000 -8.716872E+01
24.000000 -22.000000 -8.088407E+01
24.000000 -24.000000 -6.835061E+01
24.000000 -26.000000 -5.697477E+01
24.000000 -28.000000 -5.185958E+01
24.000000 -30.000000 -4.740388E+01
24.000000 -32.000000 -4.277774E+01
24.000000 -34.000000 -3.787142E+01
24.000000 -36.000000 -3.208461E+01
24.000000 -38.000000 -2.654819E+01
24.000000 -40.000000 -1.599293E+01
26.000000 40.000000 -8.814229E+01
26.000000 38.000000 -6.633595E+01
26.000000 36.000000 -3.329003E+01
26.000000 34.000000 9.897213E+00
26.000000 32.000000 4.297010E+01
26.000000 30.000000 5.462934E+01
26.000000 28.000000 5.157457E+01
26.000000 26.000000 4.007909E+01
26.000000 24.000000 1.132235E+01
26.000000 22.000000 -1.816240E+01
26.000000 20.000000 -3.075101E+01
26.000000 18.000000 -2.105814E+01
26.000000 16.000000 8.910960E+00
26.000000 14.000000 4.812131E+01
26.000000 12.000000 8.301660E+01
26.000000 10.000000 1.069987E+02
26.000000 8.000000 1.126668E+02
26.000000 6.000000 1.045752E+02
26.000000 4.000000 7.631647E+01
26.000000 2.000000 2.986095E+01
26.000000 0.000000 -1.953760E+01
26.000000 -2.000000 -6.145949E+01
26.000000 -4.000000 -8.386689E+01
26.000000 -6.000000 -8.647341E+01
26.000000 -8.000000 -8.553308E+01
26.000000 -10.000000 -8.120283E+01
26.000000 -12.000000 -7.620051E+01
26.000000 -14.000000 -7.664468E+01
26.000000 -16.000000 -8.438532E+01
26.000000 -18.000000 -9.304220E+01
26.000000 -20.000000 -9.472656E+01
26.000000 -22.000000 -8.572580E+01
26.000000 -24.000000 -6.745724E+01
26.000000 -26.000000 -5.020777E+01
26.000000 -28.000000 -4.014523E+01
26.000000 -30.000000 -3.136126E+01
26.000000 -32.000000 -2.474097E+01
26.000000 -34.000000 -2.112457E+01
26.000000 -36.000000 -2.047714E+01
26.000000 -38.000000 -2.088227E+01
26.000000 -40.000000 -1.491050E+01
28.000000 40.000000 -8.921150E+01
28.000000 38.000000 -6.908046E+01
28.000000 36.000000 -3.742070E+01
28.000000 34.000000 5.921456E+00
28.000000 32.000000 3.836846E+01
28.000000 30.000000 4.738082E+01
28.000000 28.000000 4.236594E+01
28.000000 26.000000 3.176413E+01
28.000000 24.000000 6.218898E+00
28.000000 22.000000 -1.959071E+01
28.000000 20.000000 -2.851722E+01
28.000000 18.000000 -1.652307E+01
28.000000 16.000000 1.865814E+01
28.000000 14.000000 6.632769E+01
28.000000 12.000000 1.039697E+02
28.000000 10.000000 1.201199E+02
28.000000 8.000000 1.071392E+02
28.000000 6.000000 8.283317E+01
28.000000 4.000000 4.990322E+01
28.000000 2.000000 8.905269E+00
28.000000 0.000000 -3.064832E+01
28.000000 -2.000000 -6.045256E+01
28.000000 -4.000000 -7.407766E+01
28.000000 -6.000000 -7.244194E+01
28.000000 -8.000000 -7.352194E+01
28.000000 -10.000000 -7.411684E+01
28.000000 -12.000000 -7.471647E+01
28.000000 -14.000000 -8.027522E+01
28.000000 -16.000000 -9.165536E+01
28.000000 -18.000000 -1.003997E+02
28.000000 -20.000000 -9.943934E+01
28.000000 -22.000000 -8.661468E+01
28.000000 -24.000000 -6.341066E+01
28.000000 -26.000000 -4.345402E+01
28.000000 -28.000000 -3.257294E+01
28.000000 -30.000000 -2.104219E+01
28.000000 -32.000000 -1.196029E+01
28.000000 -34.000000 -8.352753E+00
28.000000 -36.000000 -1.142517E+01
28.000000 -38.000000 -1.664509E+01
28.000000 -40.000000 -1.402324E+01
30.000000 40.000000 -8.789875E+01
30.000000 38.000000 -6.958975E+01
30.000000 36.000000 -4.169715E+01
30.000000 34.000000 -2.858816E+00
30.000000 32.000000 2.776118E+01
30.000000 30.000000 3.499477E+01
30.000000 28.000000 2.813771E+01
30.000000 26.000000 2.260840E+01
30.000000 24.000000 7.821099E+00
30.000000 22.000000 -8.330052E+00
30.000000 20.000000 -1.179631E+01
30.000000 18.000000 -2.005374E+00
30.000000 16.000000 3.072414E+01
30.000000 14.000000 7.823371E+01
30.000000 12.000000 1.118661E+02
30.000000 10.000000 1.163308E+02
30.000000 8.000000 9.021264E+01
30.000000 6.000000 5.570416E+01
30.000000 4.000000 2.577994E+01
30.000000 2.000000 -5.365811E+00
30.000000 0.000000 -3.252168E+01
30.000000 -2.000000 -5.158032E+01
30.000000 -4.000000 -6.069399E+01
30.000000 -6.000000 -6.089313E+01
30.000000 -8.000000 -6.673847E+01
30.000000 -10.000000 -7.454226E+01
30.000000 -12.000000 -8.002848E+01
30.000000 -14.000000 -8.700452E+01
30.000000 -16.000000 -9.596436E+01
30.000000 -18.000000 -1.011815E+02
30.000000 -20.000000 -9.741822E+01
30.000000 -22.000000 -8.266458E+01
30.000000 -24.000000 -5.837289E+01
30.000000 -26.000000 -3.932731E+01
30.000000 -28.000000 -3.100019E+01
30.000000 -30.000000 -2.014888E+01
30.000000 -32.000000 -9.437330E+00
30.000000 -34.000000 -4.327618E+00
30.000000 -36.000000 -7.640574E+00
30.000000 -38.000000 -1.378584E+01
30.000000 -40.000000 -1.269052E+01
32.000000 40.000000 -8.503541E+01
32.000000 38.000000 -6.795681E+01
32.000000 36.000000 -4.361818E+01
32.000000 34.000000 -1.067649E+01
32.000000 32.000000 1.715706E+01
32.000000 30.000000 2.450063E+01
32.000000 28.000000 1.711073E+01
32.000000 26.000000 1.340273E+01
32.000000 24.000000 4.158654E+00
32.000000 22.000000 -7.015734E+00
32.000000 20.000000 -9.591773E+00
32.000000 18.000000 -2.029985E+00
32.000000 16.000000 2.883847E+01
32.000000 14.000000 7.712967E+01
32.000000 12.000000 1.113885E+02
32.000000 10.000000 1.114028E+02
32.000000 8.000000 8.046581E+01
32.000000 6.000000 4.397595E+01
32.000000 4.000000 1.558753E+01
32.000000 2.000000 -8.722811E+00
32.000000 0.000000 -2.756845E+01
32.000000 -2.000000 -4.098003E+01
32.000000 -4.000000 -4.888848E+01
32.000000 -6.000000 -5.438576E+01
32.000000 -8.000000 -6.338986E+01
32.000000 -10.000000 -7.450100E+01
32.000000 -12.000000 -8.236698E+01
32.000000 -14.000000 -8.938193E+01
32.000000 -16.000000 -9.390125E+01
32.000000 -18.000000 -9.538145E+01
32.000000 -20.000000 -9.129160E+01
32.000000 -22.000000 -7.766980E+01
32.000000 -24.000000 -5.568037E+01
32.000000 -26.000000 -4.004533E+01
32.000000 -28.000000 -3.601324E+01
32.000000 -30.000000 -2.795186E+01
32.000000 -32.000000 -1.606854E+01
32.000000 -34.000000 -8.451536E+00
32.000000 -36.000000 -9.637388E+00
32.000000 -38.000000 -1.339583E+01
32.000000 -40.000000 -1.166033E+01
34.000000 40.000000 -8.212166E+01
34.000000 38.000000 -6.531051E+01
34.000000 36.000000 -4.303195E+01
34.000000 34.000000 -1.420248E+01
34.000000 32.000000 1.043764E+01
34.000000 30.000000 1.769622E+01
34.000000 28.000000 1.164516E+01
34.000000 26.000000 6.562391E+00
34.000000 24.000000 -5.219342E+00
34.000000 22.000000 -2.023082E+01
34.000000 20.000000 -3.036544E+01
34.000000 18.000000 -2.444246E+01
34.000000 16.000000 1.136229E+01
34.000000 14.000000 6.719832E+01
34.000000 12.000000 1.106312E+02
34.000000 10.000000 1.151337E+02
34.000000 8.000000 8.132951E+01
34.000000 6.000000 4.212887E+01
34.000000 4.000000 1.202045E+01
34.000000 2.000000 -9.014373E+00
34.000000 0.000000 -2.338625E+01
34.000000 -2.000000 -3.337733E+01
34.000000 -4.000000 -4.005828E+01
34.000000 -6.000000 -4.798424E+01
34.000000 -8.000000 -5.623991E+01
34.000000 -10.000000 -6.514928E+01
34.000000 -12.000000 -7.341291E+01
34.000000 -14.000000 -8.270508E+01
34.000000 -16.000000 -8.879137E+01
34.000000 -18.000000 -9.049665E+01
34.000000 -20.000000 -8.779822E+01
34.000000 -22.000000 -7.667352E+01
34.000000 -24.000000 -5.744063E+01
34.000000 -26.000000 -4.495035E+01
34.000000 -28.000000 -4.473531E+01
34.000000 -30.000000 -3.987206E+01
34.000000 -32.000000 -2.749987E+01
34.000000 -34.000000 -1.716868E+01
34.000000 -36.000000 -1.611236E+01
34.000000 -38.000000 -1.691055E+01
34.000000 -40.000000 -1.235828E+01
36.000000 40.000000 -7.987711E+01
36.000000 38.000000 -6.260951E+01
36.000000 36.000000 -4.114181E+01
36.000000 34.000000 -1.443662E+01
36.000000 32.000000 7.651486E+00
36.000000 30.000000 1.399309E+01
36.000000 28.000000 9.313790E+00
36.000000 26.000000 1.962373E+00
36.000000 24.000000 -1.548375E+01
36.000000 22.000000 -3.785076E+01
36.000000 20.000000 -5.721591E+01
36.000000 18.000000 -5.428924E+01
36.000000 16.000000 -1.183050E+01
36.000000 14.000000 5.485682E+01
36.000000 12.000000 1.111963E+02
36.000000 10.000000 1.246976E+02
36.000000 8.000000 8.974731E+01
36.000000 6.000000 4.536785E+01
36.000000 4.000000 9.656196E+00
36.000000 2.000000 -1.321835E+01
36.000000 0.000000 -2.514603E+01
36.000000 -2.000000 -3.064442E+01
36.000000 -4.000000 -3.319666E+01
36.000000 -6.000000 -3.586823E+01
36.000000 -8.000000 -4.078033E+01
36.000000 -10.000000 -4.650856E+01
36.000000 -12.000000 -5.665711E+01
36.000000 -14.000000 -7.355523E+01
36.000000 -16.000000 -8.896250E+01
36.000000 -18.000000 -9.526295E+01
36.000000 -20.000000 -9.433468E+01
36.000000 -22.000000 -8.295884E+01
36.000000 -24.000000 -6.288735E+01
36.000000 -26.000000 -5.078525E+01
36.000000 -28.000000 -5.365241E+01
36.000000 -30.000000 -5.273989E+01
36.000000 -32.000000 -4.140535E+01
36.000000 -34.000000 -2.821786E+01
36.000000 -36.000000 -2.341004E+01
36.000000 -38.000000 -2.138442E+01
36.000000 -40.000000 -1.410822E+01
38.000000 40.000000 -7.895034E+01
38.000000 38.000000 -6.118678E+01
38.000000 36.000000 -3.952238E+01
38.000000 34.000000 -1.337527E+01
38.000000 32.000000 6.752858E+00
38.000000 30.000000 1.144601E+01
38.000000 28.000000 8.047243E+00
38.000000 26.000000 -8.966398E-02
38.000000 24.000000 -1.933436E+01
38.000000 22.000000 -4.595998E+01
38.000000 20.000000 -7.189262E+01
38.000000 18.000000 -7.488244E+01
38.000000 16.000000 -3.085184E+01
38.000000 14.000000 4.335804E+01
38.000000 12.000000 1.116073E+02
38.000000 10.000000 1.365292E+02
38.000000 8.000000 1.043398E+02
38.000000 6.000000 5.622297E+01
38.000000 4.000000 1.196328E+01
38.000000 2.000000 -1.730647E+01
38.000000 0.000000 -2.881331E+01
38.000000 -2.000000 -2.944598E+01
38.000000 -4.000000 -2.683309E+01
38.000000 -6.000000 -2.147965E+01
38.000000 -8.000000 -2.217030E+01
38.000000 -10.000000 -2.802808E+01
38.000000 -12.000000 -4.726706E+01
38.000000 -14.000000 -7.607426E+01
38.000000 -16.000000 -1.003738E+02
38.000000 -18.000000 -1.107844E+02
