-24.000000 22.000000 8.391391E+01
-24.000000 20.000000 6.615546E+01
-24.000000 18.000000 5.217803E+01
-24.000000 16.000000 4.451644E+01
-24.000000 14.000000 3.597822E+01
-24.000000 12.000000 2.815233E+01
-24.000000 10.000000 2.412725E+01
-24.000000 8.000000 2.279966E+01
-24.000000 6.000000 1.972325E+01
-24.000000 4.000000 2.070086E+01
-24.000000 2.000000 1.522905E+01
-24.000000 0.000000 1.341042E+00
-24.000000 -2.000000 -1.290821E+01
-24.000000 -4.000000 -1.978799E+01
-24.000000 -6.000000 -8.729954E+00
-24.000000 -8.000000 7.767300E+00
-24.000000 -10.000000 1.943057E+01
-24.000000 -12.000000 2.063507E+01
-24.000000 -14.000000 2.113573E+01
-24.000000 -16.000000 2.414017E+01
-24.000000 -18.000000 2.946373E+01
-24.000000 -20.000000 3.265709E+01
-24.000000 -22.000000 3.369086E+01
-24.000000 -24.000000 3.555182E+01
-24.000000 -26.000000 3.746075E+01
-24.000000 -28.000000 4.040099E+01
-24.000000 -30.000000 3.972184E+01
-24.000000 -32.000000 3.736780E+01
-24.000000 -34.000000 3.689126E+01
-24.000000 -36.000000 3.987118E+01
-24.000000 -38.000000 4.277077E+01
-24.000000 -40.000000 4.683505E+01
-22.000000 40.000000 3.597312E+01
-22.000000 38.000000 4.486375E+01
-22.000000 36.000000 5.243945E+01
-22.000000 34.000000 5.303904E+01
-22.000000 32.000000 4.654087E+01
-22.000000 30.000000 4.838900E+01
-22.000000 28.000000 6.398307E+01
-22.000000 26.000000 8.013677E+01
-22.000000 24.000000 9.121497E+01
-22.000000 22.000000 8.039196E+01
-22.000000 20.000000 6.325622E+01
-22.000000 18.000000 5.363375E+01
-22.000000 16.000000 5.050537E+01
-22.000000 14.000000 4.245201E+01
-22.000000 12.000000 3.257364E+01
-22.000000 10.000000 2.394959E+01
-22.000000 8.000000 1.984299E+01
-22.000000 6.000000 1.780858E+01
-22.000000 4.000000 2.133317E+01
-22.000000 2.000000 1.932291E+01
-22.000000 0.000000 7.599552E+00
-22.000000 -2.000000 -8.058168E+00
-22.000000 -4.000000 -1.684951E+01
-22.000000 -6.000000 -8.364788E+00
-22.000000 -8.000000 6.581216E+00
-22.000000 -10.000000 1.683477E+01
-22.000000 -12.000000 2.105901E+01
-22.000000 -14.000000 2.529524E+01
-22.000000 -16.000000 2.932209E+01
-22.000000 -18.000000 3.431975E+01
-22.000000 -20.000000 3.772178E+01
-22.000000 -22.000000 3.836944E+01
-22.000000 -24.000000 3.876618E+01
-22.000000 -26.000000 3.968343E+01
-22.000000 -28.000000 4.408397E+01
-22.000000 -30.000000 4.468802E+01
-22.000000 -32.000000 4.204761E+01
-22.000000 -34.000000 3.986765E+01
-22.000000 -36.000000 4.087301E+01
-22.000000 -38.000000 4.277300E+01
-22.000000 -40.000000 4.586689E+01
-20.000000 40.000000 2.852151E+01
-20.000000 38.000000 3.547612E+01
-20.000000 36.000000 4.202400E+01
-20.000000 34.000000 4.177859E+01
-20.000000 32.000000 3.510951E+01
-20.000000 30.000000 3.715615E+01
-20.000000 28.000000 5.057060E+01
-20.000000 26.000000 6.494116E+01
-20.000000 24.000000 7.456318E+01
-20.000000 22.000000 6.576743E+01
-20.000000 20.000000 5.515416E+01
-20.000000 18.000000 5.613536E+01
-20.000000 16.000000 6.158916E+01
-20.000000 14.000000 5.905807E+01
-20.000000 12.000000 4.893405E+01
-20.000000 10.000000 3.302669E+01
-20.000000 8.000000 1.989587E+01
-20.000000 6.000000 1.429826E+01
-20.000000 4.000000 2.018505E+01
-20.000000 2.000000 2.310214E+01
-20.000000 0.000000 1.689951E+01
-20.000000 -2.000000 3.611799E+00
-20.000000 -4.000000 -5.170761E+00
-20.000000 -6.000000 -1.298382E+00
-20.000000 -8.000000 8.686232E+00
-20.000000 -10.000000 1.605855E+01
-20.000000 -12.000000 2.151938E+01
-20.000000 -14.000000 2.774043E+01
-20.000000 -16.000000 3.222074E+01
-20.000000 -18.000000 3.608902E+01
-20.000000 -20.000000 3.820818E+01
-20.000000 -22.000000 3.787930E+01
-20.000000 -24.000000 3.795476E+01
-20.000000 -26.000000 3.865501E+01
-20.000000 -28.000000 4.331890E+01
-20.000000 -30.000000 4.487775E+01
-20.000000 -32.000000 4.340326E+01
-20.000000 -34.000000 4.205255E+01
-20.000000 -36.000000 4.206624E+01
-20.000000 -38.000000 4.286809E+01
-20.000000 -40.000000 4.456101E+01
-18.000000 40.000000 2.189570E+01
-18.000000 38.000000 2.712467E+01
-18.000000 36.000000 3.308664E+01
-18.000000 34.000000 3.214096E+01
-18.000000 32.000000 2.460260E+01
-18.000000 30.000000 2.480502E+01
-18.000000 28.000000 3.377910E+01
-18.000000 26.000000 4.437266E+01
-18.000000 24.000000 4.930734E+01
-18.000000 22.000000 4.356460E+01
-18.000000 20.000000 4.213798E+01
-18.000000 18.000000 5.649712E+01
-18.000000 16.000000 7.510439E+01
-18.000000 14.000000 8.406185E+01
-18.000000 12.000000 7.745218E+01
-18.000000 10.000000 5.517826E+01
-18.000000 8.000000 2.745572E+01
-18.000000 6.000000 1.024818E+01
-18.000000 4.000000 1.353610E+01
-18.000000 2.000000 2.108748E+01
-18.000000 0.000000 2.232712E+01
-18.000000 -2.000000 1.511480E+01
-18.000000 -4.000000 8.273064E+00
-18.000000 -6.000000 8.271933E+00
-18.000000 -8.000000 1.297263E+01
-18.000000 -10.000000 1.840031E+01
-18.000000 -12.000000 2.423729E+01
-18.000000 -14.000000 3.075816E+01
-18.000000 -16.000000 3.560928E+01
-18.000000 -18.000000 3.740982E+01
-18.000000 -20.000000 3.599632E+01
-18.000000 -22.000000 3.376465E+01
-18.000000 -24.000000 3.354522E+01
-18.000000 -26.000000 3.457109E+01
-18.000000 -28.000000 3.874506E+01
-18.000000 -30.000000 4.100561E+01
-18.000000 -32.000000 4.163147E+01
-18.000000 -34.000000 4.250392E+01
-18.000000 -36.000000 4.255596E+01
-18.000000 -38.000000 4.184555E+01
-18.000000 -40.000000 4.187577E+01
-16.000000 40.000000 1.708519E+01
-16.000000 38.000000 2.066113E+01
-16.000000 36.000000 2.632659E+01
-16.000000 34.000000 2.623328E+01
-16.000000 32.000000 1.807271E+01
-16.000000 30.000000 1.414161E+01
-16.000000 28.000000 1.658802E+01
-16.000000 26.000000 2.251329E+01
-16.000000 24.000000 2.092414E+01
-16.000000 22.000000 1.728052E+01
-16.000000 20.000000 2.391238E+01
-16.000000 18.000000 5.114925E+01
-16.000000 16.000000 8.572400E+01
-16.000000 14.000000 1.114484E+02
-16.000000 12.000000 1.134193E+02
-16.000000 10.000000 8.846146E+01
-16.000000 8.000000 4.614154E+01
-16.000000 6.000000 1.396382E+01
-16.000000 4.000000 9.138790E+00
-16.000000 2.000000 1.793737E+01
-16.000000 0.000000 2.392447E+01
-16.000000 -2.000000 2.282601E+01
-16.000000 -4.000000 1.831114E+01
-16.000000 -6.000000 1.649722E+01
-16.000000 -8.000000 1.810914E+01
-16.000000 -10.000000 2.109697E+01
-16.000000 -12.000000 2.532969E+01
-16.000000 -14.000000 3.209541E+01
-16.000000 -16.000000 3.734903E+01
-16.000000 -18.000000 3.817875E+01
-16.000000 -20.000000 3.361793E+01
-16.000000 -22.000000 2.844931E+01
-16.000000 -24.000000 2.665893E+01
-16.000000 -26.000000 2.634786E+01
-16.000000 -28.000000 3.050541E+01
-16.000000 -30.000000 3.380333E+01
-16.000000 -32.000000 3.626830E+01
-16.000000 -34.000000 3.957614E+01
-16.000000 -36.000000 4.077347E+01
-16.000000 -38.000000 3.941533E+01
-16.000000 -40.000000 3.892596E+01
-14.000000 40.000000 1.423854E+01
-14.000000 38.000000 1.694760E+01
-14.000000 36.000000 2.379648E+01
-14.000000 34.000000 2.553722E+01
-14.000000 32.000000 1.594610E+01
-14.000000 30.000000 7.826733E+00
-14.000000 28.000000 3.769867E+00
-14.000000 26.000000 4.093292E+00
-14.000000 24.000000 -3.367500E+00
-14.000000 22.000000 -7.754913E+00
-14.000000 20.000000 1.714645E+00
-14.000000 18.000000 3.745425E+01
-14.000000 16.000000 8.593608E+01
-14.000000 14.000000 1.294452E+02
-14.000000 12.000000 1.464450E+02
-14.000000 10.000000 1.275468E+02
-14.000000 8.000000 7.593578E+01
-14.000000 6.000000 3.062862E+01
-14.000000 4.000000 1.469183E+01
-14.000000 2.000000 1.886131E+01
-14.000000 0.000000 2.459243E+01
-14.000000 -2.000000 2.671462E+01
-14.000000 -4.000000 2.432303E+01
-14.000000 -6.000000 2.287478E+01
-14.000000 -8.000000 2.254442E+01
-14.000000 -10.000000 2.207675E+01
-14.000000 -12.000000 2.272722E+01
-14.000000 -14.000000 2.819052E+01
-14.000000 -16.000000 3.379105E+01
-14.000000 -18.000000 3.630027E+01
-14.000000 -20.000000 3.219252E+01
-14.000000 -22.000000 2.510172E+01
-14.000000 -24.000000 2.011738E+01
-14.000000 -26.000000 1.633161E+01
-14.000000 -28.000000 1.943791E+01
-14.000000 -30.000000 2.324080E+01
-14.000000 -32.000000 2.671462E+01
-14.000000 -34.000000 3.194985E+01
-14.000000 -36.000000 3.578453E+01
-14.000000 -38.000000 3.649824E+01
-14.000000 -40.000000 3.750335E+01
-12.000000 40.000000 1.158067E+01
-12.000000 38.000000 1.576413E+01
-12.000000 36.000000 2.550737E+01
-12.000000 34.000000 2.923400E+01
-12.000000 32.000000 1.850420E+01
-12.000000 30.000000 7.528297E+00
-12.000000 28.000000 -8.856583E-02
-12.000000 26.000000 -3.686634E+00
-12.000000 24.000000 -1.495249E+01
-12.000000 22.000000 -2.316800E+01
-12.000000 20.000000 -1.709629E+01
-12.000000 18.000000 1.882769E+01
-12.000000 16.000000 7.413924E+01
-12.000000 14.000000 1.298072E+02
-12.000000 12.000000 1.625492E+02
-12.000000 10.000000 1.579314E+02
-12.000000 8.000000 1.087146E+02
-12.000000 6.000000 5.815178E+01
-12.000000 4.000000 3.055153E+01
-12.000000 2.000000 2.473311E+01
-12.000000 0.000000 2.527901E+01
-12.000000 -2.000000 2.641992E+01
-12.000000 -4.000000 2.592513E+01
-12.000000 -6.000000 2.598365E+01
-12.000000 -8.000000 2.384336E+01
-12.000000 -10.000000 1.963387E+01
-12.000000 -12.000000 1.568575E+01
-12.000000 -14.000000 1.762475E+01
-12.000000 -16.000000 2.429680E+01
-12.000000 -18.000000 3.143669E+01
-12.000000 -20.000000 3.111925E+01
-12.000000 -22.000000 2.421244E+01
-12.000000 -24.000000 1.592106E+01
-12.000000 -26.000000 9.241093E+00
-12.000000 -28.000000 1.036643E+01
-12.000000 -30.000000 1.265054E+01
-12.000000 -32.000000 1.573622E+01
-12.000000 -34.000000 2.230579E+01
-12.000000 -36.000000 2.920960E+01
-12.000000 -38.000000 3.316573E+01
-12.000000 -40.000000 3.623959E+01
-10.000000 40.000000 8.653870E+00
-10.000000 38.000000 1.651631E+01
-10.000000 36.000000 2.892018E+01
-10.000000 34.000000 3.415329E+01
-10.000000 32.000000 2.356950E+01
-10.000000 30.000000 1.218862E+01
-10.000000 28.000000 5.590723E+00
-10.000000 26.000000 1.943233E+00
-10.000000 24.000000 -9.664860E+00
-10.000000 22.000000 -2.117687E+01
-10.000000 20.000000 -2.171376E+01
-10.000000 18.000000 5.060211E+00
-10.000000 16.000000 5.469913E+01
-10.000000 14.000000 1.106547E+02
-10.000000 12.000000 1.537062E+02
-10.000000 10.000000 1.661899E+02
-10.000000 8.000000 1.310953E+02
-10.000000 6.000000 8.505643E+01
-10.000000 4.000000 4.996929E+01
-10.000000 2.000000 3.350588E+01
-10.000000 0.000000 2.682932E+01
-10.000000 -2.000000 2.450139E+01
-10.000000 -4.000000 2.496601E+01
-10.000000 -6.000000 2.574768E+01
-10.000000 -8.000000 2.203649E+01
-10.000000 -10.000000 1.490893E+01
-10.000000 -12.000000 6.890472E+00
-10.000000 -14.000000 5.110416E+00
-10.000000 -16.000000 1.166395E+01
-10.000000 -18.000000 2.311912E+01
-10.000000 -20.000000 2.743778E+01
-10.000000 -22.000000 2.319296E+01
-10.000000 -24.000000 1.478460E+01
-10.000000 -26.000000 7.803331E+00
-10.000000 -28.000000 7.546558E+00
-10.000000 -30.000000 6.510813E+00
-10.000000 -32.000000 7.345379E+00
-10.000000 -34.000000 1.440405E+01
-10.000000 -36.000000 2.346232E+01
-10.000000 -38.000000 2.948179E+01
-10.000000 -40.000000 3.384567E+01
-8.000000 40.000000 5.855565E+00
-8.000000 38.000000 1.705706E+01
-8.000000 36.000000 3.184255E+01
-8.000000 34.000000 3.812072E+01
-8.000000 32.000000 2.702951E+01
-8.000000 30.000000 1.711829E+01
-8.000000 28.000000 1.581281E+01
-8.000000 26.000000 1.658742E+01
-8.000000 24.000000 9.685181E+00
-8.000000 22.000000 -2.338562E+00
-8.000000 20.000000 -8.511623E+00
-8.000000 18.000000 4.888653E+00
-8.000000 16.000000 3.778119E+01
-8.000000 14.000000 8.119351E+01
-8.000000 12.000000 1.271261E+02
-8.000000 10.000000 1.538383E+02
-8.000000 8.000000 1.345004E+02
-8.000000 6.000000 9.664995E+01
-8.000000 4.000000 6.157857E+01
-8.000000 2.000000 4.032991E+01
-8.000000 0.000000 2.887395E+01
-8.000000 -2.000000 2.322838E+01
-8.000000 -4.000000 2.231498E+01
-8.000000 -6.000000 2.232616E+01
-8.000000 -8.000000 1.864828E+01
-8.000000 -10.000000 1.198755E+01
-8.000000 -12.000000 2.873070E+00
-8.000000 -14.000000 -2.254631E+00
-8.000000 -16.000000 1.652115E+00
-8.000000 -18.000000 1.310786E+01
-8.000000 -20.000000 2.043156E+01
-8.000000 -22.000000 2.051250E+01
-8.000000 -24.000000 1.629127E+01
-8.000000 -26.000000 1.237621E+01
-8.000000 -28.000000 1.075533E+01
-8.000000 -30.000000 6.239325E+00
-8.000000 -32.000000 4.289494E+00
-8.000000 -34.000000 1.021016E+01
-8.000000 -36.000000 1.949147E+01
-8.000000 -38.000000 2.612075E+01
-8.000000 -40.000000 3.089300E+01
-6.000000 40.000000 3.580235E+00
-6.000000 38.000000 1.609786E+01
-6.000000 36.000000 3.160246E+01
-6.000000 34.000000 3.776084E+01
-6.000000 32.000000 2.647310E+01
-6.000000 30.000000 1.929547E+01
-6.000000 28.000000 2.388527E+01
-6.000000 26.000000 3.043925E+01
-6.000000 24.000000 3.172612E+01
-6.000000 22.000000 2.296440E+01
-6.000000 20.000000 1.580647E+01
-6.000000 18.000000 1.845635E+01
-6.000000 16.000000 3.372795E+01
-6.000000 14.000000 5.969380E+01
-6.000000 12.000000 1.013277E+02
-6.000000 10.000000 1.344553E+02
-6.000000 8.000000 1.237383E+02
-6.000000 6.000000 9.007452E+01
-6.000000 4.000000 5.861278E+01
-6.000000 2.000000 4.025771E+01
-6.000000 0.000000 2.915327E+01
-6.000000 -2.000000 2.282346E+01
-6.000000 -4.000000 1.921136E+01
-6.000000 -6.000000 1.801047E+01
-6.000000 -8.000000 1.597408E+01
-6.000000 -10.000000 1.163917E+01
-6.000000 -12.000000 4.367565E+00
-6.000000 -14.000000 -2.376015E+00
-6.000000 -16.000000 -2.020226E+00
-6.000000 -18.000000 7.050552E+00
-6.000000 -20.000000 1.546386E+01
-6.000000 -22.000000 1.859700E+01
-6.000000 -24.000000 1.956016E+01
-6.000000 -26.000000 1.888882E+01
-6.000000 -28.000000 1.651742E+01
-6.000000 -30.000000 9.936239E+00
-6.000000 -32.000000 5.493147E+00
-6.000000 -34.000000 9.555655E+00
-6.000000 -36.000000 1.759418E+01
-6.000000 -38.000000 2.402348E+01
-6.000000 -40.000000 2.872562E+01
-4.000000 40.000000 1.848910E+00
-4.000000 38.000000 1.377667E+01
-4.000000 36.000000 2.670564E+01
-4.000000 34.000000 3.102950E+01
-4.000000 32.000000 2.162648E+01
-4.000000 30.000000 1.774011E+01
-4.000000 28.000000 2.532080E+01
-4.000000 26.000000 3.529953E+01
-4.000000 24.000000 4.380849E+01
-4.000000 22.000000 4.197039E+01
-4.000000 20.000000 3.812775E+01
-4.000000 18.000000 3.632300E+01
-4.000000 16.000000 4.372109E+01
-4.000000 14.000000 6.281517E+01
-4.000000 12.000000 9.580931E+01
-4.000000 10.000000 1.206761E+02
-4.000000 8.000000 1.066230E+02
-4.000000 6.000000 7.141621E+01
-4.000000 4.000000 4.315197E+01
-4.000000 2.000000 3.160913E+01
-4.000000 0.000000 2.643747E+01
-4.000000 -2.000000 2.314636E+01
-4.000000 -4.000000 1.760182E+01
-4.000000 -6.000000 1.509897E+01
-4.000000 -8.000000 1.471574E+01
-4.000000 -10.000000 1.295152E+01
-4.000000 -12.000000 9.146616E+00
-4.000000 -14.000000 3.320152E+00
-4.000000 -16.000000 1.042427E+00
-4.000000 -18.000000 7.936958E+00
-4.000000 -20.000000 1.568013E+01
-4.000000 -22.000000 1.915123E+01
-4.000000 -24.000000 2.353983E+01
-4.000000 -26.000000 2.500522E+01
-4.000000 -28.000000 2.285421E+01
-4.000000 -30.000000 1.506004E+01
-4.000000 -32.000000 8.652267E+00
-4.000000 -34.000000 1.168520E+01
-4.000000 -36.000000 1.836799E+01
-4.000000 -38.000000 2.370813E+01
-4.000000 -40.000000 2.801832E+01
-2.000000 40.000000 -3.948784E-02
-2.000000 38.000000 9.882575E+00
-2.000000 36.000000 1.900027E+01
-2.000000 34.000000 2.113316E+01
-2.000000 32.000000 1.325651E+01
-2.000000 30.000000 1.131959E+01
-2.000000 28.000000 1.958571E+01
-2.000000 26.000000 3.038551E+01
-2.000000 24.000000 4.231508E+01
-2.000000 22.000000 4.664259E+01
-2.000000 20.000000 4.582574E+01
-2.000000 18.000000 4.570111E+01
-2.000000 16.000000 5.589880E+01
-2.000000 14.000000 7.934324E+01
-2.000000 12.000000 1.082745E+02
-2.000000 10.000000 1.215374E+02
-2.000000 8.000000 9.555418E+01
-2.000000 6.000000 5.273366E+01
-2.000000 4.000000 2.508571E+01
-2.000000 2.000000 2.087623E+01
-2.000000 0.000000 2.463254E+01
-2.000000 -2.000000 2.589907E+01
-2.000000 -4.000000 1.964803E+01
-2.000000 -6.000000 1.418371E+01
-2.000000 -8.000000 1.322608E+01
-2.000000 -10.000000 1.404917E+01
-2.000000 -12.000000 1.481523E+01
-2.000000 -14.000000 1.251370E+01
-2.000000 -16.000000 1.101198E+01
-2.000000 -18.000000 1.572090E+01
-2.000000 -20.000000 2.037874E+01
-2.000000 -22.000000 2.246915E+01
-2.000000 -24.000000 2.719066E+01
-2.000000 -26.000000 2.938047E+01
-2.000000 -28.000000 2.677211E+01
-2.000000 -30.000000 1.873763E+01
-2.000000 -32.000000 1.280568E+01
-2.000000 -34.000000 1.636301E+01
-2.000000 -36.000000 2.194697E+01
-2.000000 -38.000000 2.579001E+01
-2.000000 -40.000000 2.878450E+01
0.000000 40.000000 -2.205172E+00
0.000000 38.000000 4.215801E+00
0.000000 36.000000 9.967350E+00
0.000000 34.000000 1.083184E+01
0.000000 32.000000 3.843770E+00
0.000000 30.000000 2.715725E+00
0.000000 28.000000 9.335932E+00
0.000000 26.000000 1.908501E+01
0.000000 24.000000 3.105542E+01
0.000000 22.000000 3.638691E+01
0.000000 20.000000 3.601167E+01
0.000000 18.000000 3.997966E+01
0.000000 16.000000 5.678961E+01
0.000000 14.000000 8.734985E+01
0.000000 12.000000 1.203566E+02
0.000000 10.000000 1.308446E+02
0.000000 8.000000 9.573034E+01
0.000000 6.000000 4.539890E+01
0.000000 4.000000 1.660749E+01
0.000000 2.000000 1.747208E+01
0.000000 0.000000 2.741607E+01
0.000000 -2.000000 3.129702E+01
0.000000 -4.000000 2.413130E+01
0.000000 -6.000000 1.455662E+01
0.000000 -8.000000 1.227121E+01
0.000000 -10.000000 1.481228E+01
0.000000 -12.000000 1.962037E+01
0.000000 -14.000000 2.213574E+01
0.000000 -16.000000 2.396778E+01
0.000000 -18.000000 2.779056E+01
0.000000 -20.000000 2.907910E+01
0.000000 -22.000000 2.824086E+01
0.000000 -24.000000 2.954871E+01
0.000000 -26.000000 2.959226E+01
0.000000 -28.000000 2.603569E+01
0.000000 -30.000000 1.953633E+01
0.000000 -32.000000 1.704504E+01
0.000000 -34.000000 2.308809E+01
0.000000 -36.000000 2.830905E+01
0.000000 -38.000000 3.051683E+01
0.000000 -40.000000 3.087172E+01
2.000000 40.000000 -5.267025E+00
2.000000 38.000000 -3.066867E+00
2.000000 36.000000 7.137918E-01
2.000000 34.000000 1.421348E+00
2.000000 32.000000 -4.098608E+00
2.000000 30.000000 -3.283533E+00
2.000000 28.000000 3.199165E+00
2.000000 26.000000 1.086353E+01
2.000000 24.000000 1.743469E+01
2.000000 22.000000 1.705659E+01
2.000000 20.000000 1.369969E+01
2.000000 18.000000 1.889754E+01
2.000000 16.000000 3.890769E+01
2.000000 14.000000 7.584237E+01
2.000000 12.000000 1.209748E+02
2.000000 10.000000 1.382925E+02
2.000000 8.000000 1.038786E+02
2.000000 6.000000 5.306677E+01
2.000000 4.000000 2.166615E+01
2.000000 2.000000 1.878007E+01
2.000000 0.000000 2.606896E+01
2.000000 -2.000000 3.026045E+01
2.000000 -4.000000 2.483666E+01
2.000000 -6.000000 1.530900E+01
2.000000 -8.000000 1.330708E+01
2.000000 -10.000000 1.677736E+01
2.000000 -12.000000 2.408947E+01
2.000000 -14.000000 3.108306E+01
2.000000 -16.000000 3.672384E+01
2.000000 -18.000000 4.124989E+01
2.000000 -20.000000 3.928627E+01
2.000000 -22.000000 3.425094E+01
2.000000 -24.000000 3.070522E+01
2.000000 -26.000000 2.628103E+01
2.000000 -28.000000 2.198627E+01
2.000000 -30.000000 1.791073E+01
2.000000 -32.000000 2.040896E+01
2.000000 -34.000000 3.080853E+01
2.000000 -36.000000 3.659674E+01
2.000000 -38.000000 3.654254E+01
2.000000 -40.000000 3.389470E+01
4.000000 40.000000 -8.316282E+00
4.000000 38.000000 -1.025454E+01
4.000000 36.000000 -7.811707E+00
4.000000 34.000000 -7.474719E+00
4.000000 32.000000 -1.165686E+01
4.000000 30.000000 -6.251420E+00
4.000000 28.000000 5.192133E+00
4.000000 26.000000 1.109145E+01
4.000000 24.000000 7.647149E+00
4.000000 22.000000 -2.054731E+00
4.000000 20.000000 -1.068523E+01
4.000000 18.000000 -7.583319E+00
4.000000 16.000000 1.290083E+01
4.000000 14.000000 5.452914E+01
4.000000 12.000000 1.114591E+02
4.000000 10.000000 1.400931E+02
4.000000 8.000000 1.150033E+02
4.000000 6.000000 6.861676E+01
4.000000 4.000000 3.021989E+01
4.000000 2.000000 1.104535E+01
4.000000 0.000000 6.410612E+00
4.000000 -2.000000 1.051691E+01
4.000000 -4.000000 1.345964E+01
4.000000 -6.000000 1.477034E+01
4.000000 -8.000000 1.828556E+01
4.000000 -10.000000 2.338567E+01
4.000000 -12.000000 3.077529E+01
4.000000 -14.000000 3.925665E+01
4.000000 -16.000000 4.734567E+01
4.000000 -18.000000 5.214216E+01
4.000000 -20.000000 4.825911E+01
4.000000 -22.000000 3.989891E+01
4.000000 -24.000000 3.180691E+01
4.000000 -26.000000 2.329056E+01
4.000000 -28.000000 1.781312E+01
4.000000 -30.000000 1.568915E+01
4.000000 -32.000000 2.282866E+01
4.000000 -34.000000 3.730541E+01
4.000000 -36.000000 4.413396E+01
4.000000 -38.000000 4.182854E+01
4.000000 -40.000000 3.677244E+01
6.000000 40.000000 -9.270509E+00
6.000000 38.000000 -1.378505E+01
6.000000 36.000000 -1.440836E+01
6.000000 34.000000 -1.678891E+01
6.000000 32.000000 -1.947580E+01
6.000000 30.000000 -9.008986E+00
6.000000 28.000000 7.657559E+00
6.000000 26.000000 1.244958E+01
6.000000 24.000000 2.412487E+00
6.000000 22.000000 -1.485303E+01
6.000000 20.000000 -2.866674E+01
6.000000 18.000000 -2.674439E+01
6.000000 16.000000 -2.979015E+00
6.000000 14.000000 4.298445E+01
6.000000 12.000000 1.024181E+02
6.000000 10.000000 1.401942E+02
6.000000 8.000000 1.277240E+02
6.000000 6.000000 8.638208E+01
6.000000 4.000000 3.481843E+01
6.000000 2.000000 -9.087545E+00
6.000000 0.000000 -3.167447E+01
6.000000 -2.000000 -2.745120E+01
6.000000 -4.000000 -1.014363E+01
6.000000 -6.000000 1.101658E+01
6.000000 -8.000000 2.607273E+01
6.000000 -10.000000 3.460504E+01
6.000000 -12.000000 3.805955E+01
6.000000 -14.000000 4.387542E+01
6.000000 -16.000000 5.218030E+01
6.000000 -18.000000 5.598260E+01
6.000000 -20.000000 5.196084E+01
6.000000 -22.000000 4.333606E+01
6.000000 -24.000000 3.285030E+01
6.000000 -26.000000 2.287718E+01
6.000000 -28.000000 1.602667E+01
6.000000 -30.000000 1.402189E+01
6.000000 -32.000000 2.394967E+01
6.000000 -34.000000 4.113832E+01
6.000000 -36.000000 4.911873E+01
6.000000 -38.000000 4.487942E+01
6.000000 -40.000000 3.791115E+01
8.000000 40.000000 -7.771792E+00
8.000000 38.000000 -1.193802E+01
8.000000 36.000000 -1.576219E+01
8.000000 34.000000 -2.290769E+01
8.000000 32.000000 -2.642496E+01
8.000000 30.000000 -1.539942E+01
8.000000 28.000000 2.366695E+00
8.000000 26.000000 9.175823E+00
8.000000 24.000000 1.013325E+00
8.000000 22.000000 -1.832931E+01
8.000000 20.000000 -3.523012E+01
8.000000 18.000000 -3.398128E+01
8.000000 16.000000 -8.382732E+00
8.000000 14.000000 3.960143E+01
8.000000 12.000000 1.000960E+02
8.000000 10.000000 1.459027E+02
8.000000 8.000000 1.453278E+02
8.000000 6.000000 1.085508E+02
8.000000 4.000000 4.315065E+01
8.000000 2.000000 -2.662544E+01
8.000000 0.000000 -7.130690E+01
8.000000 -2.000000 -6.977094E+01
8.000000 -4.000000 -3.693641E+01
8.000000 -6.000000 5.864721E+00
8.000000 -8.000000 3.256429E+01
8.000000 -10.000000 4.369119E+01
8.000000 -12.000000 4.040739E+01
8.000000 -14.000000 4.117272E+01
8.000000 -16.000000 4.662944E+01
8.000000 -18.000000 4.922784E+01
8.000000 -20.000000 4.609802E+01
8.000000 -22.000000 4.030032E+01
8.000000 -24.000000 3.154294E+01
8.000000 -26.000000 2.249417E+01
8.000000 -28.000000 1.481269E+01
8.000000 -30.000000 1.191806E+01
8.000000 -32.000000 2.328125E+01
8.000000 -34.000000 4.245049E+01
8.000000 -36.000000 5.088436E+01
8.000000 -38.000000 4.494614E+01
8.000000 -40.000000 3.720602E+01
10.000000 40.000000 -4.594463E+00
10.000000 38.000000 -6.161421E+00
10.000000 36.000000 -1.051756E+01
10.000000 34.000000 -2.212043E+01
10.000000 32.000000 -3.106325E+01
10.000000 30.000000 -2.544834E+01
10.000000 28.000000 -9.234898E+00
10.000000 26.000000 2.446260E+00
10.000000 24.000000 1.941410E+00
10.000000 22.000000 -1.438276E+01
10.000000 20.000000 -3.361432E+01
10.000000 18.000000 -3.502689E+01
10.000000 16.000000 -1.005372E+01
10.000000 14.000000 3.811723E+01
10.000000 12.000000 1.039616E+02
10.000000 10.000000 1.623261E+02
10.000000 8.000000 1.748622E+02
10.000000 6.000000 1.438966E+02
10.000000 4.000000 6.742324E+01
10.000000 2.000000 -2.685874E+01
10.000000 0.000000 -9.642356E+01
10.000000 -2.000000 -1.056752E+02
10.000000 -4.000000 -6.594569E+01
10.000000 -6.000000 -7.247528E+00
10.000000 -8.000000 2.813096E+01
10.000000 -10.000000 4.135580E+01
10.000000 -12.000000 3.245188E+01
10.000000 -14.000000 2.813369E+01
10.000000 -16.000000 3.046859E+01
10.000000 -18.000000 3.355969E+01
10.000000 -20.000000 3.277663E+01
10.000000 -22.000000 3.105497E+01
10.000000 -24.000000 2.681282E+01
10.000000 -26.000000 1.958838E+01
10.000000 -28.000000 1.201592E+01
10.000000 -30.000000 9.186426E+00
10.000000 -32.000000 2.061357E+01
10.000000 -34.000000 3.966836E+01
10.000000 -36.000000 4.770505E+01
10.000000 -38.000000 4.237424E+01
10.000000 -40.000000 3.623518E+01
12.000000 40.000000 -1.482250E+00
12.000000 38.000000 1.304302E-01
12.000000 36.000000 -2.606066E+00
12.000000 34.000000 -1.506062E+01
12.000000 32.000000 -2.941630E+01
12.000000 30.000000 -3.142962E+01
12.000000 28.000000 -1.804298E+01
12.000000 26.000000 -3.302898E+00
12.000000 24.000000 3.062174E+00
12.000000 22.000000 -7.377447E+00
12.000000 20.000000 -2.555935E+01
12.000000 18.000000 -2.957609E+01
12.000000 16.000000 -6.560350E+00
12.000000 14.000000 4.106795E+01
12.000000 12.000000 1.129589E+02
12.000000 10.000000 1.838105E+02
12.000000 8.000000 2.080675E+02
12.000000 6.000000 1.841405E+02
12.000000 4.000000 1.026778E+02
12.000000 2.000000 -7.211981E+00
12.000000 0.000000 -9.668873E+01
12.000000 -2.000000 -1.253824E+02
12.000000 -4.000000 -9.659763E+01
12.000000 -6.000000 -3.725876E+01
12.000000 -8.000000 2.045698E+00
12.000000 -10.000000 1.723155E+01
12.000000 -12.000000 7.973375E+00
12.000000 -14.000000 3.456418E+00
12.000000 -16.000000 7.597176E+00
12.000000 -18.000000 1.447641E+01
12.000000 -20.000000 1.741978E+01
12.000000 -22.000000 1.948006E+01
12.000000 -24.000000 2.018076E+01
12.000000 -26.000000 1.552538E+01
12.000000 -28.000000 8.967462E+00
12.000000 -30.000000 6.590041E+00
12.000000 -32.000000 1.653146E+01
12.000000 -34.000000 3.306380E+01
12.000000 -36.000000 4.045801E+01
12.000000 -38.000000 3.805845E+01
12.000000 -40.000000 3.540753E+01
14.000000 40.000000 -1.774593E+00
14.000000 38.000000 3.464003E+00
14.000000 36.000000 5.148328E+00
14.000000 34.000000 -3.601530E+00
14.000000 32.000000 -1.997451E+01
14.000000 30.000000 -2.774716E+01
14.000000 28.000000 -1.822277E+01
14.000000 26.000000 -3.109493E+00
14.000000 24.000000 7.646116E+00
14.000000 22.000000 3.992996E+00
14.000000 20.000000 -8.458264E+00
14.000000 18.000000 -1.223737E+01
14.000000 16.000000 8.055414E+00
14.000000 14.000000 5.395659E+01
14.000000 12.000000 1.251076E+02
14.000000 10.000000 1.976083E+02
14.000000 8.000000 2.248946E+02
14.000000 6.000000 2.051060E+02
14.000000 4.000000 1.290133E+02
14.000000 2.000000 2.084512E+01
14.000000 0.000000 -7.656940E+01
14.000000 -2.000000 -1.260575E+02
14.000000 -4.000000 -1.216136E+02
14.000000 -6.000000 -7.848155E+01
14.000000 -8.000000 -4.337591E+01
14.000000 -10.000000 -2.805500E+01
14.000000 -12.000000 -3.090419E+01
14.000000 -14.000000 -2.845664E+01
14.000000 -16.000000 -1.709486E+01
14.000000 -18.000000 -4.217921E+00
14.000000 -20.000000 3.288327E+00
14.000000 -22.000000 8.707300E+00
14.000000 -24.000000 1.363948E+01
14.000000 -26.000000 1.235706E+01
14.000000 -28.000000 7.992033E+00
14.000000 -30.000000 6.082617E+00
14.000000 -32.000000 1.361160E+01
14.000000 -34.000000 2.670417E+01
14.000000 -36.000000 3.247233E+01
14.000000 -38.000000 3.220867E+01
14.000000 -40.000000 3.305828E+01
16.000000 40.000000 -7.080738E+00
16.000000 38.000000 2.639540E+00
16.000000 36.000000 1.183388E+01
16.000000 34.000000 9.727767E+00
16.000000 32.000000 -6.020623E+00
16.000000 30.000000 -1.663932E+01
16.000000 28.000000 -1.030349E+01
16.000000 26.000000 4.410329E+00
16.000000 24.000000 1.852753E+01
16.000000 22.000000 1.989857E+01
16.000000 20.000000 1.336966E+01
16.000000 18.000000 1.159940E+01
16.000000 16.000000 2.917684E+01
16.000000 14.000000 7.120835E+01
16.000000 12.000000 1.357913E+02
16.000000 10.000000 2.012203E+02
16.000000 8.000000 2.232340E+02
16.000000 6.000000 2.020260E+02
16.000000 4.000000 1.379848E+02
16.000000 2.000000 4.494787E+01
16.000000 0.000000 -4.931731E+01
16.000000 -2.000000 -1.132413E+02
16.000000 -4.000000 -1.353289E+02
16.000000 -6.000000 -1.182371E+02
16.000000 -8.000000 -9.454743E+01
16.000000 -10.000000 -8.117513E+01
16.000000 -12.000000 -7.432539E+01
16.000000 -14.000000 -6.205629E+01
16.000000 -16.000000 -4.164261E+01
16.000000 -18.000000 -2.132409E+01
16.000000 -20.000000 -7.087805E+00
16.000000 -22.000000 2.035301E+00
16.000000 -24.000000 8.824348E+00
16.000000 -26.000000 1.019710E+01
16.000000 -28.000000 8.891310E+00
16.000000 -30.000000 8.353349E+00
16.000000 -32.000000 1.356017E+01
16.000000 -34.000000 2.314572E+01
16.000000 -36.000000 2.644002E+01
16.000000 -38.000000 2.603458E+01
16.000000 -40.000000 2.791091E+01
18.000000 40.000000 -1.431613E+01
18.000000 38.000000 -1.406294E+00
18.000000 36.000000 1.431662E+01
18.000000 34.000000 1.952103E+01
18.000000 32.000000 7.596643E+00
18.000000 30.000000 -2.910356E+00
18.000000 28.000000 1.013287E+00
18.000000 26.000000 1.403540E+01
18.000000 24.000000 2.926674E+01
18.000000 22.000000 3.195390E+01
18.000000 20.000000 2.875636E+01
18.000000 18.000000 2.928544E+01
18.000000 16.000000 4.610739E+01
18.000000 14.000000 8.488385E+01
18.000000 12.000000 1.417855E+02
18.000000 10.000000 1.983835E+02
18.000000 8.000000 2.142983E+02
18.000000 6.000000 1.909168E+02
18.000000 4.000000 1.388033E+02
18.000000 2.000000 6.402836E+01
18.000000 0.000000 -2.203759E+01
18.000000 -2.000000 -9.443588E+01
18.000000 -4.000000 -1.387217E+02
18.000000 -6.000000 -1.472215E+02
18.000000 -8.000000 -1.372848E+02
18.000000 -10.000000 -1.278900E+02
18.000000 -12.000000 -1.141339E+02
18.000000 -14.000000 -9.394489E+01
18.000000 -16.000000 -6.566525E+01
18.000000 -18.000000 -3.601651E+01
18.000000 -20.000000 -1.316468E+01
18.000000 -22.000000 -4.407721E-01
18.000000 -24.000000 6.323700E+00
18.000000 -26.000000 9.196738E+00
18.000000 -28.000000 1.026207E+01
18.000000 -30.000000 1.067911E+01
18.000000 -32.000000 1.476483E+01
18.000000 -34.000000 2.235273E+01
18.000000 -36.000000 2.332433E+01
18.000000 -38.000000 2.065743E+01
18.000000 -40.000000 2.085852E+01
20.000000 40.000000 -2.142515E+01
20.000000 38.000000 -7.568324E+00
20.000000 36.000000 1.157073E+01
20.000000 34.000000 2.356764E+01
20.000000 32.000000 1.780812E+01
20.000000 30.000000 9.171183E+00
20.000000 28.000000 1.085347E+01
20.000000 26.000000 2.048341E+01
20.000000 24.000000 3.253561E+01
20.000000 22.000000 3.145792E+01
20.000000 20.000000 2.647903E+01
20.000000 18.000000 2.896116E+01
20.000000 16.000000 4.878394E+01
20.000000 14.000000 8.732577E+01
20.000000 12.000000 1.400015E+02
20.000000 10.000000 1.922704E+02
20.000000 8.000000 2.089563E+02
20.000000 6.000000 1.919296E+02
20.000000 4.000000 1.472904E+02
20.000000 2.000000 8.091545E+01
20.000000 0.000000 3.968580E-01
20.000000 -2.000000 -7.707882E+01
20.000000 -4.000000 -1.354802E+02
20.000000 -6.000000 -1.606061E+02
20.000000 -8.000000 -1.624720E+02
20.000000 -10.000000 -1.595704E+02
20.000000 -12.000000 -1.453068E+02
20.000000 -14.000000 -1.219317E+02
20.000000 -16.000000 -8.799696E+01
20.000000 -18.000000 -4.893934E+01
20.000000 -20.000000 -1.725586E+01
20.000000 -22.000000 -8.133354E-01
20.000000 -24.000000 5.595389E+00
20.000000 -26.000000 9.070691E+00
20.000000 -28.000000 1.194262E+01
20.000000 -30.000000 1.221058E+01
20.000000 -32.000000 1.543466E+01
20.000000 -34.000000 2.217622E+01
20.000000 -36.000000 2.102367E+01
20.000000 -38.000000 1.542451E+01
20.000000 -40.000000 1.368414E+01
22.000000 40.000000 -2.930132E+01
22.000000 38.000000 -1.558565E+01
22.000000 36.000000 5.714436E+00
22.000000 34.000000 2.363748E+01
22.000000 32.000000 2.293484E+01
22.000000 30.000000 1.547527E+01
22.000000 28.000000 1.622184E+01
22.000000 26.000000 2.262944E+01
22.000000 24.000000 2.853686E+01
22.000000 22.000000 1.931453E+01
22.000000 20.000000 7.766036E+00
22.000000 18.000000 1.116857E+01
22.000000 16.000000 3.593392E+01
22.000000 14.000000 7.594221E+01
22.000000 12.000000 1.284701E+02
22.000000 10.000000 1.821979E+02
22.000000 8.000000 2.044273E+02
22.000000 6.000000 1.963766E+02
22.000000 4.000000 1.583587E+02
22.000000 2.000000 9.471828E+01
22.000000 0.000000 1.667275E+01
22.000000 -2.000000 -6.271633E+01
22.000000 -4.000000 -1.270180E+02
22.000000 -6.000000 -1.590247E+02
22.000000 -8.000000 -1.670690E+02
22.000000 -10.000000 -1.695759E+02
22.000000 -12.000000 -1.615909E+02
22.000000 -14.000000 -1.418290E+02
22.000000 -16.000000 -1.056831E+02
22.000000 -18.000000 -6.035281E+01
22.000000 -20.000000 -2.145920E+01
22.000000 -22.000000 -5.989971E-01
22.000000 -24.000000 6.686163E+00
22.000000 -26.000000 9.044137E+00
22.000000 -28.000000 1.202370E+01
22.000000 -30.000000 1.234760E+01
22.000000 -32.000000 1.469016E+01
22.000000 -34.000000 1.979667E+01
22.000000 -36.000000 1.739676E+01
22.000000 -38.000000 1.034462E+01
22.000000 -40.000000 7.182793E+00
24.000000 40.000000 -3.823378E+01
24.000000 38.000000 -2.514948E+01
24.000000 36.000000 -3.224133E+00
24.000000 34.000000 1.852102E+01
24.000000 32.000000 2.174257E+01
24.000000 30.000000 1.577382E+01
24.000000 28.000000 1.662414E+01
24.000000 26.000000 2.038768E+01
24.000000 24.000000 2.013010E+01
24.000000 22.000000 3.321486E+00
24.000000 20.000000 -1.482034E+01
24.000000 18.000000 -1.096094E+01
24.000000 16.000000 1.877146E+01
24.000000 14.000000 5.953689E+01
24.000000 12.000000 1.107755E+02
24.000000 10.000000 1.641499E+02
24.000000 8.000000 1.907104E+02
24.000000 6.000000 1.889957E+02
24.000000 4.000000 1.590405E+02
24.000000 2.000000 1.009188E+02
24.000000 0.000000 2.590866E+01
24.000000 -2.000000 -5.278702E+01
24.000000 -4.000000 -1.169801E+02
24.000000 -6.000000 -1.493119E+02
24.000000 -8.000000 -1.572519E+02
24.000000 -10.000000 -1.612104E+02
24.000000 -12.000000 -1.621903E+02
24.000000 -14.000000 -1.503918E+02
24.000000 -16.000000 -1.162177E+02
24.000000 -18.000000 -6.835035E+01
24.000000 -20.000000 -2.478654E+01
24.000000 -22.000000 -5.691843E-01
24.000000 -24.000000 7.833765E+00
24.000000 -26.000000 8.095325E+00
24.000000 -28.000000 9.352585E+00
24.000000 -30.000000 9.436586E+00
24.000000 -32.000000 1.160265E+01
24.000000 -34.000000 1.575636E+01
24.000000 -36.000000 1.301626E+01
24.000000 -38.000000 5.245653E+00
24.000000 -40.000000 6.698799E-01
26.000000 40.000000 -4.807317E+01
26.000000 38.000000 -3.646623E+01
26.000000 36.000000 -1.588788E+01
26.000000 34.000000 7.059341E+00
26.000000 32.000000 1.378848E+01
26.000000 30.000000 1.143355E+01
26.000000 28.000000 1.164788E+01
26.000000 26.000000 1.255756E+01
26.000000 24.000000 9.098144E+00
26.000000 22.000000 -9.316799E+00
26.000000 20.000000 -2.826266E+01
26.000000 18.000000 -2.413205E+01
26.000000 16.000000 7.554338E+00
26.000000 14.000000 4.771439E+01
26.000000 12.000000 9.609979E+01
26.000000 10.000000 1.452058E+02
26.000000 8.000000 1.702968E+02
26.000000 6.000000 1.696193E+02
26.000000 4.000000 1.455314E+02
26.000000 2.000000 9.462975E+01
26.000000 0.000000 2.431844E+01
26.000000 -2.000000 -5.056826E+01
26.000000 -4.000000 -1.097205E+02
26.000000 -6.000000 -1.375468E+02
26.000000 -8.000000 -1.427239E+02
26.000000 -10.000000 -1.469477E+02
26.000000 -12.000000 -1.543049E+02
26.000000 -14.000000 -1.489445E+02
26.000000 -16.000000 -1.193842E+02
26.000000 -18.000000 -7.202304E+01
26.000000 -20.000000 -2.778943E+01
26.000000 -22.000000 -3.050810E+00
26.000000 -24.000000 5.794149E+00
26.000000 -26.000000 5.638388E+00
26.000000 -28.000000 5.272264E+00
26.000000 -30.000000 4.138790E+00
26.000000 -32.000000 6.501238E+00
26.000000 -34.000000 1.105945E+01
26.000000 -36.000000 7.801662E+00
26.000000 -38.000000 -1.150352E+00
26.000000 -40.000000 -6.444960E+00
28.000000 40.000000 -5.740145E+01
28.000000 38.000000 -4.861097E+01
28.000000 36.000000 -3.085231E+01
28.000000 34.000000 -8.924217E+00
28.000000 32.000000 -9.397430E-01
28.000000 30.000000 -2.773972E-01
28.000000 28.000000 -4.806519E-01
28.000000 26.000000 -1.548330E+00
28.000000 24.000000 -5.155117E+00
28.000000 22.000000 -1.767886E+01
28.000000 20.000000 -2.883608E+01
28.000000 18.000000 -2.193277E+01
28.000000 16.000000 7.956629E+00
28.000000 14.000000 4.562574E+01
28.000000 12.000000 9.061739E+01
28.000000 10.000000 1.333492E+02
28.000000 8.000000 1.495083E+02
28.000000 6.000000 1.431104E+02
28.000000 4.000000 1.200263E+02
28.000000 2.000000 7.534818E+01
28.000000 0.000000 1.288201E+01
28.000000 -2.000000 -5.306571E+01
28.000000 -4.000000 -1.043559E+02
28.000000 -6.000000 -1.261764E+02
28.000000 -8.000000 -1.299440E+02
28.000000 -10.000000 -1.357825E+02
28.000000 -12.000000 -1.453552E+02
28.000000 -14.000000 -1.418629E+02
28.000000 -16.000000 -1.152995E+02
28.000000 -18.000000 -7.288340E+01
28.000000 -20.000000 -3.437900E+01
28.000000 -22.000000 -1.216136E+01
28.000000 -24.000000 -1.675325E+00
28.000000 -26.000000 5.569725E-01
28.000000 -28.000000 7.706451E-01
28.000000 -30.000000 -2.853088E-01
28.000000 -32.000000 1.835340E+00
28.000000 -34.000000 5.534592E+00
28.000000 -36.000000 1.163898E+00
28.000000 -38.000000 -8.594479E+00
28.000000 -40.000000 -1.400117E+01
30.000000 40.000000 -6.483401E+01
30.000000 38.000000 -5.907243E+01
30.000000 36.000000 -4.457744E+01
30.000000 34.000000 -2.590886E+01
30.000000 32.000000 -1.850717E+01
30.000000 30.000000 -1.724549E+01
30.000000 28.000000 -1.779409E+01
30.000000 26.000000 -1.996721E+01
30.000000 24.000000 -2.450515E+01
30.000000 22.000000 -2.912153E+01
30.000000 20.000000 -2.786879E+01
30.000000 18.000000 -1.280421E+01
30.000000 16.000000 1.660458E+01
30.000000 14.000000 5.244537E+01
30.000000 12.000000 9.257732E+01
30.000000 10.000000 1.242399E+02
30.000000 8.000000 1.254751E+02
30.000000 6.000000 1.080383E+02
30.000000 4.000000 8.485534E+01
30.000000 2.000000 4.992161E+01
30.000000 0.000000 1.799946E-01
30.000000 -2.000000 -5.211344E+01
30.000000 -4.000000 -9.285093E+01
30.000000 -6.000000 -1.105021E+02
30.000000 -8.000000 -1.161054E+02
30.000000 -10.000000 -1.260656E+02
30.000000 -12.000000 -1.372594E+02
30.000000 -14.000000 -1.330829E+02
30.000000 -16.000000 -1.078076E+02
30.000000 -18.000000 -7.257336E+01
30.000000 -20.000000 -4.368472E+01
30.000000 -22.000000 -2.664826E+01
30.000000 -24.000000 -1.357922E+01
30.000000 -26.000000 -6.470350E+00
30.000000 -28.000000 -3.094841E+00
30.000000 -30.000000 -3.039478E+00
30.000000 -32.000000 -1.714542E+00
30.000000 -34.000000 -3.143978E-01
30.000000 -36.000000 -6.230757E+00
30.000000 -38.000000 -1.676280E+01
30.000000 -40.000000 -2.221460E+01
32.000000 40.000000 -7.185757E+01
32.000000 38.000000 -6.743380E+01
32.000000 36.000000 -5.390390E+01
32.000000 34.000000 -3.852585E+01
32.000000 32.000000 -3.151209E+01
32.000000 30.000000 -3.041315E+01
32.000000 28.000000 -3.340563E+01
32.000000 26.000000 -3.907384E+01
32.000000 24.000000 -4.811349E+01
32.000000 22.000000 -4.810810E+01
32.000000 20.000000 -3.775586E+01
32.000000 18.000000 -1.286533E+01
32.000000 16.000000 2.205166E+01
32.000000 14.000000 6.124630E+01
32.000000 12.000000 9.728604E+01
32.000000 10.000000 1.147578E+02
32.000000 8.000000 9.791197E+01
32.000000 6.000000 6.785343E+01
32.000000 4.000000 4.707379E+01
32.000000 2.000000 2.470417E+01
32.000000 0.000000 -8.597048E+00
32.000000 -2.000000 -4.421139E+01
32.000000 -4.000000 -7.181494E+01
32.000000 -6.000000 -8.664363E+01
32.000000 -8.000000 -9.797605E+01
32.000000 -10.000000 -1.149007E+02
32.000000 -12.000000 -1.297955E+02
32.000000 -14.000000 -1.252832E+02
32.000000 -16.000000 -1.016163E+02
32.000000 -18.000000 -7.278612E+01
32.000000 -20.000000 -5.233139E+01
32.000000 -22.000000 -3.981231E+01
32.000000 -24.000000 -2.377518E+01
32.000000 -26.000000 -1.176398E+01
32.000000 -28.000000 -6.230392E+00
32.000000 -30.000000 -6.111938E+00
32.000000 -32.000000 -5.422253E+00
32.000000 -34.000000 -5.773903E+00
32.000000 -36.000000 -1.424801E+01
32.000000 -38.000000 -2.635364E+01
32.000000 -40.000000 -3.127998E+01
34.000000 40.000000 -7.892125E+01
34.000000 38.000000 -7.496467E+01
34.000000 36.000000 -6.002020E+01
34.000000 34.000000 -4.532071E+01
34.000000 32.000000 -3.792372E+01
34.000000 30.000000 -3.648339E+01
34.000000 28.000000 -4.114577E+01
34.000000 26.000000 -5.114898E+01
34.000000 24.000000 -6.624158E+01
34.000000 22.000000 -6.756441E+01
34.000000 20.000000 -5.738136E+01
34.000000 18.000000 -2.742943E+01
34.000000 16.000000 1.736453E+01
34.000000 14.000000 6.566049E+01
34.000000 12.000000 1.037021E+02
34.000000 10.000000 1.140737E+02
34.000000 8.000000 8.186526E+01
34.000000 6.000000 3.968032E+01
34.000000 4.000000 1.942687E+01
34.000000 2.000000 5.952538E+00
34.000000 0.000000 -1.483470E+01
34.000000 -2.000000 -3.741727E+01
34.000000 -4.000000 -5.362164E+01
34.000000 -6.000000 -6.464204E+01
34.000000 -8.000000 -8.152311E+01
34.000000 -10.000000 -1.060322E+02
34.000000 -12.000000 -1.260356E+02
34.000000 -14.000000 -1.240708E+02
34.000000 -16.000000 -1.020937E+02
34.000000 -18.000000 -7.631027E+01
34.000000 -20.000000 -5.878513E+01
34.000000 -22.000000 -4.653126E+01
34.000000 -24.000000 -2.880847E+01
34.000000 -26.000000 -1.460171E+01
34.000000 -28.000000 -9.511221E+00
34.000000 -30.000000 -9.760967E+00
34.000000 -32.000000 -9.959326E+00
34.000000 -34.000000 -1.158708E+01
34.000000 -36.000000 -2.266428E+01
34.000000 -38.000000 -3.543520E+01
34.000000 -40.000000 -3.952052E+01
36.000000 40.000000 -8.487421E+01
36.000000 38.000000 -8.121766E+01
36.000000 36.000000 -6.569217E+01
36.000000 34.000000 -4.929789E+01
36.000000 32.000000 -3.965629E+01
36.000000 30.000000 -3.623307E+01
36.000000 28.000000 -3.869127E+01
36.000000 26.000000 -4.875136E+01
36.000000 24.000000 -6.728218E+01
36.000000 22.000000 -7.633467E+01
36.000000 20.000000 -7.452096E+01
36.000000 18.000000 -4.684011E+01
36.000000 16.000000 5.498565E+00
36.000000 14.000000 6.342288E+01
36.000000 12.000000 1.068004E+02
36.000000 10.000000 1.197993E+02
36.000000 8.000000 8.453469E+01
36.000000 6.000000 3.742892E+01
36.000000 4.000000 1.073668E+01
36.000000 2.000000 -3.493485E+00
36.000000 0.000000 -2.070983E+01
36.000000 -2.000000 -3.721826E+01
36.000000 -4.000000 -4.702408E+01
36.000000 -6.000000 -5.431731E+01
36.000000 -8.000000 -7.245824E+01
36.000000 -10.000000 -1.021268E+02
36.000000 -12.000000 -1.272503E+02
36.000000 -14.000000 -1.291214E+02
36.000000 -16.000000 -1.090179E+02
36.000000 -18.000000 -8.293796E+01
36.000000 -20.000000 -6.325657E+01
36.000000 -22.000000 -4.912490E+01
36.000000 -24.000000 -3.194783E+01
36.000000 -26.000000 -1.853140E+01
36.000000 -28.000000 -1.399812E+01
36.000000 -30.000000 -1.426657E+01
36.000000 -32.000000 -1.574358E+01
36.000000 -34.000000 -1.823367E+01
36.000000 -36.000000 -3.011385E+01
36.000000 -38.000000 -4.148446E+01
36.000000 -40.000000 -4.480246E+01
38.000000 40.000000 -8.875393E+01
38.000000 38.000000 -8.610307E+01
38.000000 36.000000 -7.134563E+01
38.000000 34.000000 -5.220290E+01
38.000000 32.000000 -3.818006E+01
38.000000 30.000000 -2.989902E+01
38.000000 28.000000 -2.653052E+01
38.000000 26.000000 -3.130661E+01
38.000000 24.000000 -4.837710E+01
38.000000 22.000000 -6.724077E+01
38.000000 20.000000 -7.596584E+01
38.000000 18.000000 -5.590136E+01
38.000000 16.000000 -5.869915E+00
38.000000 14.000000 5.334128E+01
38.000000 12.000000 9.954167E+01
38.000000 10.000000 1.172997E+02
38.000000 8.000000 8.932648E+01
38.000000 6.000000 4.679469E+01
38.000000 4.000000 1.448452E+01
38.000000 2.000000 -7.032317E+00
38.000000 0.000000 -2.717348E+01
38.000000 -2.000000 -4.209398E+01
38.000000 -4.000000 -4.870812E+01
38.000000 -6.000000 -5.195229E+01
38.000000 -8.000000 -6.663513E+01
38.000000 -10.000000 -9.620348E+01
38.000000 -12.000000 -1.229960E+02
38.000000 -14.000000 -1.285802E+02
38.000000 -16.000000 -1.136523E+02
38.000000 -18.000000 -8.947135E+01
38.000000 -20.000000 -6.886624E+01
38.000000 -22.000000 -5.388461E+01
38.000000 -24.000000 -3.790969E+01
38.000000 -26.000000 -2.588655E+01
38.000000 -28.000000 -2.099160E+01
38.000000 -30.000000 -2.095880E+01
38.000000 -32.000000 -2.285417E+01
38.000000 -34.000000 -2.475342E+01
38.000000 -36.000000 -3.518161E+01
38.000000 -38.000000 -4.424418E+01
38.000000 -40.000000 -4.666869E+01
40.000000 40.000000 -8.889380E+01
40.000000 38.000000 -8.860900E+01
40.000000 36.000000 -7.493217E+01
40.000000 34.000000 -5.329255E+01
40.000000 32.000000 -3.534136E+01
40.000000 30.000000 -2.087962E+01
40.000000 28.000000 -8.825387E+00
40.000000 26.000000 -5.736380E+00
40.000000 24.000000 -1.686790E+01
40.000000 22.000000 -4.220516E+01
40.000000 20.000000 -5.983119E+01
40.000000 18.000000 -5.022936E+01
40.000000 16.000000 -1.095316E+01
40.000000 14.000000 3.896042E+01
40.000000 12.000000 8.113705E+01
40.000000 10.000000 1.017578E+02
40.000000 8.000000 8.315025E+01
40.000000 6.000000 4.842048E+01
40.000000 4.000000 1.601098E+01
40.000000 2.000000 -9.968251E+00
40.000000 0.000000 -3.407245E+01
40.000000 -2.000000 -4.911464E+01
40.000000 -4.000000 -5.316660E+01
40.000000 -6.000000 -5.061532E+01
40.000000 -8.000000 -5.775912E+01
40.000000 -10.000000 -8.000276E+01
40.000000 -12.000000 -1.034675E+02
40.000000 -14.000000 -1.133304E+02
40.000000 -16.000000 -1.076214E+02
40.000000 -18.000000 -9.259069E+01
40.000000 -20.000000 -7.711572E+01
40.000000 -22.000000 -6.352259E+01
40.000000 -24.000000 -4.848634E+01
40.000000 -26.000000 -3.689682E+01
40.000000 -28.000000 -3.092175E+01
40.000000 -30.000000 -2.932609E+01
40.000000 -32.000000 -2.974343E+01
40.000000 -34.000000 -3.006789E+01
40.000000 -36.000000 -3.711091E+01
40.000000 -38.000000 -4.366054E+01
40.000000 -40.000000 -4.560383E+01
42.000000 40.000000 -8.402081E+01
42.000000 38.000000 -8.478333E+01
42.000000 36.000000 -7.368921E+01
42.000000 34.000000 -5.260336E+01
42.000000 32.000000 -3.272817E+01
42.000000 30.000000 -1.288095E+01
42.000000 28.000000 7.659941E+00
42.000000 26.000000 1.780973E+01
42.000000 24.000000 1.413297E+01
42.000000 22.000000 -1.132444E+01
42.000000 20.000000 -3.272218E+01
42.000000 18.000000 -3.338230E+01
42.000000 16.000000 -9.761645E+00
42.000000 14.000000 2.281470E+01
42.000000 12.000000 5.389923E+01
42.000000 10.000000 7.233722E+01
42.000000 8.000000 6.036159E+01
42.000000 6.000000 3.531781E+01
42.000000 4.000000 9.325220E+00
42.000000 2.000000 -1.228102E+01
42.000000 0.000000 -3.463180E+01
42.000000 -2.000000 -4.917046E+01
42.000000 -4.000000 -5.134444E+01
42.000000 -6.000000 -4.386260E+01
42.000000 -8.000000 -4.302915E+01
42.000000 -10.000000 -5.468451E+01
42.000000 -12.000000 -7.308213E+01
42.000000 -14.000000 -8.671749E+01
42.000000 -16.000000 -9.175357E+01
42.000000 -18.000000 -8.953124E+01
42.000000 -20.000000 -8.367676E+01
42.000000 -22.000000 -7.431579E+01
42.000000 -24.000000 -6.019339E+01
42.000000 -26.000000 -4.842330E+01
42.000000 -28.000000 -4.064937E+01
42.000000 -30.000000 -3.737029E+01
42.000000 -32.000000 -3.532488E+01
42.000000 -34.000000 -3.310687E+01
42.000000 -36.000000 -3.635382E+01
42.000000 -38.000000 -4.086282E+01
42.000000 -40.000000 -4.233353E+01
44.000000 40.000000 -7.456707E+01
44.000000 38.000000 -7.379255E+01
44.000000 36.000000 -6.632879E+01
44.000000 34.000000 -4.966935E+01
44.000000 32.000000 -3.049629E+01
44.000000 30.000000 -7.047603E+00
44.000000 28.000000 1.860680E+01
44.000000 26.000000 3.237110E+01
44.000000 24.000000 3.469676E+01
44.000000 22.000000 1.383846E+01
44.000000 20.000000 -6.888844E+00
44.000000 18.000000 -1.548641E+01
44.000000 16.000000 -8.268531E+00
44.000000 14.000000 5.865120E+00
44.000000 12.000000 2.216422E+01
44.000000 10.000000 3.192889E+01
44.000000 8.000000 2.379407E+01
44.000000 6.000000 8.517354E+00
44.000000 4.000000 -3.485870E+00
44.000000 2.000000 -1.135737E+01
44.000000 0.000000 -2.186070E+01
44.000000 -2.000000 -3.151580E+01
44.000000 -4.000000 -3.450197E+01
44.000000 -6.000000 -2.745988E+01
44.000000 -8.000000 -2.268492E+01
44.000000 -10.000000 -2.628930E+01
44.000000 -12.000000 -4.108186E+01
44.000000 -14.000000 -5.757071E+01
44.000000 -16.000000 -7.207057E+01
44.000000 -18.000000 -8.042604E+01
44.000000 -20.000000 -8.292090E+01
44.000000 -22.000000 -7.868505E+01
44.000000 -24.000000 -6.681812E+01
44.000000 -26.000000 -5.593917E+01
44.000000 -28.000000 -4.690833E+01
44.000000 -30.000000 -4.308044E+01
44.000000 -32.000000 -3.929902E+01
44.000000 -34.000000 -3.431928E+01
44.000000 -36.000000 -3.466650E+01
