-12.000000 -22.000000 6.152593E+01
-12.000000 -24.000000 5.214119E+01
-12.000000 -26.000000 3.821701E+01
-12.000000 -28.000000 3.368120E+01
-12.000000 -30.000000 3.642761E+01
-12.000000 -32.000000 4.042277E+01
-12.000000 -34.000000 4.316018E+01
-12.000000 -36.000000 3.807959E+01
-12.000000 -38.000000 2.757292E+01
-12.000000 -40.000000 1.860778E+01
-10.000000 40.000000 6.188210E+00
-10.000000 38.000000 -9.596668E+00
-10.000000 36.000000 -3.678342E+01
-10.000000 34.000000 -6.928209E+01
-10.000000 32.000000 -9.575466E+01
-10.000000 30.000000 -1.126828E+02
-10.000000 28.000000 -1.138626E+02
-10.000000 26.000000 -1.059032E+02
-10.000000 24.000000 -8.827985E+01
-10.000000 22.000000 -6.229982E+01
-10.000000 20.000000 -4.942359E+01
-10.000000 18.000000 -5.286052E+01
-10.000000 16.000000 -6.472113E+01
-10.000000 14.000000 -8.177450E+01
-10.000000 12.000000 -1.100455E+02
-10.000000 10.000000 -1.433583E+02
-10.000000 8.000000 -1.330258E+02
-10.000000 6.000000 -7.680090E+01
-10.000000 4.000000 5.844999E+00
-10.000000 2.000000 5.930749E+01
-10.000000 0.000000 7.903413E+01
-10.000000 -2.000000 8.382250E+01
-10.000000 -4.000000 9.296206E+01
-10.000000 -6.000000 9.349388E+01
-10.000000 -8.000000 8.189122E+01
-10.000000 -10.000000 7.064734E+01
-10.000000 -12.000000 5.875367E+01
-10.000000 -14.000000 5.301847E+01
-10.000000 -16.000000 4.616364E+01
-10.000000 -18.000000 3.875599E+01
-10.000000 -20.000000 4.009394E+01
-10.000000 -22.000000 4.274689E+01
-10.000000 -24.000000 3.573651E+01
-10.000000 -26.000000 2.548113E+01
-10.000000 -28.000000 2.388258E+01
-10.000000 -30.000000 2.921003E+01
-10.000000 -32.000000 3.500146E+01
-10.000000 -34.000000 3.719590E+01
-10.000000 -36.000000 3.147526E+01
-10.000000 -38.000000 2.292383E+01
-10.000000 -40.000000 1.687051E+01
-8.000000 40.000000 1.604736E+01
-8.000000 38.000000 -2.953621E+00
-8.000000 36.000000 -3.059240E+01
-8.000000 34.000000 -6.714696E+01
-8.000000 32.000000 -9.966716E+01
-8.000000 30.000000 -1.236008E+02
-8.000000 28.000000 -1.356858E+02
-8.000000 26.000000 -1.344208E+02
-8.000000 24.000000 -1.212294E+02
-8.000000 22.000000 -9.170096E+01
-8.000000 20.000000 -7.439176E+01
-8.000000 18.000000 -6.888048E+01
-8.000000 16.000000 -6.113133E+01
-8.000000 14.000000 -5.145469E+01
-8.000000 12.000000 -5.814954E+01
-8.000000 10.000000 -7.822683E+01
-8.000000 8.000000 -7.488662E+01
-8.000000 6.000000 -3.724335E+01
-8.000000 4.000000 1.741292E+01
-8.000000 2.000000 5.036904E+01
-8.000000 0.000000 5.949902E+01
-8.000000 -2.000000 6.244966E+01
-8.000000 -4.000000 7.422806E+01
-8.000000 -6.000000 7.912852E+01
-8.000000 -8.000000 7.240950E+01
-8.000000 -10.000000 6.485105E+01
-8.000000 -12.000000 5.391725E+01
-8.000000 -14.000000 4.852995E+01
-8.000000 -16.000000 4.279713E+01
-8.000000 -18.000000 3.474419E+01
-8.000000 -20.000000 3.102291E+01
-8.000000 -22.000000 2.779741E+01
-8.000000 -24.000000 1.966719E+01
-8.000000 -26.000000 1.179574E+01
-8.000000 -28.000000 1.335796E+01
-8.000000 -30.000000 2.091787E+01
-8.000000 -32.000000 2.855307E+01
-8.000000 -34.000000 3.053635E+01
-8.000000 -36.000000 2.455921E+01
-8.000000 -38.000000 1.769708E+01
-8.000000 -40.000000 1.403191E+01
-6.000000 40.000000 1.835582E+01
-6.000000 38.000000 2.035240E+00
-6.000000 36.000000 -2.189872E+01
-6.000000 34.000000 -5.575160E+01
-6.000000 32.000000 -8.775352E+01
-6.000000 30.000000 -1.117486E+02
-6.000000 28.000000 -1.292709E+02
-6.000000 26.000000 -1.341968E+02
-6.000000 24.000000 -1.256644E+02
-6.000000 22.000000 -9.832061E+01
-6.000000 20.000000 -8.158092E+01
-6.000000 18.000000 -7.397126E+01
-6.000000 16.000000 -5.479809E+01
-6.000000 14.000000 -2.174941E+01
-6.000000 12.000000 -3.323540E+00
-6.000000 10.000000 -4.947340E+00
-6.000000 8.000000 -6.929811E+00
-6.000000 6.000000 7.893049E+00
-6.000000 4.000000 2.593826E+01
-6.000000 2.000000 2.942005E+01
-6.000000 0.000000 2.122108E+01
-6.000000 -2.000000 1.778321E+01
-6.000000 -4.000000 2.787518E+01
-6.000000 -6.000000 3.552750E+01
-6.000000 -8.000000 3.693545E+01
-6.000000 -10.000000 4.010282E+01
-6.000000 -12.000000 4.153096E+01
-6.000000 -14.000000 4.418481E+01
-6.000000 -16.000000 4.329548E+01
-6.000000 -18.000000 3.822823E+01
-6.000000 -20.000000 3.259024E+01
-6.000000 -22.000000 2.407232E+01
-6.000000 -24.000000 1.224473E+01
-6.000000 -26.000000 4.153744E+00
-6.000000 -28.000000 6.517446E+00
-6.000000 -30.000000 1.375860E+01
-6.000000 -32.000000 2.175054E+01
-6.000000 -34.000000 2.413600E+01
-6.000000 -36.000000 1.863270E+01
-6.000000 -38.000000 1.244569E+01
-6.000000 -40.000000 9.465465E+00
-4.000000 40.000000 1.659749E+01
-4.000000 38.000000 6.559479E+00
-4.000000 36.000000 -1.278646E+01
-4.000000 34.000000 -3.999542E+01
-4.000000 32.000000 -6.552352E+01
-4.000000 30.000000 -8.462799E+01
-4.000000 28.000000 -1.014005E+02
-4.000000 26.000000 -1.085396E+02
-4.000000 24.000000 -1.002894E+02
-4.000000 22.000000 -7.891892E+01
-4.000000 20.000000 -6.737079E+01
-4.000000 18.000000 -6.339411E+01
-4.000000 16.000000 -4.512182E+01
-4.000000 14.000000 -2.774662E+00
-4.000000 12.000000 3.542219E+01
-4.000000 10.000000 5.343920E+01
-4.000000 8.000000 4.786301E+01
-4.000000 6.000000 4.028984E+01
-4.000000 4.000000 2.201345E+01
-4.000000 2.000000 1.257038E-01
-4.000000 0.000000 -2.099189E+01
-4.000000 -2.000000 -3.212668E+01
-4.000000 -4.000000 -3.049237E+01
-4.000000 -6.000000 -2.362154E+01
-4.000000 -8.000000 -1.156279E+01
-4.000000 -10.000000 4.944924E+00
-4.000000 -12.000000 2.373441E+01
-4.000000 -14.000000 3.866759E+01
-4.000000 -16.000000 4.487989E+01
-4.000000 -18.000000 4.513093E+01
-4.000000 -20.000000 4.213134E+01
-4.000000 -22.000000 3.174477E+01
-4.000000 -24.000000 1.526437E+01
-4.000000 -26.000000 3.816926E+00
-4.000000 -28.000000 3.844357E+00
-4.000000 -30.000000 8.879602E+00
-4.000000 -32.000000 1.634667E+01
-4.000000 -34.000000 1.877691E+01
-4.000000 -36.000000 1.327067E+01
-4.000000 -38.000000 7.752223E+00
-4.000000 -40.000000 4.859967E+00
-2.000000 40.000000 1.182095E+01
-2.000000 38.000000 8.124714E+00
-2.000000 36.000000 -4.388512E+00
-2.000000 34.000000 -2.163249E+01
-2.000000 32.000000 -3.951369E+01
-2.000000 30.000000 -5.450392E+01
-2.000000 28.000000 -6.682773E+01
-2.000000 26.000000 -6.880242E+01
-2.000000 24.000000 -5.505991E+01
-2.000000 22.000000 -3.970428E+01
-2.000000 20.000000 -3.472096E+01
-2.000000 18.000000 -4.180408E+01
-2.000000 16.000000 -3.630334E+01
-2.000000 14.000000 -7.507591E-01
-2.000000 12.000000 4.302716E+01
-2.000000 10.000000 7.234677E+01
-2.000000 8.000000 6.943192E+01
-2.000000 6.000000 5.290133E+01
-2.000000 4.000000 1.431580E+01
-2.000000 2.000000 -2.194519E+01
-2.000000 0.000000 -4.686990E+01
-2.000000 -2.000000 -6.343655E+01
-2.000000 -4.000000 -7.500490E+01
-2.000000 -6.000000 -7.590415E+01
-2.000000 -8.000000 -5.645665E+01
-2.000000 -10.000000 -2.942152E+01
-2.000000 -12.000000 1.640754E+00
-2.000000 -14.000000 2.594271E+01
-2.000000 -16.000000 3.884281E+01
-2.000000 -18.000000 4.486363E+01
-2.000000 -20.000000 4.686869E+01
-2.000000 -22.000000 3.919909E+01
-2.000000 -24.000000 2.153716E+01
-2.000000 -26.000000 6.948461E+00
-2.000000 -28.000000 4.205989E+00
-2.000000 -30.000000 7.774277E+00
-2.000000 -32.000000 1.547537E+01
-2.000000 -34.000000 1.829054E+01
-2.000000 -36.000000 1.171305E+01
-2.000000 -38.000000 4.823360E+00
-2.000000 -40.000000 3.810835E-01
0.000000 40.000000 6.022751E+00
0.000000 38.000000 5.955696E+00
0.000000 36.000000 6.105804E-01
0.000000 34.000000 -7.236263E+00
0.000000 32.000000 -1.985699E+01
0.000000 30.000000 -3.213564E+01
0.000000 28.000000 -3.768311E+01
0.000000 26.000000 -3.093034E+01
0.000000 24.000000 -1.022031E+01
0.000000 22.000000 2.109543E+00
0.000000 20.000000 2.297680E+00
0.000000 18.000000 -1.766848E+01
0.000000 16.000000 -2.939966E+01
0.000000 14.000000 -9.426489E+00
0.000000 12.000000 2.563886E+01
0.000000 10.000000 5.135548E+01
0.000000 8.000000 5.269481E+01
0.000000 6.000000 4.017098E+01
0.000000 4.000000 4.837866E+00
0.000000 2.000000 -2.884180E+01
0.000000 0.000000 -4.981526E+01
0.000000 -2.000000 -6.635002E+01
0.000000 -4.000000 -8.375249E+01
0.000000 -6.000000 -9.156803E+01
0.000000 -8.000000 -7.620390E+01
0.000000 -10.000000 -5.216890E+01
0.000000 -12.000000 -2.172200E+01
0.000000 -14.000000 3.359542E+00
0.000000 -16.000000 1.804862E+01
0.000000 -18.000000 2.641021E+01
0.000000 -20.000000 3.419082E+01
0.000000 -22.000000 3.504954E+01
0.000000 -24.000000 2.300325E+01
0.000000 -26.000000 9.159569E+00
0.000000 -28.000000 5.772377E+00
0.000000 -30.000000 9.824068E+00
0.000000 -32.000000 1.913391E+01
0.000000 -34.000000 2.348667E+01
0.000000 -36.000000 1.576789E+01
0.000000 -38.000000 4.783679E+00
0.000000 -40.000000 -3.746586E+00
2.000000 40.000000 2.583534E+00
2.000000 38.000000 2.940113E+00
2.000000 36.000000 -9.935379E-02
2.000000 34.000000 -4.721371E+00
2.000000 32.000000 -1.385353E+01
2.000000 30.000000 -2.287506E+01
2.000000 28.000000 -2.278120E+01
2.000000 26.000000 -1.208790E+01
2.000000 24.000000 1.161248E+01
2.000000 22.000000 2.427190E+01
2.000000 20.000000 2.307533E+01
2.000000 18.000000 -1.749161E+00
2.000000 16.000000 -2.245498E+01
2.000000 14.000000 -1.581512E+01
2.000000 12.000000 5.310760E+00
2.000000 10.000000 1.753449E+01
2.000000 8.000000 1.373128E+01
2.000000 6.000000 3.542355E+00
2.000000 4.000000 -1.527029E+01
2.000000 2.000000 -2.900386E+01
2.000000 0.000000 -3.670671E+01
2.000000 -2.000000 -4.429961E+01
2.000000 -4.000000 -5.455367E+01
2.000000 -6.000000 -6.266492E+01
2.000000 -8.000000 -6.134356E+01
2.000000 -10.000000 -5.411992E+01
2.000000 -12.000000 -3.703137E+01
2.000000 -14.000000 -2.121705E+01
2.000000 -16.000000 -1.252746E+01
2.000000 -18.000000 -6.066429E+00
2.000000 -20.000000 7.300898E+00
2.000000 -22.000000 1.839863E+01
2.000000 -24.000000 1.559724E+01
2.000000 -26.000000 6.555818E+00
2.000000 -28.000000 5.832339E+00
2.000000 -30.000000 1.154843E+01
2.000000 -32.000000 2.272287E+01
2.000000 -34.000000 2.879342E+01
2.000000 -36.000000 2.110903E+01
2.000000 -38.000000 7.963968E+00
2.000000 -40.000000 -4.463080E+00
4.000000 40.000000 6.888084E-01
4.000000 38.000000 -1.747501E+00
4.000000 36.000000 -8.475269E+00
4.000000 34.000000 -1.629697E+01
4.000000 32.000000 -2.246323E+01
4.000000 30.000000 -2.715134E+01
4.000000 28.000000 -2.538284E+01
4.000000 26.000000 -1.702905E+01
4.000000 24.000000 4.848137E+00
4.000000 22.000000 1.989039E+01
4.000000 20.000000 2.325550E+01
4.000000 18.000000 5.402908E+00
4.000000 16.000000 -1.487061E+01
4.000000 14.000000 -1.762137E+01
4.000000 12.000000 -1.247078E+01
4.000000 10.000000 -1.824547E+01
4.000000 8.000000 -3.462155E+01
4.000000 6.000000 -4.480294E+01
4.000000 4.000000 -4.317651E+01
4.000000 2.000000 -2.872739E+01
4.000000 0.000000 -1.355502E+01
4.000000 -2.000000 -5.148906E+00
4.000000 -4.000000 -4.648123E+00
4.000000 -6.000000 -1.466067E+01
4.000000 -8.000000 -2.837364E+01
4.000000 -10.000000 -3.831887E+01
4.000000 -12.000000 -3.832729E+01
4.000000 -14.000000 -3.561358E+01
4.000000 -16.000000 -3.629982E+01
4.000000 -18.000000 -3.234842E+01
4.000000 -20.000000 -1.574933E+01
4.000000 -22.000000 7.724481E-01
4.000000 -24.000000 4.753998E+00
4.000000 -26.000000 1.389662E+00
4.000000 -28.000000 4.707864E+00
4.000000 -30.000000 1.250556E+01
4.000000 -32.000000 2.428177E+01
4.000000 -34.000000 3.039210E+01
4.000000 -36.000000 2.309698E+01
4.000000 -38.000000 1.064434E+01
4.000000 -40.000000 -3.697951E+00
6.000000 40.000000 -4.069275E+00
6.000000 38.000000 -1.267031E+01
6.000000 36.000000 -2.512927E+01
6.000000 34.000000 -3.759571E+01
6.000000 32.000000 -4.238477E+01
6.000000 30.000000 -4.364054E+01
6.000000 28.000000 -4.017552E+01
6.000000 26.000000 -3.289759E+01
6.000000 24.000000 -1.586829E+01
6.000000 22.000000 2.171707E-01
6.000000 20.000000 1.005268E+01
6.000000 18.000000 4.222324E+00
6.000000 16.000000 -1.276650E+01
6.000000 14.000000 -2.335990E+01
6.000000 12.000000 -3.404623E+01
6.000000 10.000000 -5.841710E+01
6.000000 8.000000 -8.725325E+01
6.000000 6.000000 -9.590396E+01
6.000000 4.000000 -7.161732E+01
6.000000 2.000000 -2.891595E+01
6.000000 0.000000 1.009765E+01
6.000000 -2.000000 3.465920E+01
6.000000 -4.000000 4.451577E+01
6.000000 -6.000000 3.136653E+01
6.000000 -8.000000 5.947357E+00
6.000000 -10.000000 -1.552314E+01
6.000000 -12.000000 -2.523486E+01
6.000000 -14.000000 -2.827054E+01
6.000000 -16.000000 -3.367330E+01
6.000000 -18.000000 -3.324976E+01
6.000000 -20.000000 -1.858062E+01
6.000000 -22.000000 -3.810785E+00
6.000000 -24.000000 5.561805E-01
6.000000 -26.000000 -4.559250E-01
6.000000 -28.000000 4.343619E+00
6.000000 -30.000000 1.346143E+01
6.000000 -32.000000 2.501296E+01
6.000000 -34.000000 2.995260E+01
6.000000 -36.000000 2.108132E+01
6.000000 -38.000000 7.848662E+00
6.000000 -40.000000 -8.372868E+00
8.000000 40.000000 -1.263835E+01
8.000000 38.000000 -2.946336E+01
8.000000 36.000000 -4.824195E+01
8.000000 34.000000 -6.482665E+01
8.000000 32.000000 -6.875571E+01
8.000000 30.000000 -6.654607E+01
8.000000 28.000000 -5.985838E+01
8.000000 26.000000 -5.136197E+01
8.000000 24.000000 -3.805988E+01
8.000000 22.000000 -2.085071E+01
8.000000 20.000000 -6.734694E+00
8.000000 18.000000 -5.791029E+00
8.000000 16.000000 -2.102626E+01
8.000000 14.000000 -3.646122E+01
8.000000 12.000000 -5.915784E+01
8.000000 10.000000 -9.898743E+01
8.000000 8.000000 -1.360754E+02
8.000000 6.000000 -1.408494E+02
8.000000 4.000000 -9.599012E+01
8.000000 2.000000 -3.377424E+01
8.000000 0.000000 2.081466E+01
8.000000 -2.000000 5.724577E+01
8.000000 -4.000000 7.496754E+01
8.000000 -6.000000 6.104765E+01
8.000000 -8.000000 2.995602E+01
8.000000 -10.000000 5.919029E+00
8.000000 -12.000000 1.495446E+00
8.000000 -14.000000 7.872409E+00
8.000000 -16.000000 9.225880E+00
8.000000 -18.000000 5.826970E+00
8.000000 -20.000000 8.596084E+00
8.000000 -22.000000 1.109133E+01
8.000000 -24.000000 6.914940E+00
8.000000 -26.000000 2.098918E+00
8.000000 -28.000000 4.630455E+00
8.000000 -30.000000 1.262442E+01
8.000000 -32.000000 2.250763E+01
8.000000 -34.000000 2.598798E+01
8.000000 -36.000000 1.454613E+01
8.000000 -38.000000 -1.500210E+00
8.000000 -40.000000 -2.069271E+01
10.000000 40.000000 -2.313120E+01
10.000000 38.000000 -4.803731E+01
10.000000 36.000000 -7.354640E+01
10.000000 34.000000 -9.407256E+01
10.000000 32.000000 -9.615442E+01
10.000000 30.000000 -8.920150E+01
10.000000 28.000000 -7.927945E+01
10.000000 26.000000 -6.926588E+01
10.000000 24.000000 -5.657183E+01
10.000000 22.000000 -3.771078E+01
10.000000 20.000000 -2.061722E+01
10.000000 18.000000 -1.772736E+01
10.000000 16.000000 -3.260280E+01
10.000000 14.000000 -5.074545E+01
10.000000 12.000000 -8.057530E+01
10.000000 10.000000 -1.291955E+02
10.000000 8.000000 -1.718390E+02
10.000000 6.000000 -1.764233E+02
10.000000 4.000000 -1.264074E+02
10.000000 2.000000 -6.024541E+01
10.000000 0.000000 1.567960E+00
10.000000 -2.000000 4.988727E+01
10.000000 -4.000000 7.880590E+01
10.000000 -6.000000 6.902586E+01
10.000000 -8.000000 4.126136E+01
10.000000 -10.000000 2.633047E+01
10.000000 -12.000000 4.392487E+01
10.000000 -14.000000 7.451395E+01
10.000000 -16.000000 9.065191E+01
10.000000 -18.000000 8.193671E+01
10.000000 -20.000000 6.230691E+01
10.000000 -22.000000 4.205349E+01
10.000000 -24.000000 2.165570E+01
10.000000 -26.000000 7.403509E+00
10.000000 -28.000000 4.298342E+00
10.000000 -30.000000 7.868382E+00
10.000000 -32.000000 1.377527E+01
10.000000 -34.000000 1.514588E+01
10.000000 -36.000000 1.191575E+00
10.000000 -38.000000 -1.744985E+01
10.000000 -40.000000 -3.832854E+01
12.000000 40.000000 -3.334643E+01
12.000000 38.000000 -6.375990E+01
12.000000 36.000000 -9.479602E+01
12.000000 34.000000 -1.183160E+02
12.000000 32.000000 -1.176731E+02
12.000000 30.000000 -1.061063E+02
12.000000 28.000000 -9.467771E+01
12.000000 26.000000 -8.500703E+01
12.000000 24.000000 -7.243615E+01
12.000000 22.000000 -5.255980E+01
12.000000 20.000000 -3.456151E+01
12.000000 18.000000 -2.932508E+01
12.000000 16.000000 -4.168637E+01
12.000000 14.000000 -6.087941E+01
12.000000 12.000000 -9.270380E+01
12.000000 10.000000 -1.416809E+02
12.000000 8.000000 -1.891736E+02
12.000000 6.000000 -2.043929E+02
12.000000 4.000000 -1.700530E+02
12.000000 2.000000 -1.110768E+02
12.000000 0.000000 -4.619153E+01
12.000000 -2.000000 1.485574E+01
12.000000 -4.000000 5.888016E+01
12.000000 -6.000000 5.989348E+01
12.000000 -8.000000 4.499057E+01
12.000000 -10.000000 4.891701E+01
12.000000 -12.000000 9.852661E+01
12.000000 -14.000000 1.620823E+02
12.000000 -16.000000 1.944153E+02
12.000000 -18.000000 1.749444E+02
12.000000 -20.000000 1.264121E+02
12.000000 -22.000000 7.773163E+01
12.000000 -24.000000 3.718211E+01
12.000000 -26.000000 1.048664E+01
12.000000 -28.000000 -8.092222E-01
12.000000 -30.000000 -3.453495E+00
12.000000 -32.000000 -1.970720E+00
12.000000 -34.000000 -3.173143E+00
12.000000 -36.000000 -1.911548E+01
12.000000 -38.000000 -3.796220E+01
12.000000 -40.000000 -5.772314E+01
14.000000 40.000000 -4.090440E+01
14.000000 38.000000 -7.386216E+01
14.000000 36.000000 -1.063284E+02
14.000000 34.000000 -1.301236E+02
14.000000 32.000000 -1.273436E+02
14.000000 30.000000 -1.128857E+02
14.000000 28.000000 -1.018710E+02
14.000000 26.000000 -9.578140E+01
14.000000 24.000000 -8.628686E+01
14.000000 22.000000 -6.692807E+01
14.000000 20.000000 -5.200266E+01
14.000000 18.000000 -4.813503E+01
14.000000 16.000000 -5.553644E+01
14.000000 14.000000 -6.854147E+01
14.000000 12.000000 -9.571229E+01
14.000000 10.000000 -1.407462E+02
14.000000 8.000000 -1.921888E+02
14.000000 6.000000 -2.205250E+02
14.000000 4.000000 -2.074537E+02
14.000000 2.000000 -1.632939E+02
14.000000 0.000000 -1.035566E+02
14.000000 -2.000000 -3.560877E+01
14.000000 -4.000000 2.308376E+01
14.000000 -6.000000 4.255557E+01
14.000000 -8.000000 4.765401E+01
14.000000 -10.000000 7.581506E+01
14.000000 -12.000000 1.571937E+02
14.000000 -14.000000 2.503234E+02
14.000000 -16.000000 2.929931E+02
14.000000 -18.000000 2.571848E+02
14.000000 -20.000000 1.786379E+02
14.000000 -22.000000 1.026203E+02
14.000000 -24.000000 4.291140E+01
14.000000 -26.000000 4.614904E+00
14.000000 -28.000000 -1.462361E+01
14.000000 -30.000000 -2.322336E+01
14.000000 -32.000000 -2.556991E+01
14.000000 -34.000000 -2.854882E+01
14.000000 -36.000000 -4.254188E+01
14.000000 -38.000000 -5.787542E+01
14.000000 -40.000000 -7.481558E+01
16.000000 40.000000 -4.397666E+01
16.000000 38.000000 -7.717238E+01
16.000000 36.000000 -1.072061E+02
16.000000 34.000000 -1.286841E+02
16.000000 32.000000 -1.243695E+02
16.000000 30.000000 -1.084965E+02
16.000000 28.000000 -9.856615E+01
16.000000 26.000000 -9.740349E+01
16.000000 24.000000 -9.194633E+01
16.000000 22.000000 -7.422860E+01
16.000000 20.000000 -6.357264E+01
16.000000 18.000000 -6.693509E+01
16.000000 16.000000 -7.139377E+01
16.000000 14.000000 -7.367264E+01
16.000000 12.000000 -9.225895E+01
16.000000 10.000000 -1.331496E+02
16.000000 8.000000 -1.854915E+02
16.000000 6.000000 -2.233725E+02
16.000000 4.000000 -2.287113E+02
16.000000 2.000000 -2.019264E+02
16.000000 0.000000 -1.522265E+02
16.000000 -2.000000 -8.391719E+01
16.000000 -4.000000 -1.681363E+01
16.000000 -6.000000 2.286364E+01
16.000000 -8.000000 5.301042E+01
16.000000 -10.000000 1.098713E+02
16.000000 -12.000000 2.135318E+02
16.000000 -14.000000 3.173044E+02
16.000000 -16.000000 3.540132E+02
16.000000 -18.000000 2.985658E+02
16.000000 -20.000000 1.950950E+02
16.000000 -22.000000 9.915245E+01
16.000000 -24.000000 2.746592E+01
16.000000 -26.000000 -1.512123E+01
16.000000 -28.000000 -3.677849E+01
16.000000 -30.000000 -4.886674E+01
16.000000 -32.000000 -5.313187E+01
16.000000 -34.000000 -5.523232E+01
16.000000 -36.000000 -6.344812E+01
16.000000 -38.000000 -7.347216E+01
16.000000 -40.000000 -8.658811E+01
18.000000 40.000000 -4.258649E+01
18.000000 38.000000 -7.379187E+01
18.000000 36.000000 -1.008361E+02
18.000000 34.000000 -1.188543E+02
18.000000 32.000000 -1.120817E+02
18.000000 30.000000 -9.512206E+01
18.000000 28.000000 -8.556605E+01
18.000000 26.000000 -8.690046E+01
18.000000 24.000000 -8.114956E+01
18.000000 22.000000 -6.446886E+01
18.000000 20.000000 -5.663592E+01
18.000000 18.000000 -6.669037E+01
18.000000 16.000000 -7.350500E+01
18.000000 14.000000 -7.004946E+01
18.000000 12.000000 -8.014356E+01
18.000000 10.000000 -1.175638E+02
18.000000 8.000000 -1.719480E+02
18.000000 6.000000 -2.171615E+02
18.000000 4.000000 -2.371724E+02
18.000000 2.000000 -2.233942E+02
18.000000 0.000000 -1.813968E+02
18.000000 -2.000000 -1.151133E+02
18.000000 -4.000000 -4.607811E+01
18.000000 -6.000000 6.107790E+00
18.000000 -8.000000 5.856824E+01
18.000000 -10.000000 1.402324E+02
18.000000 -12.000000 2.505070E+02
18.000000 -14.000000 3.423804E+02
18.000000 -16.000000 3.563938E+02
18.000000 -18.000000 2.808976E+02
18.000000 -20.000000 1.626533E+02
18.000000 -22.000000 5.858720E+01
18.000000 -24.000000 -1.306418E+01
18.000000 -26.000000 -4.929575E+01
18.000000 -28.000000 -6.445155E+01
18.000000 -30.000000 -7.314839E+01
18.000000 -32.000000 -7.570116E+01
18.000000 -34.000000 -7.539448E+01
18.000000 -36.000000 -7.759466E+01
18.000000 -38.000000 -8.200565E+01
18.000000 -40.000000 -9.085358E+01
20.000000 40.000000 -3.785376E+01
20.000000 38.000000 -6.558928E+01
20.000000 36.000000 -9.023506E+01
20.000000 34.000000 -1.044308E+02
20.000000 32.000000 -9.481166E+01
20.000000 30.000000 -7.722009E+01
20.000000 28.000000 -6.588381E+01
20.000000 26.000000 -6.371288E+01
20.000000 24.000000 -5.235397E+01
20.000000 22.000000 -3.643284E+01
20.000000 20.000000 -3.007653E+01
20.000000 18.000000 -4.343098E+01
20.000000 16.000000 -5.628792E+01
20.000000 14.000000 -5.519171E+01
20.000000 12.000000 -6.166702E+01
20.000000 10.000000 -9.697851E+01
20.000000 8.000000 -1.545844E+02
20.000000 6.000000 -2.052487E+02
20.000000 4.000000 -2.330080E+02
20.000000 2.000000 -2.223593E+02
20.000000 0.000000 -1.804978E+02
20.000000 -2.000000 -1.176259E+02
20.000000 -4.000000 -5.612900E+01
20.000000 -6.000000 -3.779446E+00
20.000000 -8.000000 5.801265E+01
20.000000 -10.000000 1.466215E+02
20.000000 -12.000000 2.481223E+02
20.000000 -14.000000 3.162900E+02
20.000000 -16.000000 3.038857E+02
20.000000 -18.000000 2.113179E+02
20.000000 -20.000000 8.800638E+01
20.000000 -22.000000 -1.110113E+01
20.000000 -24.000000 -6.816414E+01
20.000000 -26.000000 -8.765446E+01
20.000000 -28.000000 -8.953891E+01
20.000000 -30.000000 -8.870684E+01
20.000000 -32.000000 -8.711961E+01
20.000000 -34.000000 -8.489421E+01
20.000000 -36.000000 -8.237790E+01
20.000000 -38.000000 -8.189790E+01
20.000000 -40.000000 -8.754650E+01
22.000000 40.000000 -2.902953E+01
22.000000 38.000000 -5.341165E+01
22.000000 36.000000 -7.694109E+01
22.000000 34.000000 -8.863218E+01
22.000000 32.000000 -7.688470E+01
22.000000 30.000000 -5.970379E+01
22.000000 28.000000 -4.623183E+01
22.000000 26.000000 -3.670241E+01
22.000000 24.000000 -1.756967E+01
22.000000 22.000000 -2.217515E+00
22.000000 20.000000 3.572614E+00
22.000000 18.000000 -1.334608E+01
22.000000 16.000000 -3.174843E+01
22.000000 14.000000 -3.473537E+01
22.000000 12.000000 -4.302432E+01
22.000000 10.000000 -7.975863E+01
22.000000 8.000000 -1.384493E+02
22.000000 6.000000 -1.876665E+02
22.000000 4.000000 -2.108654E+02
22.000000 2.000000 -1.934384E+02
22.000000 0.000000 -1.478418E+02
22.000000 -2.000000 -9.207604E+01
22.000000 -4.000000 -4.502867E+01
22.000000 -6.000000 -3.595449E+00
22.000000 -8.000000 5.054993E+01
22.000000 -10.000000 1.278930E+02
22.000000 -12.000000 2.113088E+02
22.000000 -14.000000 2.536409E+02
22.000000 -16.000000 2.208501E+02
22.000000 -18.000000 1.170040E+02
22.000000 -20.000000 -6.430204E+00
22.000000 -22.000000 -9.150177E+01
22.000000 -24.000000 -1.221524E+02
22.000000 -26.000000 -1.158609E+02
22.000000 -28.000000 -1.012065E+02
22.000000 -30.000000 -8.958037E+01
22.000000 -32.000000 -8.419173E+01
22.000000 -34.000000 -8.102782E+01
22.000000 -36.000000 -7.701432E+01
22.000000 -38.000000 -7.467223E+01
22.000000 -40.000000 -7.935350E+01
24.000000 40.000000 -1.549080E+01
24.000000 38.000000 -3.862814E+01
24.000000 36.000000 -6.302086E+01
24.000000 34.000000 -7.534123E+01
24.000000 32.000000 -6.398240E+01
24.000000 30.000000 -4.762367E+01
24.000000 28.000000 -3.278706E+01
24.000000 26.000000 -1.967802E+01
24.000000 24.000000 4.005279E+00
24.000000 22.000000 2.051029E+01
24.000000 20.000000 2.727022E+01
24.000000 18.000000 1.019036E+01
24.000000 16.000000 -8.168608E+00
24.000000 14.000000 -1.357557E+01
24.000000 12.000000 -2.687072E+01
24.000000 10.000000 -6.805910E+01
24.000000 8.000000 -1.253765E+02
24.000000 6.000000 -1.671514E+02
24.000000 4.000000 -1.788146E+02
24.000000 2.000000 -1.515219E+02
24.000000 0.000000 -9.998308E+01
24.000000 -2.000000 -4.907810E+01
24.000000 -4.000000 -1.540100E+01
24.000000 -6.000000 7.423313E+00
24.000000 -8.000000 4.036656E+01
24.000000 -10.000000 9.351802E+01
24.000000 -12.000000 1.606163E+02
24.000000 -14.000000 1.922312E+02
24.000000 -16.000000 1.487971E+02
24.000000 -18.000000 3.502936E+01
24.000000 -20.000000 -8.650400E+01
24.000000 -22.000000 -1.538844E+02
24.000000 -24.000000 -1.558486E+02
24.000000 -26.000000 -1.234634E+02
24.000000 -28.000000 -9.444887E+01
24.000000 -30.000000 -7.541825E+01
24.000000 -32.000000 -6.833568E+01
24.000000 -34.000000 -6.465674E+01
24.000000 -36.000000 -6.295522E+01
24.000000 -38.000000 -6.343410E+01
24.000000 -40.000000 -7.041453E+01
26.000000 40.000000 -9.011269E-02
26.000000 38.000000 -2.342798E+01
26.000000 36.000000 -5.042005E+01
26.000000 34.000000 -6.780794E+01
26.000000 32.000000 -6.005074E+01
26.000000 30.000000 -4.486325E+01
26.000000 28.000000 -3.046606E+01
26.000000 26.000000 -1.996832E+01
26.000000 24.000000 1.237147E+00
26.000000 22.000000 2.045549E+01
26.000000 20.000000 3.312011E+01
26.000000 18.000000 2.648206E+01
26.000000 16.000000 1.434126E+01
26.000000 14.000000 6.325419E+00
26.000000 12.000000 -1.411463E+01
26.000000 10.000000 -5.965462E+01
26.000000 8.000000 -1.162181E+02
26.000000 6.000000 -1.512559E+02
26.000000 4.000000 -1.520019E+02
26.000000 2.000000 -1.190266E+02
26.000000 0.000000 -6.373978E+01
26.000000 -2.000000 -1.282540E+01
26.000000 -4.000000 1.708176E+01
26.000000 -6.000000 2.493801E+01
26.000000 -8.000000 3.420427E+01
26.000000 -10.000000 5.594331E+01
26.000000 -12.000000 1.149368E+02
26.000000 -14.000000 1.598173E+02
26.000000 -16.000000 1.216822E+02
26.000000 -18.000000 5.125210E+00
26.000000 -20.000000 -1.119075E+02
26.000000 -22.000000 -1.667035E+02
26.000000 -24.000000 -1.519363E+02
26.000000 -26.000000 -1.058256E+02
26.000000 -28.000000 -7.180179E+01
26.000000 -30.000000 -5.158817E+01
26.000000 -32.000000 -4.566088E+01
26.000000 -34.000000 -4.248861E+01
26.000000 -36.000000 -4.472278E+01
26.000000 -38.000000 -5.151830E+01
26.000000 -40.000000 -6.402192E+01
28.000000 40.000000 1.474776E+01
28.000000 38.000000 -9.956491E+00
28.000000 36.000000 -4.200480E+01
28.000000 34.000000 -6.856288E+01
28.000000 32.000000 -6.499727E+01
28.000000 30.000000 -5.143589E+01
28.000000 28.000000 -3.968587E+01
28.000000 26.000000 -3.413979E+01
28.000000 24.000000 -2.019931E+01
28.000000 22.000000 1.893461E+00
28.000000 20.000000 2.474931E+01
28.000000 18.000000 3.485395E+01
28.000000 16.000000 3.043890E+01
28.000000 14.000000 2.121087E+01
28.000000 12.000000 -7.572137E+00
28.000000 10.000000 -6.117877E+01
28.000000 8.000000 -1.210080E+02
28.000000 6.000000 -1.513806E+02
28.000000 4.000000 -1.441985E+02
28.000000 2.000000 -1.109195E+02
28.000000 0.000000 -5.763391E+01
28.000000 -2.000000 -1.776987E+00
28.000000 -4.000000 3.777540E+01
28.000000 -6.000000 4.748649E+01
28.000000 -8.000000 4.945656E+01
28.000000 -10.000000 5.885225E+01
28.000000 -12.000000 1.141097E+02
28.000000 -14.000000 1.651172E+02
28.000000 -16.000000 1.352152E+02
28.000000 -18.000000 2.872581E+01
28.000000 -20.000000 -7.832296E+01
28.000000 -22.000000 -1.271478E+02
28.000000 -24.000000 -1.104212E+02
28.000000 -26.000000 -6.738634E+01
28.000000 -28.000000 -3.979368E+01
28.000000 -30.000000 -2.303353E+01
28.000000 -32.000000 -2.050136E+01
28.000000 -34.000000 -2.005362E+01
28.000000 -36.000000 -2.731403E+01
28.000000 -38.000000 -4.057331E+01
28.000000 -40.000000 -5.935836E+01
30.000000 40.000000 2.774638E+01
30.000000 38.000000 -5.323197E-01
30.000000 36.000000 -3.911082E+01
30.000000 34.000000 -7.524364E+01
30.000000 32.000000 -7.738483E+01
30.000000 30.000000 -6.703372E+01
30.000000 28.000000 -5.706383E+01
30.000000 26.000000 -5.254570E+01
30.000000 24.000000 -4.392428E+01
30.000000 22.000000 -2.137349E+01
30.000000 20.000000 6.744464E+00
30.000000 18.000000 2.992562E+01
30.000000 16.000000 3.434533E+01
30.000000 14.000000 2.542781E+01
30.000000 12.000000 -1.014206E+01
30.000000 10.000000 -7.496570E+01
30.000000 8.000000 -1.416565E+02
30.000000 6.000000 -1.728406E+02
30.000000 4.000000 -1.599494E+02
30.000000 2.000000 -1.220227E+02
30.000000 0.000000 -6.699489E+01
30.000000 -2.000000 -3.224901E+00
30.000000 -4.000000 5.035350E+01
30.000000 -6.000000 7.740308E+01
30.000000 -8.000000 9.250709E+01
30.000000 -10.000000 1.164976E+02
30.000000 -12.000000 1.662901E+02
30.000000 -14.000000 2.017003E+02
30.000000 -16.000000 1.681097E+02
30.000000 -18.000000 7.262136E+01
30.000000 -20.000000 -2.137028E+01
30.000000 -22.000000 -6.435860E+01
30.000000 -24.000000 -5.164859E+01
30.000000 -26.000000 -2.056035E+01
30.000000 -28.000000 -4.089287E+00
30.000000 -30.000000 7.984735E+00
30.000000 -32.000000 6.830069E+00
30.000000 -34.000000 3.331495E+00
30.000000 -36.000000 -1.040562E+01
30.000000 -38.000000 -2.991375E+01
30.000000 -40.000000 -5.513816E+01
32.000000 40.000000 3.708346E+01
32.000000 38.000000 3.493740E+00
32.000000 36.000000 -4.122484E+01
32.000000 34.000000 -8.500659E+01
32.000000 32.000000 -9.512466E+01
32.000000 30.000000 -8.883447E+01
32.000000 28.000000 -7.738908E+01
32.000000 26.000000 -6.786875E+01
32.000000 24.000000 -5.771295E+01
32.000000 22.000000 -3.562106E+01
32.000000 20.000000 -9.862030E+00
32.000000 18.000000 1.413400E+01
32.000000 16.000000 2.244080E+01
32.000000 14.000000 1.646168E+01
32.000000 12.000000 -1.757552E+01
32.000000 10.000000 -8.983042E+01
32.000000 8.000000 -1.633576E+02
32.000000 6.000000 -1.948830E+02
32.000000 4.000000 -1.753192E+02
32.000000 2.000000 -1.304469E+02
32.000000 0.000000 -7.328883E+01
32.000000 -2.000000 -4.647057E+00
32.000000 -4.000000 6.283961E+01
32.000000 -6.000000 1.113503E+02
32.000000 -8.000000 1.428990E+02
32.000000 -10.000000 1.826594E+02
32.000000 -12.000000 2.247770E+02
32.000000 -14.000000 2.425619E+02
32.000000 -16.000000 1.994758E+02
32.000000 -18.000000 1.105599E+02
32.000000 -20.000000 2.891772E+01
32.000000 -22.000000 -7.582590E+00
32.000000 -24.000000 4.093533E-01
32.000000 -26.000000 2.092797E+01
32.000000 -28.000000 2.998431E+01
32.000000 -30.000000 3.869886E+01
32.000000 -32.000000 3.604707E+01
32.000000 -34.000000 3.006427E+01
32.000000 -36.000000 8.178215E+00
32.000000 -38.000000 -1.926326E+01
32.000000 -40.000000 -5.205804E+01
34.000000 40.000000 4.100250E+01
34.000000 38.000000 1.927600E+00
34.000000 36.000000 -4.827076E+01
34.000000 34.000000 -9.724396E+01
34.000000 32.000000 -1.117225E+02
34.000000 30.000000 -1.059011E+02
34.000000 28.000000 -9.089951E+01
34.000000 26.000000 -7.525266E+01
34.000000 24.000000 -5.775235E+01
34.000000 22.000000 -3.516720E+01
34.000000 20.000000 -1.580918E+01
34.000000 18.000000 2.585311E-01
34.000000 16.000000 5.675654E+00
34.000000 14.000000 2.261471E+00
34.000000 12.000000 -2.804042E+01
34.000000 10.000000 -1.008507E+02
34.000000 8.000000 -1.717180E+02
34.000000 6.000000 -1.970549E+02
34.000000 4.000000 -1.708762E+02
34.000000 2.000000 -1.234496E+02
34.000000 0.000000 -6.843778E+01
34.000000 -2.000000 -1.045837E+00
34.000000 -4.000000 7.144838E+01
34.000000 -6.000000 1.304400E+02
34.000000 -8.000000 1.715928E+02
34.000000 -10.000000 2.192145E+02
34.000000 -12.000000 2.563689E+02
34.000000 -14.000000 2.629862E+02
34.000000 -16.000000 2.128746E+02
34.000000 -18.000000 1.302777E+02
34.000000 -20.000000 5.992781E+01
34.000000 -22.000000 2.811340E+01
34.000000 -24.000000 3.209315E+01
34.000000 -26.000000 4.665225E+01
34.000000 -28.000000 5.489974E+01
34.000000 -30.000000 6.436677E+01
34.000000 -32.000000 6.382557E+01
34.000000 -34.000000 5.742127E+01
34.000000 -36.000000 2.632824E+01
34.000000 -38.000000 -9.753300E+00
34.000000 -40.000000 -4.980384E+01
36.000000 40.000000 3.912917E+01
36.000000 38.000000 -4.719897E+00
36.000000 36.000000 -5.734137E+01
36.000000 34.000000 -1.064092E+02
36.000000 32.000000 -1.197663E+02
36.000000 30.000000 -1.122859E+02
36.000000 28.000000 -9.277115E+01
36.000000 26.000000 -7.008065E+01
36.000000 24.000000 -4.395401E+01
36.000000 22.000000 -2.154456E+01
36.000000 20.000000 -1.032028E+01
36.000000 18.000000 -5.555292E+00
36.000000 16.000000 -4.110736E+00
36.000000 14.000000 -5.626300E+00
36.000000 12.000000 -3.557097E+01
36.000000 10.000000 -1.033691E+02
36.000000 8.000000 -1.609215E+02
36.000000 6.000000 -1.763891E+02
36.000000 4.000000 -1.460424E+02
36.000000 2.000000 -1.006077E+02
36.000000 0.000000 -5.350339E+01
36.000000 -2.000000 4.359525E+00
36.000000 -4.000000 7.081493E+01
36.000000 -6.000000 1.257630E+02
36.000000 -8.000000 1.654189E+02
36.000000 -10.000000 2.106217E+02
36.000000 -12.000000 2.457668E+02
36.000000 -14.000000 2.495171E+02
36.000000 -16.000000 2.025332E+02
36.000000 -18.000000 1.319756E+02
36.000000 -20.000000 7.469318E+01
36.000000 -22.000000 4.546586E+01
36.000000 -24.000000 4.319327E+01
36.000000 -26.000000 5.269155E+01
36.000000 -28.000000 6.243876E+01
36.000000 -30.000000 7.651160E+01
36.000000 -32.000000 8.107239E+01
36.000000 -34.000000 7.588491E+01
36.000000 -36.000000 3.853279E+01
36.000000 -38.000000 -2.888927E+00
36.000000 -40.000000 -4.643724E+01
38.000000 40.000000 3.402914E+01
38.000000 38.000000 -1.358932E+01
38.000000 36.000000 -6.419277E+01
38.000000 34.000000 -1.072887E+02
38.000000 32.000000 -1.148091E+02
38.000000 30.000000 -1.048438E+02
38.000000 28.000000 -8.301108E+01
38.000000 26.000000 -5.631024E+01
38.000000 24.000000 -2.413542E+01
38.000000 22.000000 -1.742272E+00
38.000000 20.000000 1.861957E+00
38.000000 18.000000 -7.713747E+00
38.000000 16.000000 -9.053316E+00
38.000000 14.000000 -3.456184E+00
38.000000 12.000000 -2.528391E+01
38.000000 10.000000 -8.155099E+01
38.000000 8.000000 -1.276924E+02
38.000000 6.000000 -1.366203E+02
38.000000 4.000000 -1.075366E+02
38.000000 2.000000 -7.051889E+01
38.000000 0.000000 -3.707497E+01
38.000000 -2.000000 5.528245E+00
38.000000 -4.000000 5.804763E+01
38.000000 -6.000000 1.016444E+02
38.000000 -8.000000 1.323053E+02
38.000000 -10.000000 1.672953E+02
38.000000 -12.000000 1.989627E+02
38.000000 -14.000000 2.050234E+02
38.000000 -16.000000 1.708088E+02
38.000000 -18.000000 1.178215E+02
38.000000 -20.000000 7.420671E+01
38.000000 -22.000000 4.628807E+01
38.000000 -24.000000 3.524890E+01
38.000000 -26.000000 3.814338E+01
38.000000 -28.000000 4.880052E+01
38.000000 -30.000000 6.879093E+01
38.000000 -32.000000 8.054581E+01
38.000000 -34.000000 8.010050E+01
38.000000 -36.000000 4.330865E+01
38.000000 -38.000000 8.079147E-01
38.000000 -40.000000 -4.175454E+01
40.000000 40.000000 2.800690E+01
40.000000 38.000000 -1.973772E+01
40.000000 36.000000 -6.565855E+01
40.000000 34.000000 -9.881448E+01
40.000000 32.000000 -9.660994E+01
40.000000 30.000000 -8.195025E+01
40.000000 28.000000 -6.107660E+01
40.000000 26.000000 -3.825322E+01
40.000000 24.000000 -6.102039E+00
40.000000 22.000000 1.529710E+01
40.000000 20.000000 1.389624E+01
40.000000 18.000000 -3.995598E+00
40.000000 16.000000 -6.645538E+00
40.000000 14.000000 5.378813E+00
40.000000 12.000000 -1.691023E+00
40.000000 10.000000 -3.930190E+01
40.000000 8.000000 -7.696599E+01
40.000000 6.000000 -8.605079E+01
40.000000 4.000000 -6.547554E+01
40.000000 2.000000 -4.149185E+01
40.000000 0.000000 -2.186157E+01
40.000000 -2.000000 5.678315E+00
40.000000 -4.000000 4.120935E+01
40.000000 -6.000000 6.884534E+01
40.000000 -8.000000 8.619359E+01
40.000000 -10.000000 1.086293E+02
40.000000 -12.000000 1.348085E+02
40.000000 -14.000000 1.450660E+02
40.000000 -16.000000 1.270125E+02
40.000000 -18.000000 9.141612E+01
40.000000 -20.000000 5.684814E+01
40.000000 -22.000000 2.755674E+01
40.000000 -24.000000 8.459829E+00
40.000000 -26.000000 5.349339E+00
40.000000 -28.000000 1.716393E+01
40.000000 -30.000000 4.160476E+01
40.000000 -32.000000 6.170718E+01
40.000000 -34.000000 6.993034E+01
40.000000 -36.000000 4.128367E+01
40.000000 -38.000000 1.971039E+00
40.000000 -40.000000 -3.632514E+01
42.000000 40.000000 2.115550E+01
42.000000 38.000000 -2.054500E+01
42.000000 36.000000 -5.910486E+01
42.000000 34.000000 -8.068072E+01
42.000000 32.000000 -6.890208E+01
42.000000 30.000000 -5.141559E+01
42.000000 28.000000 -3.332170E+01
42.000000 26.000000 -1.738274E+01
42.000000 24.000000 1.125224E+01
42.000000 22.000000 3.143388E+01
42.000000 20.000000 3.010755E+01
42.000000 18.000000 1.072642E+01
42.000000 16.000000 5.808440E+00
42.000000 14.000000 2.118425E+01
42.000000 12.000000 2.698816E+01
42.000000 10.000000 6.225922E+00
42.000000 8.000000 -2.700963E+01
42.000000 6.000000 -4.042556E+01
42.000000 4.000000 -3.222938E+01
42.000000 2.000000 -2.046852E+01
42.000000 0.000000 -1.038897E+01
42.000000 -2.000000 4.621925E+00
42.000000 -4.000000 2.299923E+01
42.000000 -6.000000 3.288183E+01
42.000000 -8.000000 3.723957E+01
42.000000 -10.000000 4.888084E+01
42.000000 -12.000000 7.113076E+01
42.000000 -14.000000 8.621899E+01
42.000000 -16.000000 8.204494E+01
42.000000 -18.000000 6.016252E+01
42.000000 -20.000000 3.070240E+01
42.000000 -22.000000 -1.853273E+00
42.000000 -24.000000 -2.767360E+01
42.000000 -26.000000 -3.565642E+01
42.000000 -28.000000 -2.338264E+01
42.000000 -30.000000 2.340841E+00
42.000000 -32.000000 2.970089E+01
42.000000 -34.000000 4.598110E+01
42.000000 -36.000000 3.010370E+01
42.000000 -38.000000 6.526451E-01
42.000000 -40.000000 -2.966056E+01
44.000000 40.000000 1.201670E+01
44.000000 38.000000 -1.764104E+01
44.000000 36.000000 -4.253877E+01
44.000000 34.000000 -5.068002E+01
44.000000 32.000000 -3.353766E+01
44.000000 30.000000 -1.966861E+01
44.000000 28.000000 -8.183264E+00
44.000000 26.000000 1.630518E+00
44.000000 24.000000 2.714821E+01
44.000000 22.000000 4.674936E+01
44.000000 20.000000 4.827382E+01
44.000000 18.000000 3.092274E+01
44.000000 16.000000 2.254725E+01
44.000000 14.000000 3.664516E+01
44.000000 12.000000 4.845358E+01
44.000000 10.000000 3.800917E+01
44.000000 8.000000 7.878152E+00
44.000000 6.000000 -8.540362E+00
44.000000 4.000000 -9.772799E+00
44.000000 2.000000 -5.408033E+00
44.000000 0.000000 -1.352113E+00
44.000000 -2.000000 8.110552E-01
44.000000 -4.000000 3.818874E-01
44.000000 -6.000000 -4.837685E+00
44.000000 -8.000000 -7.982510E+00
44.000000 -10.000000 -4.009212E+00
44.000000 -12.000000 1.713472E+01
44.000000 -14.000000 3.811460E+01
44.000000 -16.000000 4.500796E+01
44.000000 -18.000000 3.316498E+01
44.000000 -20.000000 8.005081E+00
44.000000 -22.000000 -2.695307E+01
44.000000 -24.000000 -5.786235E+01
44.000000 -26.000000 -7.015988E+01
44.000000 -28.000000 -5.952997E+01
44.000000 -30.000000 -3.566905E+01
44.000000 -32.000000 -4.789280E+00
44.000000 -34.000000 1.628052E+01
44.000000 -36.000000 1.304506E+01
44.000000 -38.000000 -3.978512E+00
44.000000 -40.000000 -2.490104E+01
46.000000 40.000000 1.682262E+00
46.000000 38.000000 -1.388322E+01
46.000000 36.000000 -2.039611E+01
46.000000 34.000000 -1.304514E+01
46.000000 32.000000 5.224282E+00
46.000000 30.000000 9.817075E+00
46.000000 28.000000 9.453227E+00
46.000000 26.000000 1.289825E+01
46.000000 24.000000 3.577613E+01
46.000000 22.000000 5.431490E+01
46.000000 20.000000 5.739165E+01
46.000000 18.000000 4.020870E+01
46.000000 16.000000 2.886554E+01
46.000000 14.000000 4.297825E+01
46.000000 12.000000 5.692681E+01
46.000000 10.000000 4.883619E+01
46.000000 8.000000 2.093785E+01
46.000000 6.000000 6.980601E+00
46.000000 4.000000 7.384106E+00
46.000000 2.000000 9.313715E+00
46.000000 0.000000 5.197484E+00
46.000000 -2.000000 -7.751618E+00
46.000000 -4.000000 -2.442837E+01
46.000000 -6.000000 -3.791396E+01
46.000000 -8.000000 -4.309424E+01
46.000000 -10.000000 -4.364698E+01
46.000000 -12.000000 -2.249608E+01
46.000000 -14.000000 3.727522E+00
46.000000 -16.000000 1.869289E+01
46.000000 -18.000000 1.465145E+01
46.000000 -20.000000 -4.929995E+00
46.000000 -22.000000 -3.705538E+01
46.000000 -24.000000 -6.839645E+01
46.000000 -26.000000 -8.340028E+01
46.000000 -28.000000 -7.746882E+01
46.000000 -30.000000 -5.826848E+01
46.000000 -32.000000 -3.041629E+01
46.000000 -34.000000 -1.008931E+01
46.000000 -36.000000 -4.840195E+00
46.000000 -38.000000 -1.243484E+01
46.000000 -40.000000 -2.552974E+01
48.000000 40.000000 -4.812246E+00
48.000000 38.000000 -1.036423E+01
48.000000 36.000000 -1.996740E+00
48.000000 34.000000 1.852676E+01
48.000000 32.000000 3.448094E+01
48.000000 30.000000 2.794518E+01
48.000000 28.000000 1.673472E+01
48.000000 26.000000 1.379322E+01
48.000000 24.000000 3.213866E+01
48.000000 22.000000 4.900036E+01
48.000000 20.000000 4.974606E+01
48.000000 18.000000 2.907964E+01
48.000000 16.000000 1.777847E+01
48.000000 14.000000 3.543799E+01
48.000000 12.000000 5.234151E+01
48.000000 10.000000 4.436614E+01
48.000000 8.000000 1.986087E+01
48.000000 6.000000 1.119973E+01
48.000000 4.000000 1.868039E+01
48.000000 2.000000 1.990470E+01
48.000000 0.000000 6.238066E+00
48.000000 -2.000000 -1.953558E+01
48.000000 -4.000000 -4.424123E+01
48.000000 -6.000000 -5.701959E+01
48.000000 -8.000000 -5.881183E+01
48.000000 -10.000000 -5.805006E+01
48.000000 -12.000000 -3.928235E+01
48.000000 -14.000000 -1.551081E+01
48.000000 -16.000000 -1.257603E+00
48.000000 -18.000000 -9.119453E-01
48.000000 -20.000000 -1.082045E+01
48.000000 -22.000000 -3.091070E+01
48.000000 -24.000000 -5.617578E+01
48.000000 -26.000000 -7.278440E+01
48.000000 -28.000000 -7.302777E+01
48.000000 -30.000000 -6.051491E+01
48.000000 -32.000000 -4.115337E+01
48.000000 -34.000000 -2.655274E+01
48.000000 -36.000000 -1.908886E+01
48.000000 -38.000000 -2.143878E+01
48.000000 -40.000000 -2.942708E+01
50.000000 40.000000 -5.298813E+00
50.000000 38.000000 -7.045386E+00
50.000000 36.000000 7.242987E+00
50.000000 34.000000 3.265074E+01
50.000000 32.000000 4.346401E+01
50.000000 30.000000 2.802365E+01
50.000000 28.000000 1.000552E+01
50.000000 26.000000 2.946642E+00
50.000000 24.000000 1.527120E+01
50.000000 22.000000 3.088817E+01
50.000000 20.000000 2.989227E+01
50.000000 18.000000 8.820709E+00
50.000000 16.000000 7.929909E-02
50.000000 14.000000 1.845661E+01
50.000000 12.000000 3.698284E+01
50.000000 10.000000 3.109299E+01
50.000000 8.000000 1.081951E+01
50.000000 6.000000 7.426215E+00
50.000000 4.000000 2.058158E+01
50.000000 2.000000 2.176499E+01
50.000000 0.000000 2.431268E+00
50.000000 -2.000000 -2.955754E+01
50.000000 -4.000000 -5.300374E+01
50.000000 -6.000000 -5.772917E+01
50.000000 -8.000000 -5.266537E+01
50.000000 -10.000000 -4.637823E+01
50.000000 -12.000000 -3.259452E+01
50.000000 -14.000000 -1.877640E+01
50.000000 -16.000000 -1.374886E+01
50.000000 -18.000000 -1.368983E+01
50.000000 -20.000000 -1.231477E+01
50.000000 -22.000000 -1.580667E+01
50.000000 -24.000000 -3.151229E+01
50.000000 -26.000000 -4.839514E+01
50.000000 -28.000000 -5.253461E+01
50.000000 -30.000000 -4.640298E+01
50.000000 -32.000000 -3.521985E+01
50.000000 -34.000000 -2.720199E+01
50.000000 -36.000000 -2.430598E+01
50.000000 -38.000000 -2.661816E+01
50.000000 -40.000000 -3.334213E+01
52.000000 40.000000 -2.184173E+00
52.000000 38.000000 -4.994596E+00
52.000000 36.000000 6.137457E+00
52.000000 34.000000 2.564687E+01
52.000000 32.000000 3.024821E+01
52.000000 30.000000 9.398559E+00
52.000000 28.000000 -1.136799E+01
52.000000 26.000000 -1.712510E+01
52.000000 24.000000 -5.423954E+00
52.000000 22.000000 1.210083E+01
52.000000 20.000000 1.453834E+01
52.000000 18.000000 1.414275E-01
52.000000 16.000000 -8.461709E+00
52.000000 14.000000 2.279345E+00
52.000000 12.000000 1.440867E+01
52.000000 10.000000 7.815902E+00
52.000000 8.000000 -1.138239E+01
52.000000 6.000000 -1.459917E+01
52.000000 4.000000 1.032994E+00
52.000000 2.000000 7.886460E+00
52.000000 0.000000 -3.976275E+00
52.000000 -2.000000 -2.853842E+01
52.000000 -4.000000 -4.413822E+01
52.000000 -6.000000 -4.177645E+01
52.000000 -8.000000 -3.285506E+01
52.000000 -10.000000 -2.316199E+01
52.000000 -12.000000 -1.389521E+01
52.000000 -14.000000 -8.714213E+00
52.000000 -16.000000 -1.201654E+01
52.000000 -18.000000 -1.387878E+01
52.000000 -20.000000 -5.568840E+00
52.000000 -22.000000 2.311726E+00
52.000000 -24.000000 -5.282095E+00
52.000000 -26.000000 -2.013016E+01
52.000000 -28.000000 -2.514840E+01
52.000000 -30.000000 -2.175489E+01
52.000000 -32.000000 -1.513477E+01
52.000000 -34.000000 -1.304203E+01
52.000000 -36.000000 -1.936692E+01
52.000000 -38.000000 -2.742121E+01
52.000000 -40.000000 -3.721500E+01
54.000000 40.000000 5.545053E-01
54.000000 38.000000 -6.568307E+00
54.000000 36.000000 -4.849399E+00
54.000000 34.000000 1.035573E+00
54.000000 32.000000 -1.001784E+00
54.000000 30.000000 -2.069323E+01
54.000000 28.000000 -3.490682E+01
54.000000 26.000000 -3.188808E+01
54.000000 24.000000 -1.542833E+01
54.000000 22.000000 3.891161E+00
54.000000 20.000000 1.054350E+01
54.000000 18.000000 2.988148E+00
54.000000 16.000000 -8.196823E+00
54.000000 14.000000 -8.548683E+00
54.000000 12.000000 -7.903608E+00
54.000000 10.000000 -2.240308E+01
54.000000 8.000000 -4.571966E+01
54.000000 6.000000 -5.576310E+01
54.000000 4.000000 -4.061427E+01
54.000000 2.000000 -2.252150E+01
54.000000 0.000000 -1.629293E+01
54.000000 -2.000000 -1.998136E+01
54.000000 -4.000000 -2.160032E+01
54.000000 -6.000000 -1.649587E+01
54.000000 -8.000000 -9.460116E+00
54.000000 -10.000000 -7.476292E-01
54.000000 -12.000000 5.588696E+00
54.000000 -14.000000 8.810808E+00
54.000000 -16.000000 4.783657E+00
54.000000 -18.000000 2.780385E+00
54.000000 -20.000000 1.208997E+01
54.000000 -22.000000 2.338780E+01
54.000000 -24.000000 1.914037E+01
54.000000 -26.000000 5.360866E+00
54.000000 -28.000000 2.736206E-01
54.000000 -30.000000 4.573086E+00
54.000000 -32.000000 9.117238E+00
54.000000 -34.000000 6.604540E+00
54.000000 -36.000000 -8.176516E+00
54.000000 -38.000000 -2.390115E+01
54.000000 -40.000000 -3.866780E+01
56.000000 40.000000 8.905725E-01
56.000000 38.000000 -1.105318E+01
56.000000 36.000000 -1.815381E+01
56.000000 34.000000 -2.778008E+01
56.000000 32.000000 -3.640484E+01
56.000000 30.000000 -4.852310E+01
56.000000 28.000000 -4.907932E+01
56.000000 26.000000 -3.572089E+01
56.000000 24.000000 -1.380239E+01
56.000000 22.000000 5.639234E+00
56.000000 20.000000 1.350750E+01
56.000000 18.000000 3.873375E+00
56.000000 16.000000 -1.196163E+01
56.000000 14.000000 -1.688082E+01
56.000000 12.000000 -2.115833E+01
56.000000 10.000000 -4.304018E+01
56.000000 8.000000 -7.306534E+01
56.000000 6.000000 -9.036706E+01
56.000000 4.000000 -8.039953E+01
56.000000 2.000000 -5.700701E+01
56.000000 0.000000 -3.656631E+01
56.000000 -2.000000 -2.182480E+01
56.000000 -4.000000 -9.197851E+00
56.000000 -6.000000 -4.288349E-01
56.000000 -8.000000 5.331229E+00
56.000000 -10.000000 1.408515E+01
56.000000 -12.000000 2.125167E+01
56.000000 -14.000000 2.692136E+01
56.000000 -16.000000 2.696999E+01
56.000000 -18.000000 2.713393E+01
56.000000 -20.000000 3.551816E+01
56.000000 -22.000000 4.456464E+01
56.000000 -24.000000 3.873672E+01
56.000000 -26.000000 2.386956E+01
56.000000 -28.000000 1.930232E+01
56.000000 -30.000000 2.429015E+01
56.000000 -32.000000 2.763458E+01
56.000000 -34.000000 2.191767E+01
56.000000 -36.000000 7.504044E-01
56.000000 -38.000000 -1.770617E+01
56.000000 -40.000000 -3.602841E+01
58.000000 40.000000 -2.082653E-01
58.000000 38.000000 -1.595206E+01
58.000000 36.000000 -3.122440E+01
58.000000 34.000000 -4.831198E+01
58.000000 32.000000 -5.830010E+01
58.000000 30.000000 -6.258026E+01
58.000000 28.000000 -5.281273E+01
58.000000 26.000000 -3.272376E+01
58.000000 24.000000 -9.782742E+00
58.000000 22.000000 5.227265E+00
58.000000 20.000000 1.110589E+01
58.000000 18.000000 -1.804029E+00
58.000000 16.000000 -1.754500E+01
58.000000 14.000000 -2.178613E+01
58.000000 12.000000 -2.733959E+01
58.000000 10.000000 -4.997367E+01
58.000000 8.000000 -8.176396E+01
58.000000 6.000000 -1.033061E+02
58.000000 4.000000 -1.019159E+02
