-30.000000 -30.000000 -3.150838E+01
-30.000000 -32.000000 -1.822367E+01
-30.000000 -34.000000 -3.026211E+00
-30.000000 -36.000000 1.024910E+01
-30.000000 -38.000000 1.830436E+01
-30.000000 -40.000000 2.340125E+01
-28.000000 40.000000 1.983564E+01
-28.000000 38.000000 2.151355E+01
-28.000000 36.000000 3.100628E+01
-28.000000 34.000000 5.055542E+01
-28.000000 32.000000 6.610687E+01
-28.000000 30.000000 7.176139E+01
-28.000000 28.000000 7.052725E+01
-28.000000 26.000000 6.544559E+01
-28.000000 24.000000 5.211854E+01
-28.000000 22.000000 3.264207E+01
-28.000000 20.000000 2.163657E+01
-28.000000 18.000000 2.385085E+01
-28.000000 16.000000 3.575383E+01
-28.000000 14.000000 4.884698E+01
-28.000000 12.000000 5.549041E+01
-28.000000 10.000000 5.312453E+01
-28.000000 8.000000 3.128531E+01
-28.000000 6.000000 2.913331E+00
-28.000000 4.000000 -1.549533E+01
-28.000000 2.000000 -1.832508E+01
-28.000000 0.000000 -2.362435E+01
-28.000000 -2.000000 -3.384981E+01
-28.000000 -4.000000 -4.661048E+01
-28.000000 -6.000000 -5.106925E+01
-28.000000 -8.000000 -4.593942E+01
-28.000000 -10.000000 -4.198296E+01
-28.000000 -12.000000 -3.886476E+01
-28.000000 -14.000000 -2.791400E+01
-28.000000 -16.000000 -5.337694E+00
-28.000000 -18.000000 1.584227E+01
-28.000000 -20.000000 1.935649E+01
-28.000000 -22.000000 7.572205E+00
-28.000000 -24.000000 -8.282595E+00
-28.000000 -26.000000 -2.156154E+01
-28.000000 -28.000000 -2.831835E+01
-28.000000 -30.000000 -2.639601E+01
-28.000000 -32.000000 -1.296723E+01
-28.000000 -34.000000 2.528235E+00
-28.000000 -36.000000 1.586840E+01
-28.000000 -38.000000 2.261414E+01
-28.000000 -40.000000 2.612105E+01
-26.000000 40.000000 2.340392E+01
-26.000000 38.000000 2.412796E+01
-26.000000 36.000000 2.981564E+01
-26.000000 34.000000 4.286011E+01
-26.000000 32.000000 5.563927E+01
-26.000000 30.000000 6.104213E+01
-26.000000 28.000000 5.991883E+01
-26.000000 26.000000 5.600519E+01
-26.000000 24.000000 4.549106E+01
-26.000000 22.000000 2.498711E+01
-26.000000 20.000000 1.138234E+01
-26.000000 18.000000 9.915775E+00
-26.000000 16.000000 2.169822E+01
-26.000000 14.000000 3.705290E+01
-26.000000 12.000000 4.925564E+01
-26.000000 10.000000 5.577495E+01
-26.000000 8.000000 4.590958E+01
-26.000000 6.000000 3.144450E+01
-26.000000 4.000000 2.118037E+01
-26.000000 2.000000 1.454564E+01
-26.000000 0.000000 6.682630E-01
-26.000000 -2.000000 -2.281564E+01
-26.000000 -4.000000 -4.603698E+01
-26.000000 -6.000000 -5.408241E+01
-26.000000 -8.000000 -4.481798E+01
-26.000000 -10.000000 -3.977868E+01
-26.000000 -12.000000 -3.781252E+01
-26.000000 -14.000000 -2.795431E+01
-26.000000 -16.000000 -3.324926E+00
-26.000000 -18.000000 2.232123E+01
-26.000000 -20.000000 2.960077E+01
-26.000000 -22.000000 1.955391E+01
-26.000000 -24.000000 3.084904E+00
-26.000000 -26.000000 -1.034478E+01
-26.000000 -28.000000 -1.848524E+01
-26.000000 -30.000000 -1.902546E+01
-26.000000 -32.000000 -6.575485E+00
-26.000000 -34.000000 8.063146E+00
-26.000000 -36.000000 2.094918E+01
-26.000000 -38.000000 2.591917E+01
-26.000000 -40.000000 2.704675E+01
-24.000000 40.000000 2.476421E+01
-24.000000 38.000000 2.398131E+01
-24.000000 36.000000 2.658927E+01
-24.000000 34.000000 3.067117E+01
-24.000000 32.000000 3.933545E+01
-24.000000 30.000000 4.158559E+01
-24.000000 28.000000 4.083448E+01
-24.000000 26.000000 4.238261E+01
-24.000000 24.000000 3.709541E+01
-24.000000 22.000000 2.407548E+01
-24.000000 20.000000 9.196640E+00
-24.000000 18.000000 1.770824E+00
-24.000000 16.000000 8.743555E+00
-24.000000 14.000000 2.186411E+01
-24.000000 12.000000 3.634256E+01
-24.000000 10.000000 4.844419E+01
-24.000000 8.000000 5.059680E+01
-24.000000 6.000000 5.178264E+01
-24.000000 4.000000 5.302743E+01
-24.000000 2.000000 4.677167E+01
-24.000000 0.000000 2.840367E+01
-24.000000 -2.000000 -3.494122E+00
-24.000000 -4.000000 -3.443596E+01
-24.000000 -6.000000 -4.831555E+01
-24.000000 -8.000000 -4.326762E+01
-24.000000 -10.000000 -4.302027E+01
-24.000000 -12.000000 -4.491529E+01
-24.000000 -14.000000 -3.814178E+01
-24.000000 -16.000000 -1.284640E+01
-24.000000 -18.000000 1.804202E+01
-24.000000 -20.000000 3.464097E+01
-24.000000 -22.000000 3.453052E+01
-24.000000 -24.000000 2.453041E+01
-24.000000 -26.000000 9.545012E+00
-24.000000 -28.000000 -2.347233E+00
-24.000000 -30.000000 -7.367482E+00
-24.000000 -32.000000 1.142863E+00
-24.000000 -34.000000 1.312951E+01
-24.000000 -36.000000 2.453887E+01
-24.000000 -38.000000 2.821130E+01
-24.000000 -40.000000 2.645083E+01
-22.000000 40.000000 2.555220E+01
-22.000000 38.000000 2.299689E+01
-22.000000 36.000000 2.102837E+01
-22.000000 34.000000 1.956801E+01
-22.000000 32.000000 2.498944E+01
-22.000000 30.000000 2.453830E+01
-22.000000 28.000000 2.409286E+01
-22.000000 26.000000 3.089569E+01
-22.000000 24.000000 3.611049E+01
-22.000000 22.000000 3.160679E+01
-22.000000 20.000000 1.759931E+01
-22.000000 18.000000 6.343540E+00
-22.000000 16.000000 9.074472E+00
-22.000000 14.000000 1.929368E+01
-22.000000 12.000000 3.165726E+01
-22.000000 10.000000 4.052933E+01
-22.000000 8.000000 4.220127E+01
-22.000000 6.000000 4.472985E+01
-22.000000 4.000000 5.283291E+01
-22.000000 2.000000 5.453683E+01
-22.000000 0.000000 4.237846E+01
-22.000000 -2.000000 1.543748E+01
-22.000000 -4.000000 -1.395806E+01
-22.000000 -6.000000 -3.214872E+01
-22.000000 -8.000000 -3.827083E+01
-22.000000 -10.000000 -4.825984E+01
-22.000000 -12.000000 -5.545836E+01
-22.000000 -14.000000 -5.102178E+01
-22.000000 -16.000000 -2.624469E+01
-22.000000 -18.000000 8.359289E+00
-22.000000 -20.000000 3.642439E+01
-22.000000 -22.000000 4.953011E+01
-22.000000 -24.000000 4.554003E+01
-22.000000 -26.000000 3.048976E+01
-22.000000 -28.000000 1.287230E+01
-22.000000 -30.000000 9.370201E-01
-22.000000 -32.000000 3.018494E+00
-22.000000 -34.000000 1.317785E+01
-22.000000 -36.000000 2.468427E+01
-22.000000 -38.000000 2.832341E+01
-22.000000 -40.000000 2.533138E+01
-20.000000 40.000000 2.215240E+01
-20.000000 38.000000 1.936200E+01
-20.000000 36.000000 1.589540E+01
-20.000000 34.000000 1.319727E+01
-20.000000 32.000000 1.663694E+01
-20.000000 30.000000 1.446690E+01
-20.000000 28.000000 1.399270E+01
-20.000000 26.000000 2.368338E+01
-20.000000 24.000000 3.754453E+01
-20.000000 22.000000 4.110646E+01
-20.000000 20.000000 3.203254E+01
-20.000000 18.000000 2.098415E+01
-20.000000 16.000000 2.107493E+01
-20.000000 14.000000 2.929207E+01
-20.000000 12.000000 3.705082E+01
-20.000000 10.000000 3.474440E+01
-20.000000 8.000000 2.485193E+01
-20.000000 6.000000 1.761996E+01
-20.000000 4.000000 2.548750E+01
-20.000000 2.000000 3.733000E+01
-20.000000 0.000000 3.694753E+01
-20.000000 -2.000000 2.161803E+01
-20.000000 -4.000000 1.666675E+00
-20.000000 -6.000000 -1.349656E+01
-20.000000 -8.000000 -2.493539E+01
-20.000000 -10.000000 -4.196379E+01
-20.000000 -12.000000 -5.376223E+01
-20.000000 -14.000000 -5.169930E+01
-20.000000 -16.000000 -3.006447E+01
-20.000000 -18.000000 3.320756E+00
-20.000000 -20.000000 3.569645E+01
-20.000000 -22.000000 5.490742E+01
-20.000000 -24.000000 5.352143E+01
-20.000000 -26.000000 3.900296E+01
-20.000000 -28.000000 1.830830E+01
-20.000000 -30.000000 1.049962E+00
-20.000000 -32.000000 -1.148320E+00
-20.000000 -34.000000 9.226502E+00
-20.000000 -36.000000 2.229396E+01
-20.000000 -38.000000 2.753590E+01
-20.000000 -40.000000 2.466500E+01
-18.000000 40.000000 1.434546E+01
-18.000000 38.000000 1.470191E+01
-18.000000 36.000000 1.345111E+01
-18.000000 34.000000 1.231077E+01
-18.000000 32.000000 1.449661E+01
-18.000000 30.000000 1.015946E+01
-18.000000 28.000000 8.552498E+00
-18.000000 26.000000 1.957386E+01
-18.000000 24.000000 3.788601E+01
-18.000000 22.000000 4.605716E+01
-18.000000 20.000000 4.198444E+01
-18.000000 18.000000 3.318355E+01
-18.000000 16.000000 3.297191E+01
-18.000000 14.000000 4.184166E+01
-18.000000 12.000000 4.850989E+01
-18.000000 10.000000 3.680096E+01
-18.000000 8.000000 1.169512E+01
-18.000000 6.000000 -1.079189E+01
-18.000000 4.000000 -1.060150E+01
-18.000000 2.000000 7.903565E+00
-18.000000 0.000000 1.908156E+01
-18.000000 -2.000000 1.693798E+01
-18.000000 -4.000000 9.955409E+00
-18.000000 -6.000000 4.568616E+00
-18.000000 -8.000000 -2.509077E+00
-18.000000 -10.000000 -1.849466E+01
-18.000000 -12.000000 -3.470485E+01
-18.000000 -14.000000 -3.588683E+01
-18.000000 -16.000000 -1.722151E+01
-18.000000 -18.000000 9.720549E+00
-18.000000 -20.000000 3.213549E+01
-18.000000 -22.000000 4.362642E+01
-18.000000 -24.000000 4.095688E+01
-18.000000 -26.000000 2.740749E+01
-18.000000 -28.000000 9.133006E+00
-18.000000 -30.000000 -6.448001E+00
-18.000000 -32.000000 -8.264361E+00
-18.000000 -34.000000 2.970360E+00
-18.000000 -36.000000 1.760068E+01
-18.000000 -38.000000 2.493315E+01
-18.000000 -40.000000 2.372005E+01
-16.000000 40.000000 5.166742E+00
-16.000000 38.000000 8.839003E+00
-16.000000 36.000000 1.069239E+01
-16.000000 34.000000 1.364723E+01
-16.000000 32.000000 1.685325E+01
-16.000000 30.000000 1.080319E+01
-16.000000 28.000000 6.065779E+00
-16.000000 26.000000 1.375116E+01
-16.000000 24.000000 2.957658E+01
-16.000000 22.000000 3.705483E+01
-16.000000 20.000000 3.480228E+01
-16.000000 18.000000 3.042245E+01
-16.000000 16.000000 3.510613E+01
-16.000000 14.000000 5.097624E+01
-16.000000 12.000000 6.539143E+01
-16.000000 10.000000 5.519958E+01
-16.000000 8.000000 1.972618E+01
-16.000000 6.000000 -1.681490E+01
-16.000000 4.000000 -2.895927E+01
-16.000000 2.000000 -1.283356E+01
-16.000000 0.000000 4.723583E+00
-16.000000 -2.000000 1.362836E+01
-16.000000 -4.000000 1.596640E+01
-16.000000 -6.000000 1.886059E+01
-16.000000 -8.000000 1.836189E+01
-16.000000 -10.000000 7.611879E+00
-16.000000 -12.000000 -9.407156E+00
-16.000000 -14.000000 -1.219759E+01
-16.000000 -16.000000 2.599855E+00
-16.000000 -18.000000 1.955055E+01
-16.000000 -20.000000 2.597614E+01
-16.000000 -22.000000 2.454130E+01
-16.000000 -24.000000 1.761039E+01
-16.000000 -26.000000 4.874822E+00
-16.000000 -28.000000 -9.315284E+00
-16.000000 -30.000000 -2.042026E+01
-16.000000 -32.000000 -2.004900E+01
-16.000000 -34.000000 -7.252693E+00
-16.000000 -36.000000 9.620428E+00
-16.000000 -38.000000 2.018513E+01
-16.000000 -40.000000 2.343367E+01
-14.000000 40.000000 -3.606188E+00
-14.000000 38.000000 5.923824E-01
-14.000000 36.000000 4.552313E+00
-14.000000 34.000000 1.271045E+01
-14.000000 32.000000 1.833365E+01
-14.000000 30.000000 1.201064E+01
-14.000000 28.000000 3.311829E+00
-14.000000 26.000000 2.902523E+00
-14.000000 24.000000 1.047714E+01
-14.000000 22.000000 1.393119E+01
-14.000000 20.000000 1.210278E+01
-14.000000 18.000000 1.554150E+01
-14.000000 16.000000 3.136338E+01
-14.000000 14.000000 6.087087E+01
-14.000000 12.000000 8.926132E+01
-14.000000 10.000000 9.068340E+01
-14.000000 8.000000 5.342712E+01
-14.000000 6.000000 7.644167E+00
-14.000000 4.000000 -1.724118E+01
-14.000000 2.000000 -9.794600E+00
-14.000000 0.000000 6.580494E+00
-14.000000 -2.000000 1.840855E+01
-14.000000 -4.000000 2.295490E+01
-14.000000 -6.000000 2.743083E+01
-14.000000 -8.000000 2.867446E+01
-14.000000 -10.000000 2.095385E+01
-14.000000 -12.000000 5.566605E+00
-14.000000 -14.000000 2.242959E+00
-14.000000 -16.000000 1.316360E+01
-14.000000 -18.000000 2.319408E+01
-14.000000 -20.000000 1.889882E+01
-14.000000 -22.000000 7.072900E+00
-14.000000 -24.000000 -4.563813E+00
-14.000000 -26.000000 -1.561374E+01
-14.000000 -28.000000 -2.733757E+01
-14.000000 -30.000000 -3.684148E+01
-14.000000 -32.000000 -3.580926E+01
-14.000000 -34.000000 -2.107739E+01
-14.000000 -36.000000 -1.083403E-01
-14.000000 -38.000000 1.565195E+01
-14.000000 -40.000000 2.539113E+01
-12.000000 40.000000 -1.104031E+01
-12.000000 38.000000 -7.718700E+00
-12.000000 36.000000 -3.416981E+00
-12.000000 34.000000 6.515564E+00
-12.000000 32.000000 1.313118E+01
-12.000000 30.000000 6.168444E+00
-12.000000 28.000000 -5.421976E+00
-12.000000 26.000000 -1.020244E+01
-12.000000 24.000000 -9.627266E+00
-12.000000 22.000000 -9.598907E+00
-12.000000 20.000000 -1.012947E+01
-12.000000 18.000000 1.215885E+00
-12.000000 16.000000 2.967608E+01
-12.000000 14.000000 7.313318E+01
-12.000000 12.000000 1.149045E+02
-12.000000 10.000000 1.308973E+02
-12.000000 8.000000 9.789595E+01
-12.000000 6.000000 4.941826E+01
-12.000000 4.000000 1.689074E+01
-12.000000 2.000000 1.564892E+01
-12.000000 0.000000 2.615987E+01
-12.000000 -2.000000 3.240981E+01
-12.000000 -4.000000 3.087677E+01
-12.000000 -6.000000 2.872027E+01
-12.000000 -8.000000 2.663652E+01
-12.000000 -10.000000 1.752405E+01
-12.000000 -12.000000 1.860962E+00
-12.000000 -14.000000 -1.793737E+00
-12.000000 -16.000000 1.029724E+01
-12.000000 -18.000000 2.132074E+01
-12.000000 -20.000000 1.374665E+01
-12.000000 -22.000000 -3.491682E+00
-12.000000 -24.000000 -1.789479E+01
-12.000000 -26.000000 -2.755174E+01
-12.000000 -28.000000 -3.878729E+01
-12.000000 -30.000000 -4.919907E+01
-12.000000 -32.000000 -4.965094E+01
-12.000000 -34.000000 -3.441150E+01
-12.000000 -36.000000 -8.182343E+00
-12.000000 -38.000000 1.487932E+01
-12.000000 -40.000000 3.044793E+01
-10.000000 40.000000 -1.662790E+01
-10.000000 38.000000 -1.402375E+01
-10.000000 36.000000 -1.133257E+01
-10.000000 34.000000 -4.122885E+00
-10.000000 32.000000 5.713806E-01
-10.000000 30.000000 -8.139339E+00
-10.000000 28.000000 -1.966256E+01
-10.000000 26.000000 -2.199868E+01
-10.000000 24.000000 -2.203495E+01
-10.000000 22.000000 -2.115915E+01
-10.000000 20.000000 -1.758320E+01
-10.000000 18.000000 3.537216E-01
-10.000000 16.000000 3.734045E+01
-10.000000 14.000000 8.779631E+01
-10.000000 12.000000 1.349340E+02
-10.000000 10.000000 1.584308E+02
-10.000000 8.000000 1.293057E+02
-10.000000 6.000000 8.329777E+01
-10.000000 4.000000 4.917645E+01
-10.000000 2.000000 4.314465E+01
-10.000000 0.000000 4.729531E+01
-10.000000 -2.000000 4.466347E+01
-10.000000 -4.000000 3.419354E+01
-10.000000 -6.000000 2.424577E+01
-10.000000 -8.000000 1.679743E+01
-10.000000 -10.000000 2.993811E+00
-10.000000 -12.000000 -1.514425E+01
-10.000000 -14.000000 -1.744943E+01
-10.000000 -16.000000 2.399668E+00
-10.000000 -18.000000 2.219074E+01
-10.000000 -20.000000 1.920322E+01
-10.000000 -22.000000 1.704845E+00
-10.000000 -24.000000 -1.504383E+01
-10.000000 -26.000000 -2.633232E+01
-10.000000 -28.000000 -3.973777E+01
-10.000000 -30.000000 -5.197031E+01
-10.000000 -32.000000 -5.447261E+01
-10.000000 -34.000000 -4.022882E+01
-10.000000 -36.000000 -1.071821E+01
-10.000000 -38.000000 1.750493E+01
-10.000000 -40.000000 3.503064E+01
-8.000000 40.000000 -2.195700E+01
-8.000000 38.000000 -1.973497E+01
-8.000000 36.000000 -1.808896E+01
-8.000000 34.000000 -1.436396E+01
-8.000000 32.000000 -1.212839E+01
-8.000000 30.000000 -2.163531E+01
-8.000000 28.000000 -3.092168E+01
-8.000000 26.000000 -2.834859E+01
-8.000000 24.000000 -2.444953E+01
-8.000000 22.000000 -1.845866E+01
-8.000000 20.000000 -7.778107E+00
-8.000000 18.000000 1.466919E+01
-8.000000 16.000000 5.226902E+01
-8.000000 14.000000 9.915538E+01
-8.000000 12.000000 1.399603E+02
-8.000000 10.000000 1.596179E+02
-8.000000 8.000000 1.324165E+02
-8.000000 6.000000 9.161339E+01
-8.000000 4.000000 5.987999E+01
-8.000000 2.000000 5.156909E+01
-8.000000 0.000000 5.017506E+01
-8.000000 -2.000000 4.196992E+01
-8.000000 -4.000000 2.718366E+01
-8.000000 -6.000000 1.383856E+01
-8.000000 -8.000000 4.242054E+00
-8.000000 -10.000000 -1.245685E+01
-8.000000 -12.000000 -2.907275E+01
-8.000000 -14.000000 -2.690782E+01
-8.000000 -16.000000 2.404060E+00
-8.000000 -18.000000 3.259879E+01
-8.000000 -20.000000 3.798162E+01
-8.000000 -22.000000 2.356325E+01
-8.000000 -24.000000 4.465544E+00
-8.000000 -26.000000 -1.066491E+01
-8.000000 -28.000000 -2.820050E+01
-8.000000 -30.000000 -4.279104E+01
-8.000000 -32.000000 -4.558477E+01
-8.000000 -34.000000 -3.232874E+01
-8.000000 -36.000000 -4.900326E+00
-8.000000 -38.000000 2.019178E+01
-8.000000 -40.000000 3.405556E+01
-6.000000 40.000000 -2.744834E+01
-6.000000 38.000000 -2.449475E+01
-6.000000 36.000000 -2.169257E+01
-6.000000 34.000000 -1.841892E+01
-6.000000 32.000000 -1.589819E+01
-6.000000 30.000000 -2.437781E+01
-6.000000 28.000000 -3.232874E+01
-6.000000 26.000000 -2.739295E+01
-6.000000 24.000000 -1.951821E+01
-6.000000 22.000000 -7.470516E+00
-6.000000 20.000000 8.374474E+00
-6.000000 18.000000 3.207188E+01
-6.000000 16.000000 6.336584E+01
-6.000000 14.000000 9.737621E+01
-6.000000 12.000000 1.237478E+02
-6.000000 10.000000 1.338708E+02
-6.000000 8.000000 1.105017E+02
-6.000000 6.000000 7.547325E+01
-6.000000 4.000000 4.556329E+01
-6.000000 2.000000 3.375092E+01
-6.000000 0.000000 2.933948E+01
-6.000000 -2.000000 2.268012E+01
-6.000000 -4.000000 1.120785E+01
-6.000000 -6.000000 2.812275E+00
-6.000000 -8.000000 -2.929066E+00
-6.000000 -10.000000 -1.602524E+01
-6.000000 -12.000000 -2.614155E+01
-6.000000 -14.000000 -1.834392E+01
-6.000000 -16.000000 1.539915E+01
-6.000000 -18.000000 4.883194E+01
-6.000000 -20.000000 5.962102E+01
-6.000000 -22.000000 4.972064E+01
-6.000000 -24.000000 3.169280E+01
-6.000000 -26.000000 1.498398E+01
-6.000000 -28.000000 -5.694321E+00
-6.000000 -30.000000 -2.302385E+01
-6.000000 -32.000000 -2.653446E+01
-6.000000 -34.000000 -1.564400E+01
-6.000000 -36.000000 4.974243E+00
-6.000000 -38.000000 2.179906E+01
-6.000000 -40.000000 2.982730E+01
-4.000000 40.000000 -3.256892E+01
-4.000000 38.000000 -2.729398E+01
-4.000000 36.000000 -2.110203E+01
-4.000000 34.000000 -1.459955E+01
-4.000000 32.000000 -9.537607E+00
-4.000000 30.000000 -1.534124E+01
-4.000000 28.000000 -2.137947E+01
-4.000000 26.000000 -1.714310E+01
-4.000000 24.000000 -9.362112E+00
-4.000000 22.000000 4.537388E+00
-4.000000 20.000000 1.972635E+01
-4.000000 18.000000 4.066364E+01
-4.000000 16.000000 6.362053E+01
-4.000000 14.000000 8.320525E+01
-4.000000 12.000000 9.306130E+01
-4.000000 10.000000 9.088020E+01
-4.000000 8.000000 7.134859E+01
-4.000000 6.000000 4.124958E+01
-4.000000 4.000000 1.421263E+01
-4.000000 2.000000 2.435406E+00
-4.000000 0.000000 -9.906387E-02
-4.000000 -2.000000 3.174248E-01
-4.000000 -4.000000 -2.090858E+00
-4.000000 -6.000000 -2.410496E+00
-4.000000 -8.000000 -2.297306E+00
-4.000000 -10.000000 -7.938145E+00
-4.000000 -12.000000 -1.159713E+01
-4.000000 -14.000000 1.413239E+00
-4.000000 -16.000000 3.467665E+01
-4.000000 -18.000000 6.381579E+01
-4.000000 -20.000000 7.453122E+01
-4.000000 -22.000000 6.889467E+01
-4.000000 -24.000000 5.531105E+01
-4.000000 -26.000000 4.066756E+01
-4.000000 -28.000000 1.921968E+01
-4.000000 -30.000000 -5.079746E-01
-4.000000 -32.000000 -6.233120E+00
-4.000000 -34.000000 6.764221E-01
-4.000000 -36.000000 1.310593E+01
-4.000000 -38.000000 2.298005E+01
-4.000000 -40.000000 2.704101E+01
-2.000000 40.000000 -3.835827E+01
-2.000000 38.000000 -2.875904E+01
-2.000000 36.000000 -1.800398E+01
-2.000000 34.000000 -6.610164E+00
-2.000000 32.000000 2.083498E+00
-2.000000 30.000000 9.805298E-02
-2.000000 28.000000 -3.182959E+00
-2.000000 26.000000 -4.029846E-01
-2.000000 24.000000 5.442486E+00
-2.000000 22.000000 1.523707E+01
-2.000000 20.000000 2.451356E+01
-2.000000 18.000000 3.940889E+01
-2.000000 16.000000 5.504820E+01
-2.000000 14.000000 6.418843E+01
-2.000000 12.000000 6.279320E+01
-2.000000 10.000000 4.785145E+01
-2.000000 8.000000 3.205846E+01
-2.000000 6.000000 1.117966E+01
-2.000000 4.000000 -1.007200E+01
-2.000000 2.000000 -1.965545E+01
-2.000000 0.000000 -1.894633E+01
-2.000000 -2.000000 -1.388264E+01
-2.000000 -4.000000 -1.074791E+01
-2.000000 -6.000000 -6.481770E+00
-2.000000 -8.000000 -1.166306E+00
-2.000000 -10.000000 2.231216E-01
-2.000000 -12.000000 1.214130E+00
-2.000000 -14.000000 1.766932E+01
-2.000000 -16.000000 4.811449E+01
-2.000000 -18.000000 7.087292E+01
-2.000000 -20.000000 7.801230E+01
-2.000000 -22.000000 7.382196E+01
-2.000000 -24.000000 6.482785E+01
-2.000000 -26.000000 5.394755E+01
-2.000000 -28.000000 3.406662E+01
-2.000000 -30.000000 1.543567E+01
-2.000000 -32.000000 1.016675E+01
-2.000000 -34.000000 1.290599E+01
-2.000000 -36.000000 1.823788E+01
-2.000000 -38.000000 2.445873E+01
-2.000000 -40.000000 2.719471E+01
0.000000 40.000000 -4.412514E+01
0.000000 38.000000 -2.993496E+01
0.000000 36.000000 -1.548005E+01
0.000000 34.000000 -8.346748E-02
0.000000 32.000000 1.243757E+01
0.000000 30.000000 1.347489E+01
0.000000 28.000000 1.204924E+01
0.000000 26.000000 1.473720E+01
0.000000 24.000000 2.006589E+01
0.000000 22.000000 2.181006E+01
0.000000 20.000000 2.245441E+01
0.000000 18.000000 2.926165E+01
0.000000 16.000000 4.023375E+01
0.000000 14.000000 4.628096E+01
0.000000 12.000000 4.675605E+01
0.000000 10.000000 3.473805E+01
0.000000 8.000000 2.827150E+01
0.000000 6.000000 1.682346E+01
0.000000 4.000000 -2.834564E+00
0.000000 2.000000 -1.540642E+01
0.000000 0.000000 -1.734922E+01
0.000000 -2.000000 -1.663724E+01
0.000000 -4.000000 -2.063369E+01
0.000000 -6.000000 -1.920188E+01
0.000000 -8.000000 -1.182908E+01
0.000000 -10.000000 -6.010700E+00
0.000000 -12.000000 5.403023E-01
0.000000 -14.000000 1.910859E+01
0.000000 -16.000000 4.661584E+01
0.000000 -18.000000 6.584686E+01
0.000000 -20.000000 6.935446E+01
0.000000 -22.000000 6.434554E+01
0.000000 -24.000000 5.681806E+01
0.000000 -26.000000 4.749338E+01
0.000000 -28.000000 3.184347E+01
0.000000 -30.000000 1.950482E+01
0.000000 -32.000000 1.818655E+01
0.000000 -34.000000 1.885618E+01
0.000000 -36.000000 2.087629E+01
0.000000 -38.000000 2.687070E+01
0.000000 -40.000000 3.092863E+01
2.000000 40.000000 -4.737486E+01
2.000000 38.000000 -3.185704E+01
2.000000 36.000000 -1.650354E+01
2.000000 34.000000 6.023870E-01
2.000000 32.000000 1.431394E+01
2.000000 30.000000 1.634868E+01
2.000000 28.000000 1.711319E+01
2.000000 26.000000 2.232817E+01
2.000000 24.000000 2.870508E+01
2.000000 22.000000 2.456050E+01
2.000000 20.000000 1.686771E+01
2.000000 18.000000 1.514814E+01
2.000000 16.000000 2.298648E+01
2.000000 14.000000 3.374159E+01
2.000000 12.000000 4.889382E+01
2.000000 10.000000 6.173765E+01
2.000000 8.000000 7.063862E+01
2.000000 6.000000 6.305503E+01
2.000000 4.000000 3.726009E+01
2.000000 2.000000 1.426913E+01
2.000000 0.000000 2.459621E+00
2.000000 -2.000000 -8.151756E+00
2.000000 -4.000000 -2.717197E+01
2.000000 -6.000000 -3.692809E+01
2.000000 -8.000000 -3.459938E+01
2.000000 -10.000000 -2.959381E+01
2.000000 -12.000000 -1.777935E+01
2.000000 -14.000000 3.523258E+00
2.000000 -16.000000 3.053326E+01
2.000000 -18.000000 4.997877E+01
2.000000 -20.000000 5.243122E+01
2.000000 -22.000000 4.449339E+01
2.000000 -24.000000 3.445254E+01
2.000000 -26.000000 2.547392E+01
2.000000 -28.000000 1.567420E+01
2.000000 -30.000000 1.077029E+01
2.000000 -32.000000 1.434950E+01
2.000000 -34.000000 1.705849E+01
2.000000 -36.000000 2.134811E+01
2.000000 -38.000000 3.004697E+01
2.000000 -40.000000 3.807943E+01
4.000000 40.000000 -4.850776E+01
4.000000 38.000000 -3.493489E+01
4.000000 36.000000 -2.035228E+01
4.000000 34.000000 -3.898874E+00
4.000000 32.000000 7.640180E+00
4.000000 30.000000 8.768410E+00
4.000000 28.000000 1.087380E+01
4.000000 26.000000 1.948967E+01
4.000000 24.000000 2.880889E+01
4.000000 22.000000 2.454351E+01
4.000000 20.000000 1.297522E+01
4.000000 18.000000 5.513874E+00
4.000000 16.000000 1.078332E+01
4.000000 14.000000 2.878760E+01
4.000000 12.000000 6.196199E+01
4.000000 10.000000 1.021005E+02
4.000000 8.000000 1.266081E+02
4.000000 6.000000 1.240265E+02
4.000000 4.000000 9.140105E+01
4.000000 2.000000 5.571764E+01
4.000000 0.000000 3.021750E+01
4.000000 -2.000000 7.482330E+00
4.000000 -4.000000 -1.996375E+01
4.000000 -6.000000 -3.986629E+01
4.000000 -8.000000 -4.855151E+01
4.000000 -10.000000 -5.227438E+01
4.000000 -12.000000 -4.324847E+01
4.000000 -14.000000 -2.248331E+01
4.000000 -16.000000 4.768909E+00
4.000000 -18.000000 2.497440E+01
4.000000 -20.000000 2.809006E+01
4.000000 -22.000000 1.721775E+01
4.000000 -24.000000 4.297649E+00
4.000000 -26.000000 -3.429090E+00
4.000000 -28.000000 -8.176079E+00
4.000000 -30.000000 -7.195684E+00
4.000000 -32.000000 2.176474E+00
4.000000 -34.000000 9.748413E+00
4.000000 -36.000000 2.005115E+01
4.000000 -38.000000 3.406272E+01
4.000000 -40.000000 4.762547E+01
6.000000 40.000000 -4.857843E+01
6.000000 38.000000 -3.741585E+01
6.000000 36.000000 -2.342410E+01
6.000000 34.000000 -9.134801E+00
6.000000 32.000000 -1.554861E+00
6.000000 30.000000 -4.919402E+00
6.000000 28.000000 -6.294765E+00
6.000000 26.000000 4.566604E+00
6.000000 24.000000 1.837749E+01
6.000000 22.000000 1.854735E+01
6.000000 20.000000 9.236947E+00
6.000000 18.000000 -1.560860E-01
6.000000 16.000000 4.594891E+00
6.000000 14.000000 2.777070E+01
6.000000 12.000000 7.501053E+01
6.000000 10.000000 1.338300E+02
6.000000 8.000000 1.711867E+02
6.000000 6.000000 1.754354E+02
6.000000 4.000000 1.380443E+02
6.000000 2.000000 9.284558E+01
6.000000 0.000000 5.805507E+01
6.000000 -2.000000 2.846390E+01
6.000000 -4.000000 -5.763626E-01
6.000000 -6.000000 -2.356144E+01
6.000000 -8.000000 -4.069647E+01
6.000000 -10.000000 -5.763918E+01
6.000000 -12.000000 -6.097707E+01
6.000000 -14.000000 -4.800367E+01
6.000000 -16.000000 -2.377740E+01
6.000000 -18.000000 -4.250172E+00
6.000000 -20.000000 7.241058E-02
6.000000 -22.000000 -1.040646E+01
6.000000 -24.000000 -2.368708E+01
6.000000 -26.000000 -3.013881E+01
6.000000 -28.000000 -3.200534E+01
6.000000 -30.000000 -2.747597E+01
6.000000 -32.000000 -1.351382E+01
6.000000 -34.000000 2.869072E-01
6.000000 -36.000000 1.886046E+01
6.000000 -38.000000 3.950910E+01
6.000000 -40.000000 5.799670E+01
8.000000 40.000000 -4.632132E+01
8.000000 38.000000 -3.639769E+01
8.000000 36.000000 -2.329311E+01
8.000000 34.000000 -1.151969E+01
8.000000 32.000000 -1.055220E+01
8.000000 30.000000 -2.223539E+01
8.000000 28.000000 -3.060348E+01
8.000000 26.000000 -1.999461E+01
8.000000 24.000000 -2.434823E+00
8.000000 22.000000 5.289231E+00
8.000000 20.000000 2.855457E+00
8.000000 18.000000 -4.377796E+00
8.000000 16.000000 1.216307E+00
8.000000 14.000000 2.753032E+01
8.000000 12.000000 8.054417E+01
8.000000 10.000000 1.464630E+02
8.000000 8.000000 1.909690E+02
8.000000 6.000000 2.009501E+02
8.000000 4.000000 1.649174E+02
8.000000 2.000000 1.167734E+02
8.000000 0.000000 7.938301E+01
8.000000 -2.000000 4.872888E+01
8.000000 -4.000000 2.270632E+01
8.000000 -6.000000 1.721828E+00
8.000000 -8.000000 -1.908290E+01
8.000000 -10.000000 -4.660862E+01
8.000000 -12.000000 -6.430978E+01
8.000000 -14.000000 -6.243294E+01
8.000000 -16.000000 -4.458912E+01
8.000000 -18.000000 -2.717189E+01
8.000000 -20.000000 -2.098898E+01
8.000000 -22.000000 -2.731843E+01
8.000000 -24.000000 -3.857096E+01
8.000000 -26.000000 -4.474009E+01
8.000000 -28.000000 -4.693648E+01
8.000000 -30.000000 -4.326789E+01
8.000000 -32.000000 -2.835308E+01
8.000000 -34.000000 -8.616129E+00
8.000000 -36.000000 1.944600E+01
8.000000 -38.000000 4.605093E+01
8.000000 -40.000000 6.767885E+01
10.000000 40.000000 -4.214768E+01
10.000000 38.000000 -3.151665E+01
10.000000 36.000000 -1.915617E+01
10.000000 34.000000 -9.940140E+00
10.000000 32.000000 -1.754421E+01
10.000000 30.000000 -3.815592E+01
10.000000 28.000000 -5.327280E+01
10.000000 26.000000 -4.667611E+01
10.000000 24.000000 -2.862080E+01
10.000000 22.000000 -1.284940E+01
10.000000 20.000000 -7.441277E+00
10.000000 18.000000 -9.447490E+00
10.000000 16.000000 -4.178122E+00
10.000000 14.000000 2.238540E+01
10.000000 12.000000 7.449047E+01
10.000000 10.000000 1.387532E+02
10.000000 8.000000 1.855288E+02
10.000000 6.000000 2.008578E+02
10.000000 4.000000 1.738052E+02
10.000000 2.000000 1.269928E+02
10.000000 0.000000 8.590320E+01
10.000000 -2.000000 5.373778E+01
10.000000 -4.000000 3.553653E+01
10.000000 -6.000000 2.394518E+01
10.000000 -8.000000 3.721731E+00
10.000000 -10.000000 -2.540355E+01
10.000000 -12.000000 -5.391445E+01
10.000000 -14.000000 -6.231419E+01
10.000000 -16.000000 -5.014845E+01
10.000000 -18.000000 -3.367663E+01
10.000000 -20.000000 -2.458319E+01
10.000000 -22.000000 -2.642220E+01
10.000000 -24.000000 -3.546525E+01
10.000000 -26.000000 -4.224885E+01
10.000000 -28.000000 -4.765334E+01
10.000000 -30.000000 -4.880976E+01
10.000000 -32.000000 -3.612177E+01
10.000000 -34.000000 -1.366529E+01
10.000000 -36.000000 2.125869E+01
10.000000 -38.000000 5.237657E+01
10.000000 -40.000000 7.599252E+01
12.000000 40.000000 -3.795677E+01
12.000000 38.000000 -2.516882E+01
12.000000 36.000000 -1.279274E+01
12.000000 34.000000 -6.543277E+00
12.000000 32.000000 -2.020421E+01
12.000000 30.000000 -4.838495E+01
12.000000 28.000000 -6.910987E+01
12.000000 26.000000 -6.571666E+01
12.000000 24.000000 -4.837219E+01
12.000000 22.000000 -2.819587E+01
12.000000 20.000000 -1.942382E+01
12.000000 18.000000 -1.801976E+01
12.000000 16.000000 -1.339715E+01
12.000000 14.000000 1.071557E+01
12.000000 12.000000 5.765870E+01
12.000000 10.000000 1.167392E+02
12.000000 8.000000 1.651878E+02
12.000000 6.000000 1.874994E+02
12.000000 4.000000 1.719026E+02
12.000000 2.000000 1.265044E+02
12.000000 0.000000 7.700478E+01
12.000000 -2.000000 3.957891E+01
12.000000 -4.000000 2.863368E+01
12.000000 -6.000000 3.016116E+01
12.000000 -8.000000 1.661336E+01
12.000000 -10.000000 -7.540998E+00
12.000000 -12.000000 -4.074899E+01
12.000000 -14.000000 -5.257823E+01
12.000000 -16.000000 -3.936781E+01
12.000000 -18.000000 -1.939800E+01
12.000000 -20.000000 -7.366398E+00
12.000000 -22.000000 -8.431639E+00
12.000000 -24.000000 -1.649485E+01
12.000000 -26.000000 -2.400295E+01
12.000000 -28.000000 -3.417658E+01
12.000000 -30.000000 -4.051204E+01
12.000000 -32.000000 -3.210507E+01
12.000000 -34.000000 -1.169083E+01
12.000000 -36.000000 2.393183E+01
12.000000 -38.000000 5.710211E+01
12.000000 -40.000000 8.190421E+01
14.000000 40.000000 -3.389115E+01
14.000000 38.000000 -1.933060E+01
14.000000 36.000000 -7.267323E+00
14.000000 34.000000 -3.585004E+00
14.000000 32.000000 -2.016447E+01
14.000000 30.000000 -5.258326E+01
14.000000 28.000000 -7.562792E+01
14.000000 26.000000 -7.208425E+01
14.000000 24.000000 -5.570104E+01
14.000000 22.000000 -3.599587E+01
14.000000 20.000000 -2.743707E+01
14.000000 18.000000 -2.641852E+01
14.000000 16.000000 -2.260662E+01
14.000000 14.000000 -3.754778E+00
14.000000 12.000000 3.536578E+01
14.000000 10.000000 8.858353E+01
14.000000 8.000000 1.409338E+02
14.000000 6.000000 1.734532E+02
14.000000 4.000000 1.676114E+02
14.000000 2.000000 1.242230E+02
14.000000 0.000000 6.312815E+01
14.000000 -2.000000 1.807200E+01
14.000000 -4.000000 9.744417E+00
14.000000 -6.000000 1.935412E+01
14.000000 -8.000000 1.212137E+01
14.000000 -10.000000 -9.936445E+00
14.000000 -12.000000 -3.970629E+01
14.000000 -14.000000 -4.356838E+01
14.000000 -16.000000 -1.963357E+01
14.000000 -18.000000 9.206325E+00
14.000000 -20.000000 2.297886E+01
14.000000 -22.000000 1.902374E+01
14.000000 -24.000000 1.027446E+01
14.000000 -26.000000 1.557745E+00
14.000000 -28.000000 -1.198708E+01
14.000000 -30.000000 -2.092616E+01
14.000000 -32.000000 -1.602525E+01
14.000000 -34.000000 2.182503E-01
14.000000 -36.000000 3.117842E+01
14.000000 -38.000000 6.124417E+01
14.000000 -40.000000 8.349100E+01
16.000000 40.000000 -3.125702E+01
16.000000 38.000000 -1.618640E+01
16.000000 36.000000 -3.949314E+00
16.000000 34.000000 -1.483894E+00
16.000000 32.000000 -1.835840E+01
16.000000 30.000000 -4.880508E+01
16.000000 28.000000 -6.900355E+01
16.000000 26.000000 -6.572294E+01
16.000000 24.000000 -5.238775E+01
16.000000 22.000000 -3.719641E+01
16.000000 20.000000 -3.119191E+01
16.000000 18.000000 -3.074254E+01
16.000000 16.000000 -2.722312E+01
16.000000 14.000000 -1.394515E+01
16.000000 12.000000 1.757105E+01
16.000000 10.000000 6.384729E+01
16.000000 8.000000 1.188154E+02
16.000000 6.000000 1.616062E+02
16.000000 4.000000 1.653272E+02
16.000000 2.000000 1.265000E+02
16.000000 0.000000 5.993415E+01
16.000000 -2.000000 6.051933E+00
16.000000 -4.000000 -8.644896E+00
16.000000 -6.000000 -1.166931E+00
16.000000 -8.000000 -7.486025E+00
16.000000 -10.000000 -2.963685E+01
16.000000 -12.000000 -5.174253E+01
16.000000 -14.000000 -4.249013E+01
16.000000 -16.000000 -3.179195E+00
16.000000 -18.000000 3.552963E+01
16.000000 -20.000000 5.048561E+01
16.000000 -22.000000 4.389544E+01
16.000000 -24.000000 3.291905E+01
16.000000 -26.000000 2.194409E+01
16.000000 -28.000000 9.666063E+00
16.000000 -30.000000 2.050730E+00
16.000000 -32.000000 7.282761E+00
16.000000 -34.000000 2.082777E+01
16.000000 -36.000000 4.496865E+01
16.000000 -38.000000 6.611079E+01
16.000000 -40.000000 8.014002E+01
18.000000 40.000000 -3.286443E+01
18.000000 38.000000 -1.796669E+01
18.000000 36.000000 -3.798399E+00
18.000000 34.000000 7.029285E-01
18.000000 32.000000 -1.147656E+01
18.000000 30.000000 -3.463241E+01
18.000000 28.000000 -5.022135E+01
18.000000 26.000000 -4.937306E+01
18.000000 24.000000 -4.057390E+01
18.000000 22.000000 -3.000438E+01
18.000000 20.000000 -2.750802E+01
18.000000 18.000000 -2.793597E+01
18.000000 16.000000 -2.468706E+01
18.000000 14.000000 -1.428544E+01
18.000000 12.000000 1.147095E+01
18.000000 10.000000 4.925612E+01
18.000000 8.000000 1.028955E+02
18.000000 6.000000 1.515426E+02
18.000000 4.000000 1.631743E+02
18.000000 2.000000 1.309075E+02
18.000000 0.000000 7.103562E+01
18.000000 -2.000000 1.249583E+01
18.000000 -4.000000 -1.879513E+01
18.000000 -6.000000 -2.627722E+01
18.000000 -8.000000 -3.779091E+01
18.000000 -10.000000 -6.034032E+01
18.000000 -12.000000 -7.326961E+01
18.000000 -14.000000 -5.149957E+01
18.000000 -16.000000 3.112488E-01
18.000000 -18.000000 4.671770E+01
18.000000 -20.000000 6.475914E+01
18.000000 -22.000000 5.842031E+01
18.000000 -24.000000 4.574681E+01
18.000000 -26.000000 3.439987E+01
18.000000 -28.000000 2.531078E+01
18.000000 -30.000000 2.054345E+01
18.000000 -32.000000 2.696926E+01
18.000000 -34.000000 3.950642E+01
18.000000 -36.000000 5.740014E+01
18.000000 -38.000000 6.852966E+01
18.000000 -40.000000 7.384992E+01
20.000000 40.000000 -4.056120E+01
20.000000 38.000000 -2.450363E+01
20.000000 36.000000 -5.907156E+00
20.000000 34.000000 5.909288E+00
20.000000 32.000000 2.335073E+00
20.000000 30.000000 -1.341196E+01
20.000000 28.000000 -2.552157E+01
20.000000 26.000000 -2.717678E+01
20.000000 24.000000 -2.136391E+01
20.000000 22.000000 -1.369247E+01
20.000000 20.000000 -1.486358E+01
20.000000 18.000000 -1.861260E+01
20.000000 16.000000 -1.635084E+01
20.000000 14.000000 -4.969415E+00
20.000000 12.000000 1.977749E+01
20.000000 10.000000 5.448840E+01
20.000000 8.000000 1.034934E+02
20.000000 6.000000 1.487333E+02
20.000000 4.000000 1.635763E+02
20.000000 2.000000 1.375491E+02
20.000000 0.000000 8.371872E+01
20.000000 -2.000000 2.110951E+01
20.000000 -4.000000 -2.600109E+01
20.000000 -6.000000 -5.216733E+01
20.000000 -8.000000 -7.336626E+01
20.000000 -10.000000 -9.705629E+01
20.000000 -12.000000 -1.017278E+02
20.000000 -14.000000 -7.098726E+01
20.000000 -16.000000 -1.269102E+01
20.000000 -18.000000 3.880007E+01
20.000000 -20.000000 6.117809E+01
20.000000 -22.000000 5.693429E+01
20.000000 -24.000000 4.502596E+01
20.000000 -26.000000 3.729217E+01
20.000000 -28.000000 3.024039E+01
20.000000 -30.000000 2.713746E+01
20.000000 -32.000000 3.422496E+01
20.000000 -34.000000 4.718934E+01
20.000000 -36.000000 6.134051E+01
20.000000 -38.000000 6.614810E+01
20.000000 -40.000000 6.729396E+01
22.000000 40.000000 -5.615527E+01
22.000000 38.000000 -3.495546E+01
22.000000 36.000000 -7.055750E+00
22.000000 34.000000 1.700569E+01
22.000000 32.000000 2.259940E+01
22.000000 30.000000 1.029605E+01
22.000000 28.000000 -2.481150E+00
22.000000 26.000000 -5.066574E+00
22.000000 24.000000 2.287867E+00
22.000000 22.000000 8.298953E+00
22.000000 20.000000 3.775138E+00
22.000000 18.000000 -5.323312E+00
22.000000 16.000000 -5.609639E+00
22.000000 14.000000 9.487368E+00
22.000000 12.000000 3.756145E+01
22.000000 10.000000 7.544745E+01
22.000000 8.000000 1.207899E+02
22.000000 6.000000 1.583887E+02
22.000000 4.000000 1.705869E+02
22.000000 2.000000 1.465543E+02
22.000000 0.000000 9.415529E+01
22.000000 -2.000000 2.657688E+01
22.000000 -4.000000 -3.245174E+01
22.000000 -6.000000 -7.374292E+01
22.000000 -8.000000 -1.053213E+02
22.000000 -10.000000 -1.330366E+02
22.000000 -12.000000 -1.358532E+02
22.000000 -14.000000 -1.043055E+02
22.000000 -16.000000 -4.641671E+01
22.000000 -18.000000 6.993569E+00
22.000000 -20.000000 3.377198E+01
22.000000 -22.000000 3.476012E+01
22.000000 -24.000000 2.819133E+01
22.000000 -26.000000 2.462941E+01
22.000000 -28.000000 1.904848E+01
22.000000 -30.000000 1.831268E+01
22.000000 -32.000000 2.852087E+01
22.000000 -34.000000 4.309807E+01
22.000000 -36.000000 5.695087E+01
22.000000 -38.000000 6.113195E+01
22.000000 -40.000000 6.271445E+01
24.000000 40.000000 -7.578563E+01
24.000000 38.000000 -4.862428E+01
24.000000 36.000000 -1.101069E+01
24.000000 34.000000 2.504148E+01
24.000000 32.000000 3.905760E+01
24.000000 30.000000 2.836582E+01
24.000000 28.000000 1.389860E+01
24.000000 26.000000 1.195880E+01
24.000000 24.000000 2.390028E+01
24.000000 22.000000 3.037324E+01
24.000000 20.000000 2.447804E+01
24.000000 18.000000 1.196570E+01
24.000000 16.000000 9.990063E+00
24.000000 14.000000 2.827038E+01
24.000000 12.000000 5.881846E+01
24.000000 10.000000 9.887211E+01
24.000000 8.000000 1.400292E+02
24.000000 6.000000 1.706529E+02
24.000000 4.000000 1.772971E+02
24.000000 2.000000 1.525283E+02
24.000000 0.000000 1.003803E+02
24.000000 -2.000000 3.300425E+01
24.000000 -4.000000 -3.118604E+01
24.000000 -6.000000 -8.387321E+01
24.000000 -8.000000 -1.270721E+02
24.000000 -10.000000 -1.639590E+02
24.000000 -12.000000 -1.733570E+02
24.000000 -14.000000 -1.482978E+02
24.000000 -16.000000 -9.733363E+01
24.000000 -18.000000 -4.652535E+01
24.000000 -20.000000 -1.518520E+01
24.000000 -22.000000 -5.038276E+00
24.000000 -24.000000 -1.260283E+00
24.000000 -26.000000 -8.619595E-02
24.000000 -28.000000 -2.837873E+00
24.000000 -30.000000 4.123306E-02
24.000000 -32.000000 1.332532E+01
24.000000 -34.000000 2.989992E+01
24.000000 -36.000000 4.625311E+01
24.000000 -38.000000 5.392660E+01
24.000000 -40.000000 5.867650E+01
26.000000 40.000000 -9.321986E+01
26.000000 38.000000 -6.469258E+01
26.000000 36.000000 -2.389848E+01
26.000000 34.000000 1.890043E+01
26.000000 32.000000 3.996286E+01
26.000000 30.000000 3.297872E+01
26.000000 28.000000 2.176567E+01
26.000000 26.000000 2.210382E+01
26.000000 24.000000 3.759217E+01
26.000000 22.000000 4.467857E+01
26.000000 20.000000 3.856898E+01
26.000000 18.000000 2.641390E+01
26.000000 16.000000 2.568664E+01
26.000000 14.000000 4.460113E+01
26.000000 12.000000 7.448771E+01
26.000000 10.000000 1.150480E+02
26.000000 8.000000 1.516938E+02
26.000000 6.000000 1.767555E+02
26.000000 4.000000 1.799393E+02
26.000000 2.000000 1.548396E+02
26.000000 0.000000 1.032576E+02
26.000000 -2.000000 3.803759E+01
26.000000 -4.000000 -2.846910E+01
26.000000 -6.000000 -8.981305E+01
26.000000 -8.000000 -1.430316E+02
26.000000 -10.000000 -1.887099E+02
26.000000 -12.000000 -2.056877E+02
26.000000 -14.000000 -1.897245E+02
26.000000 -16.000000 -1.490339E+02
26.000000 -18.000000 -1.039409E+02
26.000000 -20.000000 -6.848891E+01
26.000000 -22.000000 -4.833743E+01
26.000000 -24.000000 -3.432987E+01
26.000000 -26.000000 -2.545737E+01
26.000000 -28.000000 -2.307858E+01
26.000000 -30.000000 -1.844203E+01
26.000000 -32.000000 -5.532789E+00
26.000000 -34.000000 1.245626E+01
26.000000 -36.000000 3.190203E+01
26.000000 -38.000000 4.325746E+01
26.000000 -40.000000 5.152954E+01
28.000000 40.000000 -1.091581E+02
28.000000 38.000000 -8.390539E+01
28.000000 36.000000 -4.395999E+01
28.000000 34.000000 1.231949E+00
28.000000 32.000000 2.628966E+01
28.000000 30.000000 2.300560E+01
28.000000 28.000000 1.659294E+01
28.000000 26.000000 2.178017E+01
28.000000 24.000000 4.167300E+01
28.000000 22.000000 4.835320E+01
28.000000 20.000000 4.038858E+01
28.000000 18.000000 2.790735E+01
28.000000 16.000000 2.887560E+01
28.000000 14.000000 4.794806E+01
28.000000 12.000000 7.737783E+01
28.000000 10.000000 1.162427E+02
28.000000 8.000000 1.481285E+02
28.000000 6.000000 1.695418E+02
28.000000 4.000000 1.724598E+02
28.000000 2.000000 1.490631E+02
28.000000 0.000000 9.935358E+01
28.000000 -2.000000 3.469861E+01
28.000000 -4.000000 -3.315633E+01
28.000000 -6.000000 -9.771557E+01
28.000000 -8.000000 -1.547364E+02
28.000000 -10.000000 -2.044683E+02
28.000000 -12.000000 -2.234392E+02
28.000000 -14.000000 -2.122855E+02
28.000000 -16.000000 -1.783071E+02
28.000000 -18.000000 -1.390430E+02
28.000000 -20.000000 -1.052133E+02
28.000000 -22.000000 -8.122476E+01
28.000000 -24.000000 -6.033706E+01
28.000000 -26.000000 -4.272654E+01
28.000000 -28.000000 -3.536426E+01
28.000000 -30.000000 -3.076047E+01
28.000000 -32.000000 -2.036139E+01
28.000000 -34.000000 -4.012304E+00
28.000000 -36.000000 1.596339E+01
28.000000 -38.000000 2.922530E+01
28.000000 -40.000000 3.991281E+01
30.000000 40.000000 -1.246624E+02
30.000000 38.000000 -1.049106E+02
30.000000 36.000000 -6.718343E+01
30.000000 34.000000 -2.245518E+01
30.000000 32.000000 3.096645E+00
30.000000 30.000000 -2.759132E-01
30.000000 28.000000 -4.917948E+00
30.000000 26.000000 7.504669E+00
30.000000 24.000000 3.520123E+01
30.000000 22.000000 4.147619E+01
30.000000 20.000000 2.893038E+01
30.000000 18.000000 1.335255E+01
30.000000 16.000000 1.594137E+01
30.000000 14.000000 3.712046E+01
30.000000 12.000000 6.924192E+01
30.000000 10.000000 1.053762E+02
30.000000 8.000000 1.280408E+02
30.000000 6.000000 1.421776E+02
30.000000 4.000000 1.433054E+02
30.000000 2.000000 1.230059E+02
30.000000 0.000000 7.803434E+01
30.000000 -2.000000 1.747585E+01
30.000000 -4.000000 -4.626200E+01
30.000000 -6.000000 -1.051143E+02
30.000000 -8.000000 -1.580749E+02
30.000000 -10.000000 -2.076191E+02
30.000000 -12.000000 -2.249143E+02
30.000000 -14.000000 -2.101130E+02
30.000000 -16.000000 -1.721329E+02
30.000000 -18.000000 -1.336513E+02
30.000000 -20.000000 -1.078618E+02
30.000000 -22.000000 -9.055488E+01
30.000000 -24.000000 -6.934260E+01
30.000000 -26.000000 -4.798830E+01
30.000000 -28.000000 -3.812412E+01
30.000000 -30.000000 -3.406716E+01
30.000000 -32.000000 -2.780212E+01
30.000000 -34.000000 -1.607909E+01
30.000000 -36.000000 1.348645E+00
30.000000 -38.000000 1.411132E+01
30.000000 -40.000000 2.409640E+01
32.000000 40.000000 -1.373897E+02
32.000000 38.000000 -1.240626E+02
32.000000 36.000000 -9.175746E+01
32.000000 34.000000 -5.038909E+01
32.000000 32.000000 -2.619529E+01
32.000000 30.000000 -3.179214E+01
32.000000 28.000000 -3.659534E+01
32.000000 26.000000 -1.905332E+01
32.000000 24.000000 1.339112E+01
32.000000 22.000000 2.079439E+01
32.000000 20.000000 5.225201E+00
32.000000 18.000000 -1.291157E+01
32.000000 16.000000 -7.840672E+00
32.000000 14.000000 1.861595E+01
32.000000 12.000000 5.396918E+01
32.000000 10.000000 8.504549E+01
32.000000 8.000000 9.300413E+01
32.000000 6.000000 9.373846E+01
32.000000 4.000000 9.053677E+01
32.000000 2.000000 7.640994E+01
32.000000 0.000000 4.291688E+01
32.000000 -2.000000 -5.577488E+00
32.000000 -4.000000 -5.638680E+01
32.000000 -6.000000 -1.039113E+02
32.000000 -8.000000 -1.511354E+02
32.000000 -10.000000 -1.993008E+02
32.000000 -12.000000 -2.141718E+02
32.000000 -14.000000 -1.896571E+02
32.000000 -16.000000 -1.364145E+02
32.000000 -18.000000 -8.943390E+01
32.000000 -20.000000 -7.123184E+01
32.000000 -22.000000 -6.888928E+01
32.000000 -24.000000 -5.766886E+01
32.000000 -26.000000 -4.051587E+01
32.000000 -28.000000 -3.206242E+01
32.000000 -30.000000 -3.097680E+01
32.000000 -32.000000 -2.980486E+01
32.000000 -34.000000 -2.248651E+01
32.000000 -36.000000 -8.671283E+00
32.000000 -38.000000 9.490099E-01
32.000000 -40.000000 5.814256E+00
34.000000 40.000000 -1.472767E+02
34.000000 38.000000 -1.408267E+02
34.000000 36.000000 -1.147977E+02
34.000000 34.000000 -7.809303E+01
34.000000 32.000000 -5.499023E+01
34.000000 30.000000 -6.182834E+01
34.000000 28.000000 -6.905121E+01
34.000000 26.000000 -5.362945E+01
34.000000 24.000000 -2.466912E+01
34.000000 22.000000 -1.565879E+01
34.000000 20.000000 -3.003192E+01
34.000000 18.000000 -4.463293E+01
34.000000 16.000000 -3.441869E+01
34.000000 14.000000 -1.198524E+00
34.000000 12.000000 3.655203E+01
34.000000 10.000000 5.838086E+01
34.000000 8.000000 5.224677E+01
34.000000 6.000000 3.708611E+01
34.000000 4.000000 2.962124E+01
34.000000 2.000000 2.463694E+01
34.000000 0.000000 5.725432E+00
34.000000 -2.000000 -2.428575E+01
34.000000 -4.000000 -5.502403E+01
34.000000 -6.000000 -8.925110E+01
34.000000 -8.000000 -1.319028E+02
34.000000 -10.000000 -1.786525E+02
34.000000 -12.000000 -1.932422E+02
34.000000 -14.000000 -1.612466E+02
34.000000 -16.000000 -8.978459E+01
34.000000 -18.000000 -2.653750E+01
34.000000 -20.000000 -1.209585E+01
34.000000 -22.000000 -2.680756E+01
34.000000 -24.000000 -2.994495E+01
34.000000 -26.000000 -2.051138E+01
34.000000 -28.000000 -1.768793E+01
34.000000 -30.000000 -2.221232E+01
34.000000 -32.000000 -2.592593E+01
34.000000 -34.000000 -2.348192E+01
34.000000 -36.000000 -1.571247E+01
34.000000 -38.000000 -1.200221E+01
34.000000 -40.000000 -1.364472E+01
36.000000 40.000000 -1.534863E+02
36.000000 38.000000 -1.541502E+02
36.000000 36.000000 -1.332141E+02
36.000000 34.000000 -1.013993E+02
36.000000 32.000000 -7.882680E+01
36.000000 30.000000 -8.554782E+01
36.000000 28.000000 -9.682421E+01
36.000000 26.000000 -8.723022E+01
36.000000 24.000000 -6.708411E+01
36.000000 22.000000 -5.905819E+01
36.000000 20.000000 -7.142582E+01
36.000000 18.000000 -7.856634E+01
36.000000 16.000000 -5.970547E+01
36.000000 14.000000 -2.020314E+01
36.000000 12.000000 2.038141E+01
36.000000 10.000000 3.688272E+01
36.000000 8.000000 2.324781E+01
36.000000 6.000000 -4.663134E-01
36.000000 4.000000 -9.996511E+00
36.000000 2.000000 -1.038847E+01
36.000000 0.000000 -2.274755E+01
36.000000 -2.000000 -4.086441E+01
36.000000 -4.000000 -5.439153E+01
36.000000 -6.000000 -6.954068E+01
36.000000 -8.000000 -9.777007E+01
36.000000 -10.000000 -1.378610E+02
36.000000 -12.000000 -1.575553E+02
36.000000 -14.000000 -1.288356E+02
36.000000 -16.000000 -5.110072E+01
36.000000 -18.000000 2.271784E+01
36.000000 -20.000000 3.744544E+01
36.000000 -22.000000 1.386446E+01
36.000000 -24.000000 1.496851E+00
36.000000 -26.000000 4.489418E+00
36.000000 -28.000000 1.282806E+00
36.000000 -30.000000 -8.286265E+00
36.000000 -32.000000 -1.560672E+01
36.000000 -34.000000 -1.948936E+01
36.000000 -36.000000 -2.224836E+01
36.000000 -38.000000 -2.660200E+01
36.000000 -40.000000 -3.255091E+01
38.000000 40.000000 -1.532527E+02
38.000000 38.000000 -1.618366E+02
38.000000 36.000000 -1.459571E+02
38.000000 34.000000 -1.175766E+02
38.000000 32.000000 -9.498173E+01
38.000000 30.000000 -1.003347E+02
38.000000 28.000000 -1.137359E+02
38.000000 26.000000 -1.088359E+02
38.000000 24.000000 -9.803429E+01
38.000000 22.000000 -9.482108E+01
38.000000 20.000000 -1.062042E+02
38.000000 18.000000 -1.058852E+02
38.000000 16.000000 -7.912657E+01
38.000000 14.000000 -3.540640E+01
38.000000 12.000000 6.906082E+00
38.000000 10.000000 2.288808E+01
38.000000 8.000000 1.104838E+01
38.000000 6.000000 -6.411066E+00
38.000000 4.000000 -9.334323E+00
38.000000 2.000000 -1.013453E+01
38.000000 0.000000 -3.297260E+01
38.000000 -2.000000 -5.819731E+01
38.000000 -4.000000 -6.386612E+01
38.000000 -6.000000 -5.559860E+01
38.000000 -8.000000 -5.572176E+01
38.000000 -10.000000 -7.781015E+01
38.000000 -12.000000 -1.053663E+02
38.000000 -14.000000 -9.001525E+01
38.000000 -16.000000 -2.701326E+01
38.000000 -18.000000 3.464741E+01
38.000000 -20.000000 4.913604E+01
38.000000 -22.000000 3.222043E+01
38.000000 -24.000000 2.134393E+01
38.000000 -26.000000 2.111048E+01
38.000000 -28.000000 1.539163E+01
38.000000 -30.000000 4.907232E+00
38.000000 -32.000000 -3.560071E+00
38.000000 -34.000000 -1.324194E+01
38.000000 -36.000000 -2.716761E+01
38.000000 -38.000000 -3.835363E+01
38.000000 -40.000000 -4.731740E+01
40.000000 40.000000 -1.480926E+02
40.000000 38.000000 -1.625666E+02
40.000000 36.000000 -1.494090E+02
40.000000 34.000000 -1.207610E+02
40.000000 32.000000 -9.672388E+01
40.000000 30.000000 -1.001268E+02
40.000000 28.000000 -1.142679E+02
40.000000 26.000000 -1.142535E+02
40.000000 24.000000 -1.115443E+02
40.000000 22.000000 -1.127730E+02
40.000000 20.000000 -1.220705E+02
40.000000 18.000000 -1.152701E+02
40.000000 16.000000 -8.353429E+01
40.000000 14.000000 -3.968339E+01
40.000000 12.000000 -1.341953E-01
40.000000 10.000000 1.408931E+01
40.000000 8.000000 7.837980E+00
