-14.000000 16.000000 -4.284991E+01
-14.000000 14.000000 -9.133833E+01
-14.000000 12.000000 -1.515226E+02
-14.000000 10.000000 -1.889858E+02
-14.000000 8.000000 -1.570819E+02
-14.000000 6.000000 -8.672919E+01
-14.000000 4.000000 -1.668427E+01
-14.000000 2.000000 2.740631E-01
-14.000000 0.000000 -1.254185E+01
-14.000000 -2.000000 -2.300464E+01
-14.000000 -4.000000 -1.976301E+01
-14.000000 -6.000000 -9.646509E+00
-14.000000 -8.000000 -2.709930E+00
-14.000000 -10.000000 -1.657236E+00
-14.000000 -12.000000 -4.880281E+00
-14.000000 -14.000000 -6.543036E+00
-14.000000 -16.000000 -5.433079E+00
-14.000000 -18.000000 -3.678108E+00
-14.000000 -20.000000 -7.951176E+00
-14.000000 -22.000000 -1.715571E+01
-14.000000 -24.000000 -2.695795E+01
-14.000000 -26.000000 -3.500061E+01
-14.000000 -28.000000 -3.903988E+01
-14.000000 -30.000000 -3.963351E+01
-14.000000 -32.000000 -3.863881E+01
-14.000000 -34.000000 -3.853970E+01
-14.000000 -36.000000 -4.351829E+01
-14.000000 -38.000000 -5.038111E+01
-14.000000 -40.000000 -6.090477E+01
-12.000000 40.000000 -2.134353E+01
-12.000000 38.000000 -3.463383E+01
-12.000000 36.000000 -4.771769E+01
-12.000000 34.000000 -6.323352E+01
-12.000000 32.000000 -6.789859E+01
-12.000000 30.000000 -5.942526E+01
-12.000000 28.000000 -4.953400E+01
-12.000000 26.000000 -5.124070E+01
-12.000000 24.000000 -6.189572E+01
-12.000000 22.000000 -5.892962E+01
-12.000000 20.000000 -4.669491E+01
-12.000000 18.000000 -3.739406E+01
-12.000000 16.000000 -5.022716E+01
-12.000000 14.000000 -9.241802E+01
-12.000000 12.000000 -1.506911E+02
-12.000000 10.000000 -1.909745E+02
-12.000000 8.000000 -1.643044E+02
-12.000000 6.000000 -9.472667E+01
-12.000000 4.000000 -2.093535E+01
-12.000000 2.000000 1.378384E+00
-12.000000 0.000000 -8.083879E+00
-12.000000 -2.000000 -1.767078E+01
-12.000000 -4.000000 -1.416266E+01
-12.000000 -6.000000 -4.625849E+00
-12.000000 -8.000000 2.310249E+00
-12.000000 -10.000000 4.702175E+00
-12.000000 -12.000000 7.700005E-01
-12.000000 -14.000000 -2.760073E+00
-12.000000 -16.000000 -3.900669E+00
-12.000000 -18.000000 -3.523830E+00
-12.000000 -20.000000 -9.103230E+00
-12.000000 -22.000000 -1.968474E+01
-12.000000 -24.000000 -2.983204E+01
-12.000000 -26.000000 -3.647186E+01
-12.000000 -28.000000 -3.790003E+01
-12.000000 -30.000000 -3.659007E+01
-12.000000 -32.000000 -3.413309E+01
-12.000000 -34.000000 -3.451531E+01
-12.000000 -36.000000 -4.203611E+01
-12.000000 -38.000000 -5.112959E+01
-12.000000 -40.000000 -6.322631E+01
-10.000000 40.000000 -2.115617E+01
-10.000000 38.000000 -3.439988E+01
-10.000000 36.000000 -4.553058E+01
-10.000000 34.000000 -5.720142E+01
-10.000000 32.000000 -5.924690E+01
-10.000000 30.000000 -5.056444E+01
-10.000000 28.000000 -4.304959E+01
-10.000000 26.000000 -4.904975E+01
-10.000000 24.000000 -6.545233E+01
-10.000000 22.000000 -6.691982E+01
-10.000000 20.000000 -5.665324E+01
-10.000000 18.000000 -4.214574E+01
-10.000000 16.000000 -4.554860E+01
-10.000000 14.000000 -7.838661E+01
-10.000000 12.000000 -1.326370E+02
-10.000000 10.000000 -1.765846E+02
-10.000000 8.000000 -1.631753E+02
-10.000000 6.000000 -1.045292E+02
-10.000000 4.000000 -3.516762E+01
-10.000000 2.000000 -8.606316E+00
-10.000000 0.000000 -1.284344E+01
-10.000000 -2.000000 -1.980221E+01
-10.000000 -4.000000 -1.518520E+01
-10.000000 -6.000000 -5.273193E+00
-10.000000 -8.000000 1.106606E+00
-10.000000 -10.000000 3.671364E+00
-10.000000 -12.000000 -1.091270E-01
-10.000000 -14.000000 -4.018257E+00
-10.000000 -16.000000 -4.944933E+00
-10.000000 -18.000000 -3.990511E+00
-10.000000 -20.000000 -9.506111E+00
-10.000000 -22.000000 -2.011633E+01
-10.000000 -24.000000 -2.899629E+01
-10.000000 -26.000000 -3.342650E+01
-10.000000 -28.000000 -3.268470E+01
-10.000000 -30.000000 -3.049802E+01
-10.000000 -32.000000 -2.867715E+01
-10.000000 -34.000000 -3.041471E+01
-10.000000 -36.000000 -3.986157E+01
-10.000000 -38.000000 -5.158495E+01
-10.000000 -40.000000 -6.640141E+01
-8.000000 40.000000 -2.296350E+01
-8.000000 38.000000 -3.526576E+01
-8.000000 36.000000 -4.356552E+01
-8.000000 34.000000 -5.002208E+01
-8.000000 32.000000 -4.802452E+01
-8.000000 30.000000 -3.896707E+01
-8.000000 28.000000 -3.439838E+01
-8.000000 26.000000 -4.296027E+01
-8.000000 24.000000 -5.979535E+01
-8.000000 22.000000 -6.227358E+01
-8.000000 20.000000 -5.164681E+01
-8.000000 18.000000 -3.570908E+01
-8.000000 16.000000 -3.533537E+01
-8.000000 14.000000 -6.165116E+01
-8.000000 12.000000 -1.124676E+02
-8.000000 10.000000 -1.598114E+02
-8.000000 8.000000 -1.580334E+02
-8.000000 6.000000 -1.107674E+02
-8.000000 4.000000 -4.861775E+01
-8.000000 2.000000 -2.235447E+01
-8.000000 0.000000 -2.466523E+01
-8.000000 -2.000000 -3.050464E+01
-8.000000 -4.000000 -2.497230E+01
-8.000000 -6.000000 -1.433906E+01
-8.000000 -8.000000 -8.364260E+00
-8.000000 -10.000000 -5.529852E+00
-8.000000 -12.000000 -7.198158E+00
-8.000000 -14.000000 -9.567226E+00
-8.000000 -16.000000 -8.197155E+00
-8.000000 -18.000000 -5.440704E+00
-8.000000 -20.000000 -8.601210E+00
-8.000000 -22.000000 -1.627417E+01
-8.000000 -24.000000 -2.279041E+01
-8.000000 -26.000000 -2.559260E+01
-8.000000 -28.000000 -2.480711E+01
-8.000000 -30.000000 -2.366977E+01
-8.000000 -32.000000 -2.481039E+01
-8.000000 -34.000000 -2.890325E+01
-8.000000 -36.000000 -3.929695E+01
-8.000000 -38.000000 -5.235001E+01
-8.000000 -40.000000 -6.843993E+01
-6.000000 40.000000 -2.509102E+01
-6.000000 38.000000 -3.660497E+01
-6.000000 36.000000 -4.211083E+01
-6.000000 34.000000 -4.343415E+01
-6.000000 32.000000 -3.785667E+01
-6.000000 30.000000 -2.756726E+01
-6.000000 28.000000 -2.368852E+01
-6.000000 26.000000 -3.273404E+01
-6.000000 24.000000 -4.699103E+01
-6.000000 22.000000 -4.864023E+01
-6.000000 20.000000 -3.735725E+01
-6.000000 18.000000 -2.333825E+01
-6.000000 16.000000 -2.414120E+01
-6.000000 14.000000 -4.806316E+01
-6.000000 12.000000 -9.839678E+01
-6.000000 10.000000 -1.482464E+02
-6.000000 8.000000 -1.515346E+02
-6.000000 6.000000 -1.106821E+02
-6.000000 4.000000 -5.462602E+01
-6.000000 2.000000 -3.352285E+01
-6.000000 0.000000 -3.898982E+01
-6.000000 -2.000000 -4.583190E+01
-6.000000 -4.000000 -4.073842E+01
-6.000000 -6.000000 -2.949314E+01
-6.000000 -8.000000 -2.133047E+01
-6.000000 -10.000000 -1.628758E+01
-6.000000 -12.000000 -1.496483E+01
-6.000000 -14.000000 -1.483207E+01
-6.000000 -16.000000 -1.091798E+01
-6.000000 -18.000000 -6.814220E+00
-6.000000 -20.000000 -7.797609E+00
-6.000000 -22.000000 -1.184256E+01
-6.000000 -24.000000 -1.617050E+01
-6.000000 -26.000000 -1.876066E+01
-6.000000 -28.000000 -1.915694E+01
-6.000000 -30.000000 -1.988935E+01
-6.000000 -32.000000 -2.375648E+01
-6.000000 -34.000000 -2.947092E+01
-6.000000 -36.000000 -3.987350E+01
-6.000000 -38.000000 -5.299576E+01
-6.000000 -40.000000 -6.843543E+01
-4.000000 40.000000 -2.654381E+01
-4.000000 38.000000 -3.752945E+01
-4.000000 36.000000 -4.096186E+01
-4.000000 34.000000 -3.830186E+01
-4.000000 32.000000 -3.097308E+01
-4.000000 30.000000 -1.892786E+01
-4.000000 28.000000 -1.306294E+01
-4.000000 26.000000 -2.107660E+01
-4.000000 24.000000 -3.196121E+01
-4.000000 22.000000 -3.364921E+01
-4.000000 20.000000 -2.385487E+01
-4.000000 18.000000 -1.304668E+01
-4.000000 16.000000 -1.593961E+01
-4.000000 14.000000 -3.927574E+01
-4.000000 12.000000 -8.910505E+01
-4.000000 10.000000 -1.388881E+02
-4.000000 8.000000 -1.422654E+02
-4.000000 6.000000 -1.029621E+02
-4.000000 4.000000 -5.168424E+01
-4.000000 2.000000 -3.830126E+01
-4.000000 0.000000 -5.046397E+01
-4.000000 -2.000000 -6.068231E+01
-4.000000 -4.000000 -5.657636E+01
-4.000000 -6.000000 -4.261137E+01
-4.000000 -8.000000 -3.003716E+01
-4.000000 -10.000000 -2.246610E+01
-4.000000 -12.000000 -1.968363E+01
-4.000000 -14.000000 -1.770029E+01
-4.000000 -16.000000 -1.278012E+01
-4.000000 -18.000000 -8.296316E+00
-4.000000 -20.000000 -8.747738E+00
-4.000000 -22.000000 -1.140387E+01
-4.000000 -24.000000 -1.478980E+01
-4.000000 -26.000000 -1.812843E+01
-4.000000 -28.000000 -1.894244E+01
-4.000000 -30.000000 -2.050939E+01
-4.000000 -32.000000 -2.438612E+01
-4.000000 -34.000000 -2.979748E+01
-4.000000 -36.000000 -3.968111E+01
-4.000000 -38.000000 -5.268261E+01
-4.000000 -40.000000 -6.720914E+01
-2.000000 40.000000 -2.918560E+01
-2.000000 38.000000 -3.869582E+01
-2.000000 36.000000 -3.931845E+01
-2.000000 34.000000 -3.377797E+01
-2.000000 32.000000 -2.503408E+01
-2.000000 30.000000 -1.235260E+01
-2.000000 28.000000 -4.381241E+00
-2.000000 26.000000 -1.074029E+01
-2.000000 24.000000 -1.898477E+01
-2.000000 22.000000 -2.213483E+01
-2.000000 20.000000 -1.599335E+01
-2.000000 18.000000 -8.209843E+00
-2.000000 16.000000 -1.124287E+01
-2.000000 14.000000 -3.354547E+01
-2.000000 12.000000 -8.169199E+01
-2.000000 10.000000 -1.297466E+02
-2.000000 8.000000 -1.318609E+02
-2.000000 6.000000 -9.281092E+01
-2.000000 4.000000 -4.531041E+01
-2.000000 2.000000 -3.705081E+01
-2.000000 0.000000 -5.443731E+01
-2.000000 -2.000000 -6.878816E+01
-2.000000 -4.000000 -6.622209E+01
-2.000000 -6.000000 -4.923078E+01
-2.000000 -8.000000 -3.438074E+01
-2.000000 -10.000000 -2.586280E+01
-2.000000 -12.000000 -2.297802E+01
-2.000000 -14.000000 -2.063473E+01
-2.000000 -16.000000 -1.614327E+01
-2.000000 -18.000000 -1.141283E+01
-2.000000 -20.000000 -1.134610E+01
-2.000000 -22.000000 -1.404084E+01
-2.000000 -24.000000 -1.723454E+01
-2.000000 -26.000000 -2.120289E+01
-2.000000 -28.000000 -2.092915E+01
-2.000000 -30.000000 -2.150232E+01
-2.000000 -32.000000 -2.362049E+01
-2.000000 -34.000000 -2.832384E+01
-2.000000 -36.000000 -3.815091E+01
-2.000000 -38.000000 -5.195622E+01
-2.000000 -40.000000 -6.749862E+01
0.000000 40.000000 -3.258275E+01
0.000000 38.000000 -4.075472E+01
0.000000 36.000000 -3.854932E+01
0.000000 34.000000 -3.055112E+01
0.000000 32.000000 -2.032902E+01
0.000000 30.000000 -8.536716E+00
0.000000 28.000000 -2.775421E-01
0.000000 26.000000 -3.733234E+00
0.000000 24.000000 -9.119350E+00
0.000000 22.000000 -1.333567E+01
0.000000 20.000000 -1.095739E+01
0.000000 18.000000 -7.377316E+00
0.000000 16.000000 -1.080238E+01
0.000000 14.000000 -3.281360E+01
0.000000 12.000000 -7.907702E+01
0.000000 10.000000 -1.248731E+02
0.000000 8.000000 -1.265232E+02
0.000000 6.000000 -8.805356E+01
0.000000 4.000000 -4.078939E+01
0.000000 2.000000 -3.183526E+01
0.000000 0.000000 -4.957465E+01
0.000000 -2.000000 -6.422775E+01
0.000000 -4.000000 -6.234232E+01
0.000000 -6.000000 -4.807277E+01
0.000000 -8.000000 -3.634059E+01
0.000000 -10.000000 -2.910756E+01
0.000000 -12.000000 -2.642685E+01
0.000000 -14.000000 -2.499595E+01
0.000000 -16.000000 -2.144066E+01
0.000000 -18.000000 -1.652138E+01
0.000000 -20.000000 -1.547421E+01
0.000000 -22.000000 -1.726412E+01
0.000000 -24.000000 -1.916636E+01
0.000000 -26.000000 -2.218744E+01
0.000000 -28.000000 -1.936136E+01
0.000000 -30.000000 -1.762905E+01
0.000000 -32.000000 -1.816312E+01
0.000000 -34.000000 -2.431022E+01
0.000000 -36.000000 -3.665830E+01
0.000000 -38.000000 -5.304192E+01
0.000000 -40.000000 -7.167244E+01
2.000000 40.000000 -3.335593E+01
2.000000 38.000000 -4.343717E+01
2.000000 36.000000 -4.047883E+01
2.000000 34.000000 -3.013007E+01
2.000000 32.000000 -2.001297E+01
2.000000 30.000000 -1.021732E+01
2.000000 28.000000 -3.225817E+00
2.000000 26.000000 -4.528704E+00
2.000000 24.000000 -7.960775E+00
2.000000 22.000000 -1.201247E+01
2.000000 20.000000 -1.122831E+01
2.000000 18.000000 -9.206024E+00
2.000000 16.000000 -1.206435E+01
2.000000 14.000000 -3.449247E+01
2.000000 12.000000 -7.932018E+01
2.000000 10.000000 -1.249262E+02
2.000000 8.000000 -1.287991E+02
2.000000 6.000000 -9.053293E+01
2.000000 4.000000 -3.844112E+01
2.000000 2.000000 -2.289520E+01
2.000000 0.000000 -3.548634E+01
2.000000 -2.000000 -4.697995E+01
2.000000 -4.000000 -4.576162E+01
2.000000 -6.000000 -3.991941E+01
2.000000 -8.000000 -3.599519E+01
2.000000 -10.000000 -3.188318E+01
2.000000 -12.000000 -2.916034E+01
2.000000 -14.000000 -2.880486E+01
2.000000 -16.000000 -2.625439E+01
2.000000 -18.000000 -2.229027E+01
2.000000 -20.000000 -2.004081E+01
2.000000 -22.000000 -1.868951E+01
2.000000 -24.000000 -1.705453E+01
2.000000 -26.000000 -1.638246E+01
2.000000 -28.000000 -1.000277E+01
2.000000 -30.000000 -5.609941E+00
2.000000 -32.000000 -6.353617E+00
2.000000 -34.000000 -1.807634E+01
2.000000 -36.000000 -3.822170E+01
2.000000 -38.000000 -5.945603E+01
2.000000 -40.000000 -8.083840E+01
4.000000 40.000000 -3.115127E+01
4.000000 38.000000 -4.438001E+01
4.000000 36.000000 -4.296234E+01
4.000000 34.000000 -3.324057E+01
4.000000 32.000000 -2.607195E+01
4.000000 30.000000 -1.951207E+01
4.000000 28.000000 -1.431914E+01
4.000000 26.000000 -1.552700E+01
4.000000 24.000000 -1.952074E+01
4.000000 22.000000 -2.300829E+01
4.000000 20.000000 -2.139637E+01
4.000000 18.000000 -1.472734E+01
4.000000 16.000000 -1.219017E+01
4.000000 14.000000 -3.064501E+01
4.000000 12.000000 -7.367841E+01
4.000000 10.000000 -1.216649E+02
4.000000 8.000000 -1.330065E+02
4.000000 6.000000 -9.948478E+01
4.000000 4.000000 -4.305505E+01
4.000000 2.000000 -1.673483E+01
4.000000 0.000000 -1.971891E+01
4.000000 -2.000000 -2.745959E+01
4.000000 -4.000000 -2.883854E+01
4.000000 -6.000000 -2.996530E+01
4.000000 -8.000000 -3.127928E+01
4.000000 -10.000000 -3.037814E+01
4.000000 -12.000000 -2.730741E+01
4.000000 -14.000000 -2.592947E+01
4.000000 -16.000000 -2.302255E+01
4.000000 -18.000000 -2.042345E+01
4.000000 -20.000000 -1.833770E+01
4.000000 -22.000000 -1.458104E+01
4.000000 -24.000000 -9.530831E+00
4.000000 -26.000000 -4.110651E+00
4.000000 -28.000000 4.794966E+00
4.000000 -30.000000 1.073263E+01
4.000000 -32.000000 7.017635E+00
4.000000 -34.000000 -1.363433E+01
4.000000 -36.000000 -4.521706E+01
4.000000 -38.000000 -7.207281E+01
4.000000 -40.000000 -9.404188E+01
6.000000 40.000000 -2.667338E+01
6.000000 38.000000 -3.983959E+01
6.000000 36.000000 -4.290333E+01
6.000000 34.000000 -4.100452E+01
6.000000 32.000000 -3.928795E+01
6.000000 30.000000 -3.604777E+01
6.000000 28.000000 -3.190646E+01
6.000000 26.000000 -3.340302E+01
6.000000 24.000000 -3.903800E+01
6.000000 22.000000 -4.183367E+01
6.000000 20.000000 -3.767566E+01
6.000000 18.000000 -2.386665E+01
6.000000 16.000000 -1.314075E+01
6.000000 14.000000 -2.349845E+01
6.000000 12.000000 -6.329948E+01
6.000000 10.000000 -1.149257E+02
6.000000 8.000000 -1.383013E+02
6.000000 6.000000 -1.156873E+02
6.000000 4.000000 -5.903746E+01
6.000000 2.000000 -1.992899E+01
6.000000 0.000000 -8.326216E+00
6.000000 -2.000000 -7.711689E+00
6.000000 -4.000000 -9.187536E+00
6.000000 -6.000000 -1.448284E+01
6.000000 -8.000000 -1.969723E+01
6.000000 -10.000000 -2.220754E+01
6.000000 -12.000000 -1.817161E+01
6.000000 -14.000000 -1.264804E+01
6.000000 -16.000000 -6.446775E+00
6.000000 -18.000000 -4.103811E+00
6.000000 -20.000000 -5.606855E+00
6.000000 -22.000000 -5.221473E+00
6.000000 -24.000000 -1.431787E+00
6.000000 -26.000000 5.626028E+00
6.000000 -28.000000 1.547490E+01
6.000000 -30.000000 2.160179E+01
6.000000 -32.000000 1.322490E+01
6.000000 -34.000000 -1.587175E+01
6.000000 -36.000000 -5.629681E+01
6.000000 -38.000000 -8.642923E+01
6.000000 -40.000000 -1.066841E+02
8.000000 40.000000 -2.122591E+01
8.000000 38.000000 -3.325460E+01
8.000000 36.000000 -4.185162E+01
8.000000 34.000000 -4.961197E+01
8.000000 32.000000 -5.217471E+01
8.000000 30.000000 -5.080003E+01
8.000000 28.000000 -4.823772E+01
8.000000 26.000000 -5.069974E+01
8.000000 24.000000 -5.905473E+01
8.000000 22.000000 -6.099934E+01
8.000000 20.000000 -5.400315E+01
8.000000 18.000000 -3.560300E+01
8.000000 16.000000 -1.947763E+01
8.000000 14.000000 -2.357681E+01
8.000000 12.000000 -6.015962E+01
8.000000 10.000000 -1.157485E+02
8.000000 8.000000 -1.504442E+02
8.000000 6.000000 -1.383960E+02
8.000000 4.000000 -8.166339E+01
8.000000 2.000000 -2.864791E+01
8.000000 0.000000 2.417141E+00
8.000000 -2.000000 1.827271E+01
8.000000 -4.000000 2.196800E+01
8.000000 -6.000000 1.250574E+01
8.000000 -8.000000 -7.572746E-02
8.000000 -10.000000 -8.592670E+00
8.000000 -12.000000 -3.969706E+00
8.000000 -14.000000 8.377683E+00
8.000000 -16.000000 2.156804E+01
8.000000 -18.000000 2.417996E+01
8.000000 -20.000000 1.426230E+01
8.000000 -22.000000 3.210834E+00
8.000000 -24.000000 -7.058907E-01
8.000000 -26.000000 4.149307E+00
8.000000 -28.000000 1.448075E+01
8.000000 -30.000000 2.008801E+01
8.000000 -32.000000 8.112844E+00
8.000000 -34.000000 -2.515401E+01
8.000000 -36.000000 -6.826464E+01
8.000000 -38.000000 -9.694857E+01
8.000000 -40.000000 -1.138289E+02
10.000000 40.000000 -1.697965E+01
10.000000 38.000000 -3.051883E+01
10.000000 36.000000 -4.277411E+01
10.000000 34.000000 -5.442398E+01
10.000000 32.000000 -5.718573E+01
10.000000 30.000000 -5.608531E+01
10.000000 28.000000 -5.555018E+01
10.000000 26.000000 -6.021371E+01
10.000000 24.000000 -7.217742E+01
10.000000 22.000000 -7.426233E+01
10.000000 20.000000 -6.563699E+01
10.000000 18.000000 -4.482667E+01
10.000000 16.000000 -2.802772E+01
10.000000 14.000000 -3.236670E+01
10.000000 12.000000 -6.913896E+01
10.000000 10.000000 -1.293339E+02
10.000000 8.000000 -1.710352E+02
10.000000 6.000000 -1.659209E+02
10.000000 4.000000 -1.072852E+02
10.000000 2.000000 -4.073407E+01
10.000000 0.000000 1.270354E+01
10.000000 -2.000000 4.981164E+01
10.000000 -4.000000 6.444676E+01
10.000000 -6.000000 4.961946E+01
10.000000 -8.000000 2.589071E+01
10.000000 -10.000000 8.102257E+00
10.000000 -12.000000 1.246968E+01
10.000000 -14.000000 3.347082E+01
10.000000 -16.000000 5.574377E+01
10.000000 -18.000000 5.708162E+01
10.000000 -20.000000 3.372475E+01
10.000000 -22.000000 4.975841E+00
10.000000 -24.000000 -1.010558E+01
10.000000 -26.000000 -8.198794E+00
10.000000 -28.000000 2.466151E+00
10.000000 -30.000000 7.536139E+00
10.000000 -32.000000 -5.196891E+00
10.000000 -34.000000 -3.729645E+01
10.000000 -36.000000 -7.729626E+01
10.000000 -38.000000 -1.014843E+02
10.000000 -40.000000 -1.150433E+02
12.000000 40.000000 -1.442728E+01
12.000000 38.000000 -3.111972E+01
12.000000 36.000000 -4.436685E+01
12.000000 34.000000 -5.464216E+01
12.000000 32.000000 -5.598114E+01
12.000000 30.000000 -5.360419E+01
12.000000 28.000000 -5.306347E+01
12.000000 26.000000 -6.002563E+01
12.000000 24.000000 -7.567928E+01
12.000000 22.000000 -7.911404E+01
12.000000 20.000000 -7.013521E+01
12.000000 18.000000 -4.795576E+01
12.000000 16.000000 -3.133864E+01
12.000000 14.000000 -3.808680E+01
12.000000 12.000000 -7.668521E+01
12.000000 10.000000 -1.402843E+02
12.000000 8.000000 -1.865889E+02
12.000000 6.000000 -1.892866E+02
12.000000 4.000000 -1.345380E+02
12.000000 2.000000 -6.193463E+01
12.000000 0.000000 8.769504E+00
12.000000 -2.000000 6.877353E+01
12.000000 -4.000000 1.005384E+02
12.000000 -6.000000 8.712759E+01
12.000000 -8.000000 5.505199E+01
12.000000 -10.000000 2.853688E+01
12.000000 -12.000000 3.199960E+01
12.000000 -14.000000 6.099465E+01
12.000000 -16.000000 9.036054E+01
12.000000 -18.000000 8.734651E+01
12.000000 -20.000000 4.790105E+01
12.000000 -22.000000 1.443136E+00
12.000000 -24.000000 -2.416356E+01
12.000000 -26.000000 -2.478676E+01
12.000000 -28.000000 -1.390853E+01
12.000000 -30.000000 -9.352437E+00
12.000000 -32.000000 -2.054870E+01
12.000000 -34.000000 -4.745619E+01
12.000000 -36.000000 -8.059182E+01
12.000000 -38.000000 -1.008806E+02
12.000000 -40.000000 -1.130878E+02
14.000000 40.000000 -1.312512E+01
14.000000 38.000000 -3.095841E+01
14.000000 36.000000 -4.320559E+01
14.000000 34.000000 -5.127234E+01
14.000000 32.000000 -5.138806E+01
14.000000 30.000000 -4.657748E+01
14.000000 28.000000 -4.425972E+01
14.000000 26.000000 -5.278653E+01
14.000000 24.000000 -7.159390E+01
14.000000 22.000000 -7.669074E+01
14.000000 20.000000 -6.755293E+01
14.000000 18.000000 -4.343846E+01
14.000000 16.000000 -2.412086E+01
14.000000 14.000000 -2.937681E+01
14.000000 12.000000 -6.778660E+01
14.000000 10.000000 -1.321299E+02
14.000000 8.000000 -1.831615E+02
14.000000 6.000000 -1.963297E+02
14.000000 4.000000 -1.578119E+02
14.000000 2.000000 -9.357792E+01
14.000000 0.000000 -1.704841E+01
14.000000 -2.000000 5.998057E+01
14.000000 -4.000000 1.118979E+02
14.000000 -6.000000 1.121282E+02
14.000000 -8.000000 7.883230E+01
14.000000 -10.000000 4.866036E+01
14.000000 -12.000000 5.305098E+01
14.000000 -14.000000 8.911640E+01
14.000000 -16.000000 1.215042E+02
14.000000 -18.000000 1.106983E+02
14.000000 -20.000000 5.612318E+01
14.000000 -22.000000 -2.711955E+00
14.000000 -24.000000 -3.476077E+01
14.000000 -26.000000 -3.753115E+01
14.000000 -28.000000 -2.851236E+01
14.000000 -30.000000 -2.524571E+01
14.000000 -32.000000 -3.420136E+01
14.000000 -34.000000 -5.436938E+01
14.000000 -36.000000 -7.935940E+01
14.000000 -38.000000 -9.624981E+01
14.000000 -40.000000 -1.080438E+02
16.000000 40.000000 -1.281407E+01
16.000000 38.000000 -2.920809E+01
16.000000 36.000000 -3.974493E+01
16.000000 34.000000 -4.610813E+01
16.000000 32.000000 -4.468490E+01
16.000000 30.000000 -3.719393E+01
16.000000 28.000000 -3.244983E+01
16.000000 26.000000 -4.053007E+01
16.000000 24.000000 -5.872786E+01
16.000000 22.000000 -6.443303E+01
16.000000 20.000000 -5.420684E+01
16.000000 18.000000 -2.695105E+01
16.000000 16.000000 -3.092846E+00
16.000000 14.000000 -3.765721E+00
16.000000 12.000000 -4.092206E+01
16.000000 10.000000 -1.054758E+02
16.000000 8.000000 -1.629970E+02
16.000000 6.000000 -1.879400E+02
16.000000 4.000000 -1.709686E+02
16.000000 2.000000 -1.256678E+02
16.000000 0.000000 -5.586533E+01
16.000000 -2.000000 2.883591E+01
16.000000 -4.000000 9.678165E+01
16.000000 -6.000000 1.129538E+02
16.000000 -8.000000 8.437453E+01
16.000000 -10.000000 5.702636E+01
16.000000 -12.000000 6.824814E+01
16.000000 -14.000000 1.128633E+02
16.000000 -16.000000 1.459181E+02
16.000000 -18.000000 1.255178E+02
16.000000 -20.000000 5.887092E+01
16.000000 -22.000000 -6.663058E+00
16.000000 -24.000000 -3.999190E+01
16.000000 -26.000000 -4.343293E+01
16.000000 -28.000000 -3.763506E+01
16.000000 -30.000000 -3.582635E+01
16.000000 -32.000000 -4.213716E+01
16.000000 -34.000000 -5.600825E+01
16.000000 -36.000000 -7.387438E+01
16.000000 -38.000000 -8.774077E+01
16.000000 -40.000000 -9.958067E+01
18.000000 40.000000 -1.360520E+01
18.000000 38.000000 -2.743206E+01
18.000000 36.000000 -3.531600E+01
18.000000 34.000000 -3.936394E+01
18.000000 32.000000 -3.659080E+01
18.000000 30.000000 -2.715981E+01
18.000000 28.000000 -1.953629E+01
18.000000 26.000000 -2.430375E+01
18.000000 24.000000 -3.787489E+01
18.000000 22.000000 -4.123419E+01
18.000000 20.000000 -2.805014E+01
18.000000 18.000000 2.548993E-02
18.000000 16.000000 2.499829E+01
18.000000 14.000000 2.637981E+01
18.000000 12.000000 -1.204954E+01
18.000000 10.000000 -7.844696E+01
18.000000 8.000000 -1.407055E+02
18.000000 6.000000 -1.736714E+02
18.000000 4.000000 -1.717773E+02
18.000000 2.000000 -1.440701E+02
18.000000 0.000000 -8.750442E+01
18.000000 -2.000000 -5.393927E+00
18.000000 -4.000000 6.691228E+01
18.000000 -6.000000 9.144730E+01
18.000000 -8.000000 7.054600E+01
18.000000 -10.000000 4.959904E+01
18.000000 -12.000000 7.327345E+01
18.000000 -14.000000 1.287504E+02
18.000000 -16.000000 1.630614E+02
18.000000 -18.000000 1.336340E+02
18.000000 -20.000000 5.721277E+01
18.000000 -22.000000 -1.242416E+01
18.000000 -24.000000 -4.385580E+01
18.000000 -26.000000 -4.510188E+01
18.000000 -28.000000 -3.852165E+01
18.000000 -30.000000 -3.557244E+01
18.000000 -32.000000 -3.900123E+01
18.000000 -34.000000 -4.865352E+01
18.000000 -36.000000 -6.326039E+01
18.000000 -38.000000 -7.695642E+01
18.000000 -40.000000 -9.027639E+01
20.000000 40.000000 -1.299867E+01
20.000000 38.000000 -2.441515E+01
20.000000 36.000000 -3.006315E+01
20.000000 34.000000 -3.194732E+01
20.000000 32.000000 -2.821421E+01
20.000000 30.000000 -1.757228E+01
20.000000 28.000000 -7.971102E+00
20.000000 26.000000 -9.214430E+00
20.000000 24.000000 -1.749377E+01
20.000000 22.000000 -1.841824E+01
20.000000 20.000000 -3.994813E+00
20.000000 18.000000 2.149228E+01
20.000000 16.000000 4.312123E+01
20.000000 14.000000 4.210543E+01
20.000000 12.000000 1.633421E+00
20.000000 10.000000 -6.504946E+01
20.000000 8.000000 -1.272232E+02
20.000000 6.000000 -1.600863E+02
20.000000 4.000000 -1.617585E+02
20.000000 2.000000 -1.423207E+02
20.000000 0.000000 -9.716182E+01
20.000000 -2.000000 -2.467752E+01
20.000000 -4.000000 4.107388E+01
20.000000 -6.000000 6.449681E+01
20.000000 -8.000000 4.940989E+01
20.000000 -10.000000 3.392831E+01
20.000000 -12.000000 7.270125E+01
20.000000 -14.000000 1.419568E+02
20.000000 -16.000000 1.795723E+02
20.000000 -18.000000 1.422670E+02
20.000000 -20.000000 5.723365E+01
20.000000 -22.000000 -1.605325E+01
20.000000 -24.000000 -4.561547E+01
20.000000 -26.000000 -4.289845E+01
20.000000 -28.000000 -3.256695E+01
20.000000 -30.000000 -2.617453E+01
20.000000 -32.000000 -2.654885E+01
20.000000 -34.000000 -3.454963E+01
20.000000 -36.000000 -5.006111E+01
20.000000 -38.000000 -6.602200E+01
20.000000 -40.000000 -8.221342E+01
22.000000 40.000000 -6.089904E+00
22.000000 38.000000 -1.765076E+01
22.000000 36.000000 -2.465742E+01
22.000000 34.000000 -2.692690E+01
22.000000 32.000000 -2.297138E+01
22.000000 30.000000 -1.178786E+01
22.000000 28.000000 -1.556015E+00
22.000000 26.000000 -2.103750E+00
22.000000 24.000000 -8.946975E+00
22.000000 22.000000 -9.443370E+00
22.000000 20.000000 3.092735E+00
22.000000 18.000000 2.506587E+01
22.000000 16.000000 4.141288E+01
22.000000 14.000000 3.560843E+01
22.000000 12.000000 -5.779199E+00
22.000000 10.000000 -6.942784E+01
22.000000 8.000000 -1.268799E+02
22.000000 6.000000 -1.531672E+02
22.000000 4.000000 -1.495670E+02
22.000000 2.000000 -1.286509E+02
22.000000 0.000000 -8.725380E+01
22.000000 -2.000000 -2.269514E+01
22.000000 -4.000000 3.625778E+01
22.000000 -6.000000 5.627833E+01
22.000000 -8.000000 4.418094E+01
22.000000 -10.000000 3.017527E+01
22.000000 -12.000000 8.040799E+01
22.000000 -14.000000 1.624823E+02
22.000000 -16.000000 2.014834E+02
22.000000 -18.000000 1.551353E+02
22.000000 -20.000000 6.120526E+01
22.000000 -22.000000 -1.528040E+01
22.000000 -24.000000 -4.310897E+01
22.000000 -26.000000 -3.643998E+01
22.000000 -28.000000 -2.343987E+01
22.000000 -30.000000 -1.362640E+01
22.000000 -32.000000 -1.142317E+01
22.000000 -34.000000 -1.939669E+01
22.000000 -36.000000 -3.728506E+01
22.000000 -38.000000 -5.610183E+01
22.000000 -40.000000 -7.611080E+01
24.000000 40.000000 4.604750E+00
24.000000 38.000000 -8.353395E+00
24.000000 36.000000 -1.811552E+01
24.000000 34.000000 -2.402911E+01
24.000000 32.000000 -2.244055E+01
24.000000 30.000000 -1.216878E+01
24.000000 28.000000 -1.071896E+00
24.000000 26.000000 -6.707315E-01
24.000000 24.000000 -8.462571E+00
24.000000 22.000000 -1.014775E+01
24.000000 20.000000 -1.111656E+00
24.000000 18.000000 1.632649E+01
24.000000 16.000000 2.642379E+01
24.000000 14.000000 1.440587E+01
24.000000 12.000000 -3.013919E+01
24.000000 10.000000 -9.405610E+01
24.000000 8.000000 -1.457397E+02
24.000000 6.000000 -1.661503E+02
24.000000 4.000000 -1.532493E+02
24.000000 2.000000 -1.238793E+02
24.000000 0.000000 -7.648947E+01
24.000000 -2.000000 -9.197416E+00
24.000000 -4.000000 5.522709E+01
24.000000 -6.000000 8.134871E+01
24.000000 -8.000000 7.519048E+01
24.000000 -10.000000 6.861815E+01
24.000000 -12.000000 1.209121E+02
24.000000 -14.000000 1.995409E+02
24.000000 -16.000000 2.277939E+02
24.000000 -18.000000 1.687603E+02
24.000000 -20.000000 6.498494E+01
24.000000 -22.000000 -1.468524E+01
24.000000 -24.000000 -4.058946E+01
24.000000 -26.000000 -3.040836E+01
24.000000 -28.000000 -1.458582E+01
24.000000 -30.000000 -1.817526E+00
24.000000 -32.000000 1.332935E+00
24.000000 -34.000000 -7.718166E+00
24.000000 -36.000000 -2.807656E+01
24.000000 -38.000000 -4.969964E+01
24.000000 -40.000000 -7.251136E+01
26.000000 40.000000 1.310463E+01
26.000000 38.000000 -7.099762E-01
26.000000 36.000000 -1.193860E+01
26.000000 34.000000 -2.295347E+01
26.000000 32.000000 -2.580614E+01
26.000000 30.000000 -1.659868E+01
26.000000 28.000000 -2.432899E+00
26.000000 26.000000 3.084566E+00
26.000000 24.000000 -4.118742E+00
26.000000 22.000000 -9.747250E+00
26.000000 20.000000 -6.223005E+00
26.000000 18.000000 5.565600E+00
26.000000 16.000000 1.041975E+01
26.000000 14.000000 -6.958847E+00
26.000000 12.000000 -5.589752E+01
26.000000 10.000000 -1.249029E+02
26.000000 8.000000 -1.730551E+02
26.000000 6.000000 -1.894091E+02
26.000000 4.000000 -1.676161E+02
26.000000 2.000000 -1.305542E+02
26.000000 0.000000 -7.579955E+01
26.000000 -2.000000 6.179962E-01
26.000000 -4.000000 7.835827E+01
26.000000 -6.000000 1.206261E+02
26.000000 -8.000000 1.306190E+02
26.000000 -10.000000 1.455406E+02
26.000000 -12.000000 1.930409E+02
26.000000 -14.000000 2.479432E+02
26.000000 -16.000000 2.504862E+02
26.000000 -18.000000 1.754967E+02
26.000000 -20.000000 6.429908E+01
26.000000 -22.000000 -1.773608E+01
26.000000 -24.000000 -4.184139E+01
26.000000 -26.000000 -2.759288E+01
26.000000 -28.000000 -8.394878E+00
26.000000 -30.000000 6.180107E+00
26.000000 -32.000000 8.141675E+00
26.000000 -34.000000 -2.845638E+00
26.000000 -36.000000 -2.494827E+01
26.000000 -38.000000 -4.749557E+01
26.000000 -40.000000 -7.011952E+01
28.000000 40.000000 1.918302E+01
28.000000 38.000000 4.114084E+00
28.000000 36.000000 -8.800587E+00
28.000000 34.000000 -2.387283E+01
28.000000 32.000000 -2.969605E+01
28.000000 30.000000 -1.932878E+01
28.000000 28.000000 -6.098061E-01
28.000000 26.000000 1.055373E+01
28.000000 24.000000 4.540619E+00
28.000000 22.000000 -8.201567E+00
28.000000 20.000000 -1.514546E+01
28.000000 18.000000 -1.007940E+01
28.000000 16.000000 -4.330236E+00
28.000000 14.000000 -1.857651E+01
28.000000 12.000000 -6.567387E+01
28.000000 10.000000 -1.335708E+02
28.000000 8.000000 -1.778429E+02
28.000000 6.000000 -1.886997E+02
28.000000 4.000000 -1.639359E+02
28.000000 2.000000 -1.297107E+02
28.000000 0.000000 -7.801514E+01
28.000000 -2.000000 1.719379E+00
28.000000 -4.000000 8.910476E+01
28.000000 -6.000000 1.491171E+02
28.000000 -8.000000 1.798760E+02
28.000000 -10.000000 2.146498E+02
28.000000 -12.000000 2.537492E+02
28.000000 -14.000000 2.820962E+02
28.000000 -16.000000 2.573552E+02
28.000000 -18.000000 1.691880E+02
28.000000 -20.000000 5.646693E+01
28.000000 -22.000000 -2.432117E+01
28.000000 -24.000000 -4.528234E+01
28.000000 -26.000000 -2.702093E+01
28.000000 -28.000000 -5.437708E+00
28.000000 -30.000000 8.894430E+00
28.000000 -32.000000 9.016079E+00
28.000000 -34.000000 -3.049110E+00
28.000000 -36.000000 -2.529092E+01
28.000000 -38.000000 -4.601925E+01
28.000000 -40.000000 -6.652817E+01
30.000000 40.000000 2.266543E+01
30.000000 38.000000 7.864711E+00
30.000000 36.000000 -5.975790E+00
30.000000 34.000000 -2.403621E+01
30.000000 32.000000 -3.155252E+01
30.000000 30.000000 -1.929248E+01
30.000000 28.000000 3.770466E+00
30.000000 26.000000 1.766847E+01
30.000000 24.000000 1.275291E+01
30.000000 22.000000 -5.050646E+00
30.000000 20.000000 -2.322519E+01
30.000000 18.000000 -2.504733E+01
30.000000 16.000000 -1.426060E+01
30.000000 14.000000 -1.761282E+01
30.000000 12.000000 -5.415978E+01
30.000000 10.000000 -1.119589E+02
30.000000 8.000000 -1.519831E+02
30.000000 6.000000 -1.573553E+02
30.000000 4.000000 -1.357025E+02
30.000000 2.000000 -1.139733E+02
30.000000 0.000000 -7.819130E+01
30.000000 -2.000000 -8.204536E+00
30.000000 -4.000000 7.986256E+01
30.000000 -6.000000 1.536385E+02
30.000000 -8.000000 2.025772E+02
30.000000 -10.000000 2.496247E+02
30.000000 -12.000000 2.799173E+02
30.000000 -14.000000 2.863936E+02
30.000000 -16.000000 2.430195E+02
30.000000 -18.000000 1.511646E+02
30.000000 -20.000000 4.450564E+01
30.000000 -22.000000 -2.977270E+01
30.000000 -24.000000 -4.681195E+01
30.000000 -26.000000 -2.720068E+01
30.000000 -28.000000 -5.164284E+00
30.000000 -30.000000 7.784447E+00
30.000000 -32.000000 6.988176E+00
30.000000 -34.000000 -4.148396E+00
30.000000 -36.000000 -2.521712E+01
30.000000 -38.000000 -4.397926E+01
30.000000 -40.000000 -6.266782E+01
32.000000 40.000000 2.325922E+01
32.000000 38.000000 1.100554E+01
32.000000 36.000000 -2.720959E+00
32.000000 34.000000 -2.364103E+01
32.000000 32.000000 -3.352579E+01
32.000000 30.000000 -2.070869E+01
32.000000 28.000000 7.266041E+00
32.000000 26.000000 2.635224E+01
32.000000 24.000000 2.640329E+01
32.000000 22.000000 8.312988E+00
32.000000 20.000000 -1.509148E+01
32.000000 18.000000 -2.148112E+01
32.000000 16.000000 -9.600639E+00
32.000000 14.000000 -8.202576E+00
32.000000 12.000000 -3.670315E+01
32.000000 10.000000 -8.587177E+01
32.000000 8.000000 -1.200682E+02
32.000000 6.000000 -1.183431E+02
32.000000 4.000000 -9.732954E+01
32.000000 2.000000 -8.926283E+01
32.000000 0.000000 -7.487823E+01
32.000000 -2.000000 -2.412824E+01
32.000000 -4.000000 5.505088E+01
32.000000 -6.000000 1.345226E+02
32.000000 -8.000000 1.949355E+02
32.000000 -10.000000 2.476397E+02
32.000000 -12.000000 2.728303E+02
32.000000 -14.000000 2.670635E+02
32.000000 -16.000000 2.166045E+02
32.000000 -18.000000 1.301124E+02
32.000000 -20.000000 3.660836E+01
32.000000 -22.000000 -2.552628E+01
32.000000 -24.000000 -4.036348E+01
32.000000 -26.000000 -2.498326E+01
32.000000 -28.000000 -7.257435E+00
32.000000 -30.000000 3.725445E+00
32.000000 -32.000000 3.689030E+00
32.000000 -34.000000 -4.679466E+00
32.000000 -36.000000 -2.373264E+01
32.000000 -38.000000 -4.245778E+01
32.000000 -40.000000 -6.094855E+01
34.000000 40.000000 2.252437E+01
34.000000 38.000000 1.196552E+01
34.000000 36.000000 -2.391663E+00
34.000000 34.000000 -2.474834E+01
34.000000 32.000000 -3.545723E+01
34.000000 30.000000 -2.223072E+01
34.000000 28.000000 1.030079E+01
34.000000 26.000000 3.692690E+01
34.000000 24.000000 4.708533E+01
34.000000 22.000000 3.537687E+01
34.000000 20.000000 1.578349E+01
34.000000 18.000000 8.296322E+00
34.000000 16.000000 1.256114E+01
34.000000 14.000000 3.925430E+00
34.000000 12.000000 -2.990929E+01
34.000000 10.000000 -7.978883E+01
34.000000 8.000000 -1.053557E+02
34.000000 6.000000 -9.251344E+01
34.000000 4.000000 -6.411609E+01
34.000000 2.000000 -6.194920E+01
34.000000 0.000000 -6.408722E+01
34.000000 -2.000000 -3.465473E+01
34.000000 -4.000000 2.755209E+01
34.000000 -6.000000 1.014537E+02
34.000000 -8.000000 1.650111E+02
34.000000 -10.000000 2.195307E+02
34.000000 -12.000000 2.444160E+02
34.000000 -14.000000 2.367553E+02
34.000000 -16.000000 1.897014E+02
34.000000 -18.000000 1.151670E+02
34.000000 -20.000000 3.755477E+01
34.000000 -22.000000 -1.285251E+01
34.000000 -24.000000 -2.833509E+01
34.000000 -26.000000 -2.163440E+01
34.000000 -28.000000 -1.244828E+01
34.000000 -30.000000 -4.398273E+00
34.000000 -32.000000 -1.956356E+00
34.000000 -34.000000 -5.769022E+00
34.000000 -36.000000 -2.191582E+01
34.000000 -38.000000 -4.060214E+01
34.000000 -40.000000 -5.909941E+01
36.000000 40.000000 2.102928E+01
36.000000 38.000000 9.975021E+00
36.000000 36.000000 -4.945591E+00
36.000000 34.000000 -2.636077E+01
36.000000 32.000000 -3.516059E+01
36.000000 30.000000 -2.100098E+01
36.000000 28.000000 1.303643E+01
36.000000 26.000000 4.359734E+01
36.000000 24.000000 6.386959E+01
36.000000 22.000000 6.429347E+01
36.000000 20.000000 5.626258E+01
36.000000 18.000000 5.067913E+01
36.000000 16.000000 4.524885E+01
36.000000 14.000000 2.286669E+01
36.000000 12.000000 -2.286773E+01
36.000000 10.000000 -7.906076E+01
36.000000 8.000000 -1.007954E+02
36.000000 6.000000 -8.086230E+01
36.000000 4.000000 -4.406576E+01
36.000000 2.000000 -4.006571E+01
36.000000 0.000000 -4.997882E+01
36.000000 -2.000000 -3.688398E+01
36.000000 -4.000000 6.395794E+00
36.000000 -6.000000 6.676167E+01
36.000000 -8.000000 1.250673E+02
36.000000 -10.000000 1.768902E+02
36.000000 -12.000000 2.036305E+02
36.000000 -14.000000 2.005319E+02
36.000000 -16.000000 1.640236E+02
36.000000 -18.000000 1.055255E+02
36.000000 -20.000000 4.435621E+01
36.000000 -22.000000 2.126266E+00
36.000000 -24.000000 -1.648180E+01
36.000000 -26.000000 -2.013850E+01
36.000000 -28.000000 -1.947180E+01
36.000000 -30.000000 -1.474657E+01
36.000000 -32.000000 -9.438663E+00
36.000000 -34.000000 -7.970314E+00
36.000000 -36.000000 -2.051044E+01
36.000000 -38.000000 -3.731457E+01
36.000000 -40.000000 -5.426455E+01
38.000000 40.000000 2.055450E+01
38.000000 38.000000 7.177094E+00
38.000000 36.000000 -8.190260E+00
38.000000 34.000000 -2.748604E+01
38.000000 32.000000 -3.291972E+01
38.000000 30.000000 -1.878543E+01
38.000000 28.000000 1.194511E+01
38.000000 26.000000 4.043836E+01
38.000000 24.000000 6.596711E+01
38.000000 22.000000 7.950230E+01
38.000000 20.000000 8.568873E+01
38.000000 18.000000 8.653714E+01
38.000000 16.000000 7.793959E+01
38.000000 14.000000 4.968783E+01
38.000000 12.000000 -2.670959E+00
38.000000 10.000000 -6.240108E+01
38.000000 8.000000 -8.650568E+01
38.000000 6.000000 -6.879706E+01
38.000000 4.000000 -3.099035E+01
38.000000 2.000000 -2.327001E+01
38.000000 0.000000 -3.476313E+01
38.000000 -2.000000 -3.125957E+01
38.000000 -4.000000 -4.629848E+00
38.000000 -6.000000 3.805994E+01
38.000000 -8.000000 8.434248E+01
38.000000 -10.000000 1.272735E+02
38.000000 -12.000000 1.550389E+02
38.000000 -14.000000 1.591994E+02
38.000000 -16.000000 1.356705E+02
38.000000 -18.000000 9.342972E+01
38.000000 -20.000000 4.871536E+01
38.000000 -22.000000 1.480579E+01
38.000000 -24.000000 -6.216835E+00
38.000000 -26.000000 -1.829586E+01
38.000000 -28.000000 -2.439342E+01
38.000000 -30.000000 -2.320848E+01
38.000000 -32.000000 -1.565683E+01
38.000000 -34.000000 -9.075855E+00
38.000000 -36.000000 -1.771809E+01
38.000000 -38.000000 -3.234726E+01
38.000000 -40.000000 -4.755644E+01
40.000000 40.000000 2.286877E+01
40.000000 38.000000 5.582029E+00
40.000000 36.000000 -1.131679E+01
40.000000 34.000000 -2.827230E+01
40.000000 32.000000 -2.900308E+01
40.000000 30.000000 -1.628399E+01
40.000000 28.000000 6.844070E+00
40.000000 26.000000 2.796462E+01
40.000000 24.000000 5.209643E+01
40.000000 22.000000 7.592656E+01
40.000000 20.000000 9.557532E+01
40.000000 18.000000 1.062737E+02
40.000000 16.000000 1.014184E+02
40.000000 14.000000 7.543858E+01
40.000000 12.000000 2.330110E+01
40.000000 10.000000 -3.686539E+01
40.000000 8.000000 -6.417100E+01
40.000000 6.000000 -5.012190E+01
40.000000 4.000000 -1.345661E+01
40.000000 2.000000 -2.532307E+00
40.000000 0.000000 -1.285861E+01
40.000000 -2.000000 -1.567601E+01
40.000000 -4.000000 -1.791630E+00
40.000000 -6.000000 2.258807E+01
40.000000 -8.000000 5.090531E+01
40.000000 -10.000000 7.939003E+01
40.000000 -12.000000 1.064900E+02
40.000000 -14.000000 1.171013E+02
40.000000 -16.000000 1.057767E+02
40.000000 -18.000000 7.895549E+01
40.000000 -20.000000 4.909232E+01
40.000000 -22.000000 2.349790E+01
40.000000 -24.000000 1.291187E+00
40.000000 -26.000000 -1.606759E+01
40.000000 -28.000000 -2.655716E+01
40.000000 -30.000000 -2.791645E+01
40.000000 -32.000000 -1.820455E+01
40.000000 -34.000000 -7.154089E+00
40.000000 -36.000000 -1.224351E+01
40.000000 -38.000000 -2.597635E+01
40.000000 -40.000000 -4.049862E+01
42.000000 40.000000 2.661324E+01
42.000000 38.000000 6.594435E+00
42.000000 36.000000 -1.226159E+01
42.000000 34.000000 -2.698692E+01
42.000000 32.000000 -2.257830E+01
42.000000 30.000000 -1.159604E+01
42.000000 28.000000 2.288490E+00
42.000000 26.000000 1.284276E+01
42.000000 24.000000 2.792742E+01
42.000000 22.000000 5.532871E+01
42.000000 20.000000 8.382153E+01
42.000000 18.000000 1.039180E+02
42.000000 16.000000 1.082585E+02
42.000000 14.000000 9.233612E+01
42.000000 12.000000 4.670054E+01
42.000000 10.000000 -1.053485E+01
42.000000 8.000000 -3.848750E+01
42.000000 6.000000 -2.520990E+01
42.000000 4.000000 1.021934E+01
42.000000 2.000000 2.230278E+01
42.000000 0.000000 1.298873E+01
42.000000 -2.000000 5.372673E+00
42.000000 -4.000000 9.951145E+00
42.000000 -6.000000 1.939516E+01
42.000000 -8.000000 2.978984E+01
42.000000 -10.000000 4.216278E+01
42.000000 -12.000000 6.873190E+01
42.000000 -14.000000 8.456697E+01
42.000000 -16.000000 8.438097E+01
42.000000 -18.000000 7.077723E+01
42.000000 -20.000000 5.094219E+01
42.000000 -22.000000 3.055773E+01
42.000000 -24.000000 6.038773E+00
42.000000 -26.000000 -1.624593E+01
42.000000 -28.000000 -2.880285E+01
42.000000 -30.000000 -2.971775E+01
42.000000 -32.000000 -1.745310E+01
42.000000 -34.000000 -3.212921E+00
42.000000 -36.000000 -5.368229E+00
42.000000 -38.000000 -1.865829E+01
42.000000 -40.000000 -3.329943E+01
44.000000 40.000000 3.003881E+01
44.000000 38.000000 1.082089E+01
44.000000 36.000000 -1.143735E+01
44.000000 34.000000 -2.321415E+01
44.000000 32.000000 -1.044085E+01
44.000000 30.000000 -1.285553E-01
44.000000 28.000000 3.855227E+00
44.000000 26.000000 1.530090E+00
44.000000 24.000000 2.554348E+00
44.000000 22.000000 2.556398E+01
44.000000 20.000000 5.515743E+01
44.000000 18.000000 8.189233E+01
44.000000 16.000000 9.767445E+01
44.000000 14.000000 9.464186E+01
44.000000 12.000000 6.013391E+01
44.000000 10.000000 1.095579E+01
44.000000 8.000000 -1.439336E+01
44.000000 6.000000 5.548325E-01
44.000000 4.000000 3.503227E+01
44.000000 2.000000 4.543965E+01
44.000000 0.000000 3.490220E+01
44.000000 -2.000000 2.330454E+01
44.000000 -4.000000 2.095279E+01
44.000000 -6.000000 2.116327E+01
44.000000 -8.000000 2.177031E+01
44.000000 -10.000000 2.547815E+01
44.000000 -12.000000 4.954422E+01
44.000000 -14.000000 7.044385E+01
44.000000 -16.000000 7.896248E+01
44.000000 -18.000000 7.145994E+01
44.000000 -20.000000 5.498780E+01
44.000000 -22.000000 3.646343E+01
44.000000 -24.000000 8.788124E+00
44.000000 -26.000000 -1.747447E+01
44.000000 -28.000000 -3.002561E+01
44.000000 -30.000000 -2.846906E+01
44.000000 -32.000000 -1.372211E+01
44.000000 -34.000000 2.042789E+00
44.000000 -36.000000 1.925535E+00
44.000000 -38.000000 -1.108906E+01
44.000000 -40.000000 -2.685182E+01
46.000000 40.000000 3.219821E+01
46.000000 38.000000 1.676895E+01
46.000000 36.000000 -1.092641E+01
46.000000 34.000000 -1.790815E+01
46.000000 32.000000 9.448206E+00
46.000000 30.000000 1.898535E+01
46.000000 28.000000 1.359466E+01
46.000000 26.000000 -3.867111E-01
46.000000 24.000000 -1.318415E+01
46.000000 22.000000 -6.581078E-01
46.000000 20.000000 2.337661E+01
46.000000 18.000000 5.181267E+01
46.000000 16.000000 7.484391E+01
46.000000 14.000000 8.041629E+01
46.000000 12.000000 5.598064E+01
46.000000 10.000000 1.674985E+01
46.000000 8.000000 -2.379337E+00
46.000000 6.000000 1.552994E+01
46.000000 4.000000 5.027277E+01
46.000000 2.000000 5.901948E+01
46.000000 0.000000 4.729496E+01
46.000000 -2.000000 3.316197E+01
46.000000 -4.000000 2.750639E+01
46.000000 -6.000000 2.537054E+01
46.000000 -8.000000 2.458974E+01
46.000000 -10.000000 2.816570E+01
46.000000 -12.000000 4.931812E+01
46.000000 -14.000000 7.477725E+01
46.000000 -16.000000 8.820021E+01
46.000000 -18.000000 7.869510E+01
46.000000 -20.000000 5.966336E+01
46.000000 -22.000000 4.128980E+01
46.000000 -24.000000 1.250188E+01
46.000000 -26.000000 -1.397561E+01
46.000000 -28.000000 -2.455894E+01
46.000000 -30.000000 -2.165261E+01
46.000000 -32.000000 -7.162643E+00
46.000000 -34.000000 7.778612E+00
46.000000 -36.000000 7.937389E+00
46.000000 -38.000000 -5.191500E+00
46.000000 -40.000000 -2.268367E+01
48.000000 40.000000 3.336924E+01
48.000000 38.000000 2.152180E+01
48.000000 36.000000 -4.768656E+00
48.000000 34.000000 -6.062355E+00
48.000000 32.000000 2.702630E+01
48.000000 30.000000 3.409572E+01
48.000000 28.000000 2.459975E+01
48.000000 26.000000 6.519217E+00
48.000000 24.000000 -1.447647E+01
48.000000 22.000000 -1.363052E+01
48.000000 20.000000 9.143524E-01
48.000000 18.000000 2.471524E+01
48.000000 16.000000 4.946101E+01
48.000000 14.000000 5.979089E+01
48.000000 12.000000 4.155526E+01
48.000000 10.000000 6.522568E+00
48.000000 8.000000 -8.550373E+00
48.000000 6.000000 1.122858E+01
48.000000 4.000000 4.694858E+01
48.000000 2.000000 5.627304E+01
48.000000 0.000000 4.609017E+01
48.000000 -2.000000 3.358931E+01
48.000000 -4.000000 2.842992E+01
48.000000 -6.000000 2.834889E+01
48.000000 -8.000000 3.113552E+01
48.000000 -10.000000 3.873134E+01
48.000000 -12.000000 6.055838E+01
48.000000 -14.000000 8.933634E+01
48.000000 -16.000000 1.052908E+02
48.000000 -18.000000 9.417141E+01
48.000000 -20.000000 7.058574E+01
48.000000 -22.000000 4.888305E+01
48.000000 -24.000000 2.047689E+01
48.000000 -26.000000 -3.883293E+00
48.000000 -28.000000 -1.252448E+01
48.000000 -30.000000 -9.894321E+00
48.000000 -32.000000 1.577703E+00
48.000000 -34.000000 1.298208E+01
48.000000 -36.000000 1.070714E+01
48.000000 -38.000000 -3.140692E+00
48.000000 -40.000000 -2.180258E+01
50.000000 40.000000 3.488483E+01
50.000000 38.000000 2.392383E+01
50.000000 36.000000 9.812057E+00
50.000000 34.000000 1.162497E+01
50.000000 32.000000 3.173397E+01
50.000000 30.000000 3.556717E+01
50.000000 28.000000 2.945013E+01
50.000000 26.000000 1.607289E+01
50.000000 24.000000 -5.718678E+00
50.000000 22.000000 -1.440782E+01
50.000000 20.000000 -9.863150E+00
50.000000 18.000000 7.143320E+00
50.000000 16.000000 3.151367E+01
50.000000 14.000000 4.420881E+01
50.000000 12.000000 2.986383E+01
50.000000 10.000000 -4.254684E+00
50.000000 8.000000 -2.141490E+01
50.000000 6.000000 -4.433796E+00
50.000000 4.000000 3.053853E+01
50.000000 2.000000 4.097664E+01
50.000000 0.000000 3.319046E+01
50.000000 -2.000000 2.532132E+01
50.000000 -4.000000 2.319330E+01
50.000000 -6.000000 2.717659E+01
50.000000 -8.000000 3.590748E+01
50.000000 -10.000000 4.850144E+01
50.000000 -12.000000 7.026472E+01
50.000000 -14.000000 9.743380E+01
50.000000 -16.000000 1.138853E+02
50.000000 -18.000000 1.071211E+02
50.000000 -20.000000 8.442580E+01
50.000000 -22.000000 6.002522E+01
50.000000 -24.000000 3.335233E+01
50.000000 -26.000000 1.214632E+01
50.000000 -28.000000 3.356678E+00
50.000000 -30.000000 4.503040E+00
50.000000 -32.000000 1.171622E+01
50.000000 -34.000000 1.791068E+01
50.000000 -36.000000 1.114889E+01
50.000000 -38.000000 -4.816895E+00
50.000000 -40.000000 -2.461686E+01
52.000000 40.000000 3.897779E+01
52.000000 38.000000 2.824636E+01
52.000000 36.000000 2.292706E+01
52.000000 34.000000 2.160714E+01
52.000000 32.000000 2.675215E+01
52.000000 30.000000 2.827433E+01
52.000000 28.000000 2.971845E+01
52.000000 26.000000 2.499053E+01
52.000000 24.000000 7.792593E+00
52.000000 22.000000 -6.069309E+00
52.000000 20.000000 -8.641829E+00
52.000000 18.000000 2.202602E+00
52.000000 16.000000 2.263472E+01
52.000000 14.000000 3.281430E+01
52.000000 12.000000 1.999597E+01
52.000000 10.000000 -1.297909E+01
52.000000 8.000000 -3.363607E+01
52.000000 6.000000 -1.976960E+01
52.000000 4.000000 1.597742E+01
52.000000 2.000000 2.862399E+01
52.000000 0.000000 2.347783E+01
52.000000 -2.000000 2.077524E+01
52.000000 -4.000000 2.272113E+01
52.000000 -6.000000 2.912945E+01
52.000000 -8.000000 4.077044E+01
52.000000 -10.000000 5.459469E+01
52.000000 -12.000000 6.954687E+01
52.000000 -14.000000 8.758577E+01
52.000000 -16.000000 1.009831E+02
52.000000 -18.000000 9.989938E+01
52.000000 -20.000000 8.426109E+01
52.000000 -22.000000 6.431954E+01
52.000000 -24.000000 4.359956E+01
52.000000 -26.000000 2.702769E+01
52.000000 -28.000000 1.803478E+01
52.000000 -30.000000 1.751529E+01
52.000000 -32.000000 2.089389E+01
52.000000 -34.000000 2.219421E+01
52.000000 -36.000000 1.123725E+01
52.000000 -38.000000 -7.501110E+00
52.000000 -40.000000 -2.863076E+01
54.000000 40.000000 4.538837E+01
54.000000 38.000000 3.505119E+01
54.000000 36.000000 2.954016E+01
54.000000 34.000000 2.077292E+01
54.000000 32.000000 1.650384E+01
54.000000 30.000000 1.801047E+01
54.000000 28.000000 2.745633E+01
54.000000 26.000000 3.172440E+01
54.000000 24.000000 2.224196E+01
54.000000 22.000000 8.049791E+00
54.000000 20.000000 1.230558E+00
54.000000 18.000000 4.589348E+00
54.000000 16.000000 1.743782E+01
54.000000 14.000000 2.259501E+01
54.000000 12.000000 8.799648E+00
54.000000 10.000000 -2.132695E+01
54.000000 8.000000 -3.615965E+01
54.000000 6.000000 -1.793258E+01
54.000000 4.000000 1.862805E+01
54.000000 2.000000 2.997639E+01
54.000000 0.000000 2.425572E+01
54.000000 -2.000000 2.222744E+01
54.000000 -4.000000 2.656910E+01
54.000000 -6.000000 3.459901E+01
54.000000 -8.000000 4.458455E+01
54.000000 -10.000000 5.276753E+01
54.000000 -12.000000 5.623473E+01
54.000000 -14.000000 6.153997E+01
54.000000 -16.000000 6.925285E+01
54.000000 -18.000000 7.261005E+01
54.000000 -20.000000 6.608875E+01
54.000000 -22.000000 5.489444E+01
54.000000 -24.000000 4.321641E+01
54.000000 -26.000000 3.271265E+01
54.000000 -28.000000 2.649693E+01
