-10.000000 14.000000 3.512513E+01
-10.000000 12.000000 1.067155E+02
-10.000000 10.000000 1.598207E+02
-10.000000 8.000000 1.431122E+02
-10.000000 6.000000 8.615592E+01
-10.000000 4.000000 2.543520E+01
-10.000000 2.000000 -3.569365E+00
-10.000000 0.000000 -1.813624E+01
-10.000000 -2.000000 -2.919469E+01
-10.000000 -4.000000 -2.393239E+01
-10.000000 -6.000000 -1.300497E-01
-10.000000 -8.000000 8.135156E+00
-10.000000 -10.000000 -4.113897E+00
-10.000000 -12.000000 -2.147889E+01
-10.000000 -14.000000 -2.523804E+01
-10.000000 -16.000000 -2.692708E+01
-10.000000 -18.000000 -2.571967E+01
-10.000000 -20.000000 -2.278930E+01
-10.000000 -22.000000 -8.172146E+00
-10.000000 -24.000000 1.601852E+01
-10.000000 -26.000000 2.901190E+01
-10.000000 -28.000000 2.834008E+01
-10.000000 -30.000000 2.721009E+01
-10.000000 -32.000000 3.194772E+01
-10.000000 -34.000000 3.758961E+01
-10.000000 -36.000000 4.465938E+01
-10.000000 -38.000000 5.232266E+01
-10.000000 -40.000000 4.958879E+01
-8.000000 40.000000 1.598971E+01
-8.000000 38.000000 2.194303E+01
-8.000000 36.000000 3.329751E+01
-8.000000 34.000000 4.436706E+01
-8.000000 32.000000 5.157865E+01
-8.000000 30.000000 4.995599E+01
-8.000000 28.000000 3.134822E+01
-8.000000 26.000000 1.647216E+01
-8.000000 24.000000 1.225978E+01
-8.000000 22.000000 1.245366E+01
-8.000000 20.000000 3.355476E+00
-8.000000 18.000000 -1.460408E+01
-8.000000 16.000000 -2.341579E+01
-8.000000 14.000000 6.313637E+00
-8.000000 12.000000 7.989743E+01
-8.000000 10.000000 1.432625E+02
-8.000000 8.000000 1.450824E+02
-8.000000 6.000000 1.032397E+02
-8.000000 4.000000 4.504167E+01
-8.000000 2.000000 1.190852E+01
-8.000000 0.000000 -2.410221E+00
-8.000000 -2.000000 -1.016991E+01
-8.000000 -4.000000 -3.359814E-01
-8.000000 -6.000000 1.869790E+01
-8.000000 -8.000000 1.663277E+01
-8.000000 -10.000000 1.963069E+00
-8.000000 -12.000000 -1.272387E+01
-8.000000 -14.000000 -1.406933E+01
-8.000000 -16.000000 -1.678019E+01
-8.000000 -18.000000 -2.066940E+01
-8.000000 -20.000000 -1.952714E+01
-8.000000 -22.000000 -6.172639E+00
-8.000000 -24.000000 1.407771E+01
-8.000000 -26.000000 2.262179E+01
-8.000000 -28.000000 1.589779E+01
-8.000000 -30.000000 6.813977E+00
-8.000000 -32.000000 3.410954E+00
-8.000000 -34.000000 9.423353E+00
-8.000000 -36.000000 2.150605E+01
-8.000000 -38.000000 3.644175E+01
-8.000000 -40.000000 4.463746E+01
-6.000000 40.000000 2.109006E+01
-6.000000 38.000000 2.988644E+01
-6.000000 36.000000 3.586123E+01
-6.000000 34.000000 3.626609E+01
-6.000000 32.000000 3.507642E+01
-6.000000 30.000000 3.161459E+01
-6.000000 28.000000 1.840185E+01
-6.000000 26.000000 8.622635E+00
-6.000000 24.000000 8.438927E+00
-6.000000 22.000000 1.706754E+01
-6.000000 20.000000 1.260689E+01
-6.000000 18.000000 -4.970554E+00
-6.000000 16.000000 -1.046310E+01
-6.000000 14.000000 1.555869E+01
-6.000000 12.000000 7.929873E+01
-6.000000 10.000000 1.338983E+02
-6.000000 8.000000 1.363997E+02
-6.000000 6.000000 1.017272E+02
-6.000000 4.000000 5.007176E+01
-6.000000 2.000000 1.738984E+01
-6.000000 0.000000 2.400148E+00
-6.000000 -2.000000 -5.327078E+00
-6.000000 -4.000000 2.133960E+00
-6.000000 -6.000000 1.314128E+01
-6.000000 -8.000000 8.239096E+00
-6.000000 -10.000000 6.316872E-01
-6.000000 -12.000000 -4.123513E+00
-6.000000 -14.000000 -1.675089E+00
-6.000000 -16.000000 -4.454264E+00
-6.000000 -18.000000 -1.182839E+01
-6.000000 -20.000000 -1.455450E+01
-6.000000 -22.000000 -2.909707E+00
-6.000000 -24.000000 1.495230E+01
-6.000000 -26.000000 1.792357E+01
-6.000000 -28.000000 -4.675198E-01
-6.000000 -30.000000 -1.621127E+01
-6.000000 -32.000000 -2.110501E+01
-6.000000 -34.000000 -1.347540E+01
-6.000000 -36.000000 -1.136412E+00
-6.000000 -38.000000 1.689968E+01
-6.000000 -40.000000 3.464326E+01
-4.000000 40.000000 2.354828E+01
-4.000000 38.000000 3.498245E+01
-4.000000 36.000000 3.601678E+01
-4.000000 34.000000 2.774414E+01
-4.000000 32.000000 1.949063E+01
-4.000000 30.000000 1.463205E+01
-4.000000 28.000000 8.328999E+00
-4.000000 26.000000 7.675060E+00
-4.000000 24.000000 1.460859E+01
-4.000000 22.000000 3.308090E+01
-4.000000 20.000000 3.667349E+01
-4.000000 18.000000 2.559890E+01
-4.000000 16.000000 3.119060E+01
-4.000000 14.000000 5.892163E+01
-4.000000 12.000000 1.005489E+02
-4.000000 10.000000 1.297626E+02
-4.000000 8.000000 1.228137E+02
-4.000000 6.000000 8.922503E+01
-4.000000 4.000000 4.405539E+01
-4.000000 2.000000 1.286651E+01
-4.000000 0.000000 -2.990173E+00
-4.000000 -2.000000 -1.103907E+01
-4.000000 -4.000000 -8.697207E+00
-4.000000 -6.000000 -4.529416E+00
-4.000000 -8.000000 -8.248536E+00
-4.000000 -10.000000 -1.186836E+01
-4.000000 -12.000000 -7.618444E+00
-4.000000 -14.000000 -7.678199E-01
-4.000000 -16.000000 -5.989023E+00
-4.000000 -18.000000 -2.067059E+01
-4.000000 -20.000000 -2.949785E+01
-4.000000 -22.000000 -1.817615E+01
-4.000000 -24.000000 1.917323E+00
-4.000000 -26.000000 5.387364E+00
-4.000000 -28.000000 -1.880211E+01
-4.000000 -30.000000 -3.689859E+01
-4.000000 -32.000000 -3.993126E+01
-4.000000 -34.000000 -2.966486E+01
-4.000000 -36.000000 -1.614673E+01
-4.000000 -38.000000 3.563951E+00
-4.000000 -40.000000 2.888410E+01
-2.000000 40.000000 1.979938E+01
-2.000000 38.000000 3.692726E+01
-2.000000 36.000000 3.726385E+01
-2.000000 34.000000 2.319757E+01
-2.000000 32.000000 1.220922E+01
-2.000000 30.000000 7.984924E+00
-2.000000 28.000000 6.037586E+00
-2.000000 26.000000 1.258496E+01
-2.000000 24.000000 2.492877E+01
-2.000000 22.000000 4.788864E+01
-2.000000 20.000000 6.094782E+01
-2.000000 18.000000 6.196210E+01
-2.000000 16.000000 7.255621E+01
-2.000000 14.000000 9.899154E+01
-2.000000 12.000000 1.229440E+02
-2.000000 10.000000 1.275480E+02
-2.000000 8.000000 1.081344E+02
-2.000000 6.000000 7.534636E+01
-2.000000 4.000000 3.978892E+01
-2.000000 2.000000 1.544337E+01
-2.000000 0.000000 2.757140E+00
-2.000000 -2.000000 -5.127236E+00
-2.000000 -4.000000 -6.894532E+00
-2.000000 -6.000000 -1.051793E+01
-2.000000 -8.000000 -1.920454E+01
-2.000000 -10.000000 -2.886765E+01
-2.000000 -12.000000 -2.313160E+01
-2.000000 -14.000000 -1.491341E+01
-2.000000 -16.000000 -2.654539E+01
-2.000000 -18.000000 -5.243139E+01
-2.000000 -20.000000 -6.932390E+01
-2.000000 -22.000000 -5.780439E+01
-2.000000 -24.000000 -3.281516E+01
-2.000000 -26.000000 -2.515128E+01
-2.000000 -28.000000 -4.390570E+01
-2.000000 -30.000000 -5.480649E+01
-2.000000 -32.000000 -4.948318E+01
-2.000000 -34.000000 -3.526232E+01
-2.000000 -36.000000 -1.888592E+01
-2.000000 -38.000000 2.580482E+00
-2.000000 -40.000000 3.316513E+01
0.000000 40.000000 1.713765E+01
0.000000 38.000000 3.728355E+01
0.000000 36.000000 3.625824E+01
0.000000 34.000000 1.990142E+01
0.000000 32.000000 1.128872E+01
0.000000 30.000000 1.096231E+01
0.000000 28.000000 9.895630E+00
0.000000 26.000000 1.861252E+01
0.000000 24.000000 3.276910E+01
0.000000 22.000000 5.266205E+01
0.000000 20.000000 6.706997E+01
0.000000 18.000000 7.262022E+01
0.000000 16.000000 8.537304E+01
0.000000 14.000000 1.118835E+02
0.000000 12.000000 1.317633E+02
0.000000 10.000000 1.298419E+02
0.000000 8.000000 1.018352E+02
0.000000 6.000000 6.638919E+01
0.000000 4.000000 3.719086E+01
0.000000 2.000000 2.023562E+01
0.000000 0.000000 1.249734E+01
0.000000 -2.000000 7.474354E+00
0.000000 -4.000000 9.994659E+00
0.000000 -6.000000 6.750663E+00
0.000000 -8.000000 -9.556057E+00
0.000000 -10.000000 -3.053346E+01
0.000000 -12.000000 -3.524886E+01
0.000000 -14.000000 -3.479062E+01
0.000000 -16.000000 -5.494409E+01
0.000000 -18.000000 -8.536078E+01
0.000000 -20.000000 -1.051384E+02
0.000000 -22.000000 -9.489227E+01
0.000000 -24.000000 -6.968628E+01
0.000000 -26.000000 -6.206556E+01
0.000000 -28.000000 -6.969441E+01
0.000000 -30.000000 -6.741224E+01
0.000000 -32.000000 -4.853174E+01
0.000000 -34.000000 -3.083298E+01
0.000000 -36.000000 -1.324829E+01
0.000000 -38.000000 9.900399E+00
0.000000 -40.000000 4.527496E+01
2.000000 40.000000 1.561812E+01
2.000000 38.000000 3.511756E+01
2.000000 36.000000 3.210458E+01
2.000000 34.000000 1.790150E+01
2.000000 32.000000 1.554337E+01
2.000000 30.000000 2.209466E+01
2.000000 28.000000 2.027116E+01
2.000000 26.000000 2.513572E+01
2.000000 24.000000 3.573995E+01
2.000000 22.000000 4.542559E+01
2.000000 20.000000 5.146614E+01
2.000000 18.000000 5.293971E+01
2.000000 16.000000 6.792448E+01
2.000000 14.000000 9.936615E+01
2.000000 12.000000 1.268805E+02
2.000000 10.000000 1.334553E+02
2.000000 8.000000 1.037005E+02
2.000000 6.000000 5.890415E+01
2.000000 4.000000 2.151268E+01
2.000000 2.000000 2.355042E+00
2.000000 0.000000 -1.840280E+00
2.000000 -2.000000 4.592111E+00
2.000000 -4.000000 2.282464E+01
2.000000 -6.000000 3.034530E+01
2.000000 -8.000000 1.402230E+01
2.000000 -10.000000 -1.295593E+01
2.000000 -12.000000 -3.526706E+01
2.000000 -14.000000 -4.633632E+01
2.000000 -16.000000 -6.594330E+01
2.000000 -18.000000 -8.699796E+01
2.000000 -20.000000 -1.012473E+02
2.000000 -22.000000 -9.369631E+01
2.000000 -24.000000 -7.756254E+01
2.000000 -26.000000 -7.605858E+01
2.000000 -28.000000 -7.766378E+01
2.000000 -30.000000 -6.716900E+01
2.000000 -32.000000 -3.930172E+01
2.000000 -34.000000 -2.115162E+01
2.000000 -36.000000 -5.042192E+00
2.000000 -38.000000 1.821262E+01
2.000000 -40.000000 5.731692E+01
4.000000 40.000000 1.350129E+01
4.000000 38.000000 3.370209E+01
4.000000 36.000000 3.084844E+01
4.000000 34.000000 2.091201E+01
4.000000 32.000000 2.366737E+01
4.000000 30.000000 3.480705E+01
4.000000 28.000000 3.028044E+01
4.000000 26.000000 2.635718E+01
4.000000 24.000000 2.780511E+01
4.000000 22.000000 2.799948E+01
4.000000 20.000000 2.505287E+01
4.000000 18.000000 2.007719E+01
4.000000 16.000000 3.443547E+01
4.000000 14.000000 6.913245E+01
4.000000 12.000000 1.077101E+02
4.000000 10.000000 1.306389E+02
4.000000 8.000000 1.110281E+02
4.000000 6.000000 6.470629E+01
4.000000 4.000000 1.232230E+01
4.000000 2.000000 -2.483907E+01
4.000000 0.000000 -4.154050E+01
4.000000 -2.000000 -3.253142E+01
4.000000 -4.000000 -3.696971E+00
4.000000 -6.000000 1.919667E+01
4.000000 -8.000000 1.651465E+01
4.000000 -10.000000 -4.389381E+00
4.000000 -12.000000 -3.336472E+01
4.000000 -14.000000 -4.496072E+01
4.000000 -16.000000 -4.478346E+01
4.000000 -18.000000 -3.962047E+01
4.000000 -20.000000 -4.352866E+01
4.000000 -22.000000 -4.245992E+01
4.000000 -24.000000 -4.303541E+01
4.000000 -26.000000 -5.206675E+01
4.000000 -28.000000 -5.697834E+01
4.000000 -30.000000 -4.656684E+01
4.000000 -32.000000 -1.993205E+01
4.000000 -34.000000 -7.037812E+00
4.000000 -36.000000 3.901899E+00
4.000000 -38.000000 2.517548E+01
4.000000 -40.000000 6.402290E+01
6.000000 40.000000 1.236432E+01
6.000000 38.000000 3.747178E+01
6.000000 36.000000 3.778336E+01
6.000000 34.000000 3.223917E+01
6.000000 32.000000 3.476562E+01
6.000000 30.000000 4.283312E+01
6.000000 28.000000 3.028833E+01
6.000000 26.000000 1.761051E+01
6.000000 24.000000 9.098330E+00
6.000000 22.000000 2.250139E+00
6.000000 20.000000 -7.464869E+00
6.000000 18.000000 -1.677896E+01
6.000000 16.000000 -4.012104E+00
6.000000 14.000000 3.074969E+01
6.000000 12.000000 8.029313E+01
6.000000 10.000000 1.230652E+02
6.000000 8.000000 1.251128E+02
6.000000 6.000000 8.968441E+01
6.000000 4.000000 2.480529E+01
6.000000 2.000000 -4.043736E+01
6.000000 0.000000 -8.752382E+01
6.000000 -2.000000 -9.664283E+01
6.000000 -4.000000 -7.082440E+01
6.000000 -6.000000 -2.994186E+01
6.000000 -8.000000 -8.952398E+00
6.000000 -10.000000 -1.564332E+01
6.000000 -12.000000 -3.630481E+01
6.000000 -14.000000 -3.587147E+01
6.000000 -16.000000 -4.090002E+00
6.000000 -18.000000 3.631508E+01
6.000000 -20.000000 4.380029E+01
6.000000 -22.000000 3.638420E+01
6.000000 -24.000000 1.836635E+01
6.000000 -26.000000 -3.225416E+00
6.000000 -28.000000 -1.661539E+01
6.000000 -30.000000 -1.252166E+01
6.000000 -32.000000 4.557072E+00
6.000000 -34.000000 8.012011E+00
6.000000 -36.000000 1.414953E+01
6.000000 -38.000000 3.356191E+01
6.000000 -40.000000 6.946599E+01
8.000000 40.000000 1.206454E+01
8.000000 38.000000 4.477531E+01
8.000000 36.000000 5.237527E+01
8.000000 34.000000 5.121368E+01
8.000000 32.000000 4.776351E+01
8.000000 30.000000 4.501725E+01
8.000000 28.000000 1.986660E+01
8.000000 26.000000 -4.179649E-01
8.000000 24.000000 -1.612138E+01
8.000000 22.000000 -2.567891E+01
8.000000 20.000000 -3.905978E+01
8.000000 18.000000 -5.036375E+01
8.000000 16.000000 -3.857354E+01
8.000000 14.000000 -4.092235E+00
8.000000 12.000000 5.300314E+01
8.000000 10.000000 1.160421E+02
8.000000 8.000000 1.449858E+02
8.000000 6.000000 1.287173E+02
8.000000 4.000000 5.677324E+01
8.000000 2.000000 -3.599850E+01
8.000000 0.000000 -1.163129E+02
8.000000 -2.000000 -1.518768E+02
8.000000 -4.000000 -1.366198E+02
8.000000 -6.000000 -8.255879E+01
8.000000 -8.000000 -3.880322E+01
8.000000 -10.000000 -2.837834E+01
8.000000 -12.000000 -3.499486E+01
8.000000 -14.000000 -2.092229E+01
8.000000 -16.000000 2.663244E+01
8.000000 -18.000000 8.040229E+01
8.000000 -20.000000 9.670438E+01
8.000000 -22.000000 9.096775E+01
8.000000 -24.000000 7.246881E+01
8.000000 -26.000000 4.765789E+01
8.000000 -28.000000 2.846307E+01
8.000000 -30.000000 2.425323E+01
8.000000 -32.000000 2.797531E+01
8.000000 -34.000000 2.126882E+01
8.000000 -36.000000 2.625749E+01
8.000000 -38.000000 4.601405E+01
8.000000 -40.000000 7.945581E+01
10.000000 40.000000 1.291391E+01
10.000000 38.000000 5.198084E+01
10.000000 36.000000 6.830603E+01
10.000000 34.000000 7.052391E+01
10.000000 32.000000 5.781241E+01
10.000000 30.000000 4.038843E+01
10.000000 28.000000 3.665287E+00
10.000000 26.000000 -2.053995E+01
10.000000 24.000000 -3.740321E+01
10.000000 22.000000 -4.352033E+01
10.000000 20.000000 -5.419598E+01
10.000000 18.000000 -6.673506E+01
10.000000 16.000000 -5.994382E+01
10.000000 14.000000 -2.675138E+01
10.000000 12.000000 3.498814E+01
10.000000 10.000000 1.139021E+02
10.000000 8.000000 1.658862E+02
10.000000 6.000000 1.696746E+02
10.000000 4.000000 9.839135E+01
10.000000 2.000000 -1.218894E+01
10.000000 0.000000 -1.174577E+02
10.000000 -2.000000 -1.756732E+02
10.000000 -4.000000 -1.706954E+02
10.000000 -6.000000 -1.107386E+02
10.000000 -8.000000 -5.550718E+01
10.000000 -10.000000 -3.194346E+01
10.000000 -12.000000 -2.660411E+01
10.000000 -14.000000 -7.280665E+00
10.000000 -16.000000 2.838062E+01
10.000000 -18.000000 6.536229E+01
10.000000 -20.000000 8.466419E+01
10.000000 -22.000000 9.317547E+01
10.000000 -24.000000 9.495416E+01
10.000000 -26.000000 8.172016E+01
10.000000 -28.000000 6.334615E+01
10.000000 -30.000000 5.338201E+01
10.000000 -32.000000 4.683071E+01
10.000000 -34.000000 3.173002E+01
10.000000 -36.000000 3.801787E+01
10.000000 -38.000000 6.000541E+01
10.000000 -40.000000 9.380529E+01
12.000000 40.000000 1.471469E+01
12.000000 38.000000 5.900975E+01
12.000000 36.000000 8.173041E+01
12.000000 34.000000 8.418075E+01
12.000000 32.000000 6.257026E+01
12.000000 30.000000 3.430798E+01
12.000000 28.000000 -8.223141E+00
12.000000 26.000000 -3.035250E+01
12.000000 24.000000 -4.074184E+01
12.000000 22.000000 -3.939544E+01
12.000000 20.000000 -4.555029E+01
12.000000 18.000000 -6.225791E+01
12.000000 16.000000 -6.503746E+01
12.000000 14.000000 -3.867669E+01
12.000000 12.000000 2.140525E+01
12.000000 10.000000 1.047663E+02
12.000000 8.000000 1.691602E+02
12.000000 6.000000 1.909556E+02
12.000000 4.000000 1.363310E+02
12.000000 2.000000 2.914785E+01
12.000000 0.000000 -8.638393E+01
12.000000 -2.000000 -1.622172E+02
12.000000 -4.000000 -1.688872E+02
12.000000 -6.000000 -1.095956E+02
12.000000 -8.000000 -5.373200E+01
12.000000 -10.000000 -2.900773E+01
12.000000 -12.000000 -2.679523E+01
12.000000 -14.000000 -1.403220E+01
12.000000 -16.000000 5.207516E+00
12.000000 -18.000000 2.606135E+01
12.000000 -20.000000 4.234926E+01
12.000000 -22.000000 6.035844E+01
12.000000 -24.000000 8.108154E+01
12.000000 -26.000000 8.523501E+01
12.000000 -28.000000 7.434338E+01
12.000000 -30.000000 6.220191E+01
12.000000 -32.000000 5.309864E+01
12.000000 -34.000000 3.670153E+01
12.000000 -36.000000 4.626737E+01
12.000000 -38.000000 7.158207E+01
12.000000 -40.000000 1.090475E+02
14.000000 40.000000 1.472592E+01
14.000000 38.000000 6.641398E+01
14.000000 36.000000 9.411447E+01
14.000000 34.000000 9.532738E+01
14.000000 32.000000 6.562348E+01
14.000000 30.000000 3.322813E+01
14.000000 28.000000 -4.719793E+00
14.000000 26.000000 -2.137429E+01
14.000000 24.000000 -2.280770E+01
14.000000 22.000000 -1.329579E+01
14.000000 20.000000 -1.580673E+01
14.000000 18.000000 -3.720707E+01
14.000000 16.000000 -5.141384E+01
14.000000 14.000000 -4.101061E+01
14.000000 12.000000 3.331914E+00
14.000000 10.000000 7.154371E+01
14.000000 8.000000 1.353993E+02
14.000000 6.000000 1.741569E+02
14.000000 4.000000 1.584794E+02
14.000000 2.000000 8.231586E+01
14.000000 0.000000 -2.438154E+01
14.000000 -2.000000 -1.115194E+02
14.000000 -4.000000 -1.318051E+02
14.000000 -6.000000 -8.655244E+01
14.000000 -8.000000 -4.673563E+01
14.000000 -10.000000 -3.734157E+01
14.000000 -12.000000 -4.856034E+01
14.000000 -14.000000 -4.256804E+01
14.000000 -16.000000 -2.746514E+01
14.000000 -18.000000 -7.533605E+00
14.000000 -20.000000 6.859261E+00
14.000000 -22.000000 2.326846E+01
14.000000 -24.000000 4.595079E+01
14.000000 -26.000000 5.857385E+01
14.000000 -28.000000 5.487107E+01
14.000000 -30.000000 4.490403E+01
14.000000 -32.000000 4.171715E+01
14.000000 -34.000000 3.310318E+01
14.000000 -36.000000 4.885087E+01
14.000000 -38.000000 7.941430E+01
14.000000 -40.000000 1.238886E+02
16.000000 40.000000 9.459761E+00
16.000000 38.000000 7.091579E+01
16.000000 36.000000 1.063585E+02
16.000000 34.000000 1.099436E+02
16.000000 32.000000 7.500167E+01
16.000000 30.000000 3.927644E+01
16.000000 28.000000 8.277287E+00
16.000000 26.000000 -1.332559E+00
16.000000 24.000000 4.152694E+00
16.000000 22.000000 1.860369E+01
16.000000 20.000000 2.061035E+01
16.000000 18.000000 2.518808E+00
16.000000 16.000000 -1.505540E+01
16.000000 14.000000 -1.663786E+01
16.000000 12.000000 7.080821E+00
16.000000 10.000000 4.274810E+01
16.000000 8.000000 8.060903E+01
16.000000 6.000000 1.209479E+02
16.000000 4.000000 1.601468E+02
16.000000 2.000000 1.359449E+02
16.000000 0.000000 5.293024E+01
16.000000 -2.000000 -3.947579E+01
16.000000 -4.000000 -7.844846E+01
16.000000 -6.000000 -6.649678E+01
16.000000 -8.000000 -5.793126E+01
16.000000 -10.000000 -7.300286E+01
16.000000 -12.000000 -9.654596E+01
16.000000 -14.000000 -8.701996E+01
16.000000 -16.000000 -5.696757E+01
16.000000 -18.000000 -2.319597E+01
16.000000 -20.000000 -6.593706E+00
16.000000 -22.000000 1.294542E+00
16.000000 -24.000000 9.111595E+00
16.000000 -26.000000 1.429548E+01
16.000000 -28.000000 1.128023E+01
16.000000 -30.000000 7.759358E+00
16.000000 -32.000000 1.559760E+01
16.000000 -34.000000 1.919987E+01
16.000000 -36.000000 4.396990E+01
16.000000 -38.000000 8.232587E+01
16.000000 -40.000000 1.367891E+02
18.000000 40.000000 -8.548222E-01
18.000000 38.000000 7.027714E+01
18.000000 36.000000 1.158908E+02
18.000000 34.000000 1.247261E+02
18.000000 32.000000 8.922378E+01
18.000000 30.000000 4.862875E+01
18.000000 28.000000 1.745254E+01
18.000000 26.000000 1.310892E+01
18.000000 24.000000 2.463289E+01
18.000000 22.000000 4.256842E+01
18.000000 20.000000 5.039339E+01
18.000000 18.000000 4.240687E+01
18.000000 16.000000 3.252906E+01
18.000000 14.000000 3.260219E+01
18.000000 12.000000 4.977571E+01
18.000000 10.000000 6.839788E+01
18.000000 8.000000 8.211483E+01
18.000000 6.000000 1.093821E+02
18.000000 4.000000 1.655030E+02
18.000000 2.000000 1.653339E+02
18.000000 0.000000 9.819938E+01
18.000000 -2.000000 4.511843E+00
18.000000 -4.000000 -5.690929E+01
18.000000 -6.000000 -7.939246E+01
18.000000 -8.000000 -9.987151E+01
18.000000 -10.000000 -1.343777E+02
18.000000 -12.000000 -1.606900E+02
18.000000 -14.000000 -1.380541E+02
18.000000 -16.000000 -8.415261E+01
18.000000 -18.000000 -2.980451E+01
18.000000 -20.000000 -5.890234E+00
18.000000 -22.000000 -5.632088E+00
18.000000 -24.000000 -1.602250E+01
18.000000 -26.000000 -2.672751E+01
18.000000 -28.000000 -3.424075E+01
18.000000 -30.000000 -3.258038E+01
18.000000 -32.000000 -1.650899E+01
18.000000 -34.000000 -2.407081E+00
18.000000 -36.000000 3.172810E+01
18.000000 -38.000000 7.772127E+01
18.000000 -40.000000 1.439652E+02
20.000000 40.000000 -7.538006E+00
20.000000 38.000000 6.740566E+01
20.000000 36.000000 1.180342E+02
20.000000 34.000000 1.317709E+02
20.000000 32.000000 9.857315E+01
20.000000 30.000000 5.660314E+01
20.000000 28.000000 2.230520E+01
20.000000 26.000000 1.619680E+01
20.000000 24.000000 3.024339E+01
20.000000 22.000000 5.214678E+01
20.000000 20.000000 6.551845E+01
20.000000 18.000000 6.558216E+01
20.000000 16.000000 6.752484E+01
20.000000 14.000000 7.818870E+01
20.000000 12.000000 1.041254E+02
20.000000 10.000000 1.368051E+02
20.000000 8.000000 1.600891E+02
20.000000 6.000000 1.858085E+02
20.000000 4.000000 2.062602E+02
20.000000 2.000000 1.781610E+02
20.000000 0.000000 9.840081E+01
20.000000 -2.000000 -6.106167E+00
20.000000 -4.000000 -8.937323E+01
20.000000 -6.000000 -1.335765E+02
20.000000 -8.000000 -1.689817E+02
20.000000 -10.000000 -2.148018E+02
20.000000 -12.000000 -2.306891E+02
20.000000 -14.000000 -1.882441E+02
20.000000 -16.000000 -1.101007E+02
20.000000 -18.000000 -3.954783E+01
20.000000 -20.000000 -7.396505E+00
20.000000 -22.000000 -8.150721E+00
20.000000 -24.000000 -2.500007E+01
20.000000 -26.000000 -4.907830E+01
20.000000 -28.000000 -6.339583E+01
20.000000 -30.000000 -5.993327E+01
20.000000 -32.000000 -4.013685E+01
20.000000 -34.000000 -2.145535E+01
20.000000 -36.000000 1.795314E+01
20.000000 -38.000000 6.953459E+01
20.000000 -40.000000 1.460516E+02
22.000000 40.000000 -1.168227E+01
22.000000 38.000000 6.273190E+01
22.000000 36.000000 1.153893E+02
22.000000 34.000000 1.347999E+02
22.000000 32.000000 1.051662E+02
22.000000 30.000000 6.497448E+01
22.000000 28.000000 2.917930E+01
22.000000 26.000000 1.808028E+01
22.000000 24.000000 2.871106E+01
22.000000 22.000000 5.151344E+01
22.000000 20.000000 6.450371E+01
22.000000 18.000000 6.583591E+01
22.000000 16.000000 7.637727E+01
22.000000 14.000000 9.788177E+01
22.000000 12.000000 1.342640E+02
22.000000 10.000000 1.849626E+02
22.000000 8.000000 2.213259E+02
22.000000 6.000000 2.500068E+02
22.000000 4.000000 2.380162E+02
22.000000 2.000000 1.756374E+02
22.000000 0.000000 7.485263E+01
22.000000 -2.000000 -4.302305E+01
22.000000 -4.000000 -1.369997E+02
22.000000 -6.000000 -1.883681E+02
22.000000 -8.000000 -2.261285E+02
22.000000 -10.000000 -2.742564E+02
22.000000 -12.000000 -2.778766E+02
22.000000 -14.000000 -2.210170E+02
22.000000 -16.000000 -1.295416E+02
22.000000 -18.000000 -5.291050E+01
22.000000 -20.000000 -1.822018E+01
22.000000 -22.000000 -1.223424E+01
22.000000 -24.000000 -2.029970E+01
22.000000 -26.000000 -4.566442E+01
22.000000 -28.000000 -6.436146E+01
22.000000 -30.000000 -6.214386E+01
22.000000 -32.000000 -4.472398E+01
22.000000 -34.000000 -3.085983E+01
22.000000 -36.000000 5.711671E+00
22.000000 -38.000000 6.169966E+01
22.000000 -40.000000 1.431161E+02
24.000000 40.000000 -2.173764E+01
24.000000 38.000000 5.221201E+01
24.000000 36.000000 1.111592E+02
24.000000 34.000000 1.388624E+02
24.000000 32.000000 1.157237E+02
24.000000 30.000000 7.761872E+01
24.000000 28.000000 4.074535E+01
24.000000 26.000000 2.648545E+01
24.000000 24.000000 3.315039E+01
24.000000 22.000000 5.131370E+01
24.000000 20.000000 5.473108E+01
24.000000 18.000000 4.692156E+01
24.000000 16.000000 5.624642E+01
24.000000 14.000000 8.189318E+01
24.000000 12.000000 1.231857E+02
24.000000 10.000000 1.787812E+02
24.000000 8.000000 2.151113E+02
24.000000 6.000000 2.323597E+02
24.000000 4.000000 2.044499E+02
24.000000 2.000000 1.340436E+02
24.000000 0.000000 3.170065E+01
24.000000 -2.000000 -8.090104E+01
24.000000 -4.000000 -1.654354E+02
24.000000 -6.000000 -2.075310E+02
24.000000 -8.000000 -2.412300E+02
24.000000 -10.000000 -2.857367E+02
24.000000 -12.000000 -2.824048E+02
24.000000 -14.000000 -2.226452E+02
24.000000 -16.000000 -1.329361E+02
24.000000 -18.000000 -6.189676E+01
24.000000 -20.000000 -2.824939E+01
24.000000 -22.000000 -1.150750E+01
24.000000 -24.000000 -4.075600E+00
24.000000 -26.000000 -1.366654E+01
24.000000 -28.000000 -2.795753E+01
24.000000 -30.000000 -3.314472E+01
24.000000 -32.000000 -2.954238E+01
24.000000 -34.000000 -2.847479E+01
24.000000 -36.000000 -2.666396E+00
24.000000 -38.000000 5.092070E+01
24.000000 -40.000000 1.275565E+02
26.000000 40.000000 -3.362060E+01
26.000000 38.000000 3.796762E+01
26.000000 36.000000 1.006394E+02
26.000000 34.000000 1.373713E+02
26.000000 32.000000 1.239178E+02
26.000000 30.000000 8.934535E+01
26.000000 28.000000 5.190662E+01
26.000000 26.000000 3.496889E+01
26.000000 24.000000 3.780440E+01
26.000000 22.000000 4.974319E+01
26.000000 20.000000 4.441411E+01
26.000000 18.000000 2.264213E+01
26.000000 16.000000 2.251312E+01
26.000000 14.000000 4.339567E+01
26.000000 12.000000 8.066089E+01
26.000000 10.000000 1.291418E+02
26.000000 8.000000 1.605991E+02
26.000000 6.000000 1.577642E+02
26.000000 4.000000 1.271040E+02
26.000000 2.000000 7.186830E+01
26.000000 0.000000 -1.754550E+01
26.000000 -2.000000 -1.104979E+02
26.000000 -4.000000 -1.709962E+02
26.000000 -6.000000 -1.960237E+02
26.000000 -8.000000 -2.230172E+02
26.000000 -10.000000 -2.576619E+02
26.000000 -12.000000 -2.474136E+02
26.000000 -14.000000 -1.918702E+02
26.000000 -16.000000 -1.184932E+02
26.000000 -18.000000 -6.311194E+01
26.000000 -20.000000 -3.270514E+01
26.000000 -22.000000 -6.220734E+00
26.000000 -24.000000 1.635964E+01
26.000000 -26.000000 2.576529E+01
26.000000 -28.000000 2.002321E+01
26.000000 -30.000000 7.874777E+00
26.000000 -32.000000 -2.272219E+00
26.000000 -34.000000 -1.281824E+01
26.000000 -36.000000 -1.139997E+00
26.000000 -38.000000 4.049405E+01
26.000000 -40.000000 1.029412E+02
28.000000 40.000000 -4.473324E+01
28.000000 38.000000 2.145664E+01
28.000000 36.000000 8.280879E+01
28.000000 34.000000 1.268615E+02
28.000000 32.000000 1.229756E+02
28.000000 30.000000 9.354945E+01
28.000000 28.000000 5.654858E+01
28.000000 26.000000 3.673797E+01
28.000000 24.000000 3.539830E+01
28.000000 22.000000 4.026293E+01
28.000000 20.000000 2.829119E+01
28.000000 18.000000 -1.550318E+00
28.000000 16.000000 -9.774568E+00
28.000000 14.000000 7.167732E+00
28.000000 12.000000 4.145765E+01
28.000000 10.000000 8.351634E+01
28.000000 8.000000 1.113660E+02
28.000000 6.000000 9.565717E+01
28.000000 4.000000 6.382670E+01
28.000000 2.000000 1.626716E+01
28.000000 0.000000 -6.528565E+01
28.000000 -2.000000 -1.394420E+02
28.000000 -4.000000 -1.706307E+02
28.000000 -6.000000 -1.743971E+02
28.000000 -8.000000 -1.866654E+02
28.000000 -10.000000 -2.009451E+02
28.000000 -12.000000 -1.894358E+02
28.000000 -14.000000 -1.465137E+02
28.000000 -16.000000 -9.818683E+01
28.000000 -18.000000 -6.196955E+01
28.000000 -20.000000 -3.589066E+01
28.000000 -22.000000 -5.482132E+00
28.000000 -24.000000 2.761592E+01
28.000000 -26.000000 4.615113E+01
28.000000 -28.000000 4.390926E+01
28.000000 -30.000000 3.284876E+01
28.000000 -32.000000 2.149840E+01
28.000000 -34.000000 6.353828E+00
28.000000 -36.000000 7.600765E+00
28.000000 -38.000000 3.654094E+01
28.000000 -40.000000 8.324666E+01
30.000000 40.000000 -5.786166E+01
30.000000 38.000000 1.008672E+00
30.000000 36.000000 6.120555E+01
30.000000 34.000000 1.102411E+02
30.000000 32.000000 1.131727E+02
30.000000 30.000000 8.667572E+01
30.000000 28.000000 5.042382E+01
30.000000 26.000000 2.840301E+01
30.000000 24.000000 2.286624E+01
30.000000 22.000000 2.264609E+01
30.000000 20.000000 4.484728E+00
30.000000 18.000000 -2.406372E+01
30.000000 16.000000 -2.737680E+01
30.000000 14.000000 -3.755278E+00
30.000000 12.000000 3.988673E+01
30.000000 10.000000 8.340411E+01
30.000000 8.000000 1.067515E+02
30.000000 6.000000 9.048104E+01
30.000000 4.000000 4.267239E+01
30.000000 2.000000 -2.820932E+01
30.000000 0.000000 -1.152449E+02
30.000000 -2.000000 -1.758037E+02
30.000000 -4.000000 -1.810661E+02
30.000000 -6.000000 -1.583816E+02
30.000000 -8.000000 -1.470977E+02
30.000000 -10.000000 -1.358048E+02
30.000000 -12.000000 -1.371163E+02
30.000000 -14.000000 -1.185838E+02
30.000000 -16.000000 -9.151563E+01
30.000000 -18.000000 -6.822364E+01
30.000000 -20.000000 -4.482754E+01
30.000000 -22.000000 -1.545305E+01
30.000000 -24.000000 2.297935E+01
30.000000 -26.000000 4.599699E+01
30.000000 -28.000000 4.509437E+01
30.000000 -30.000000 3.728544E+01
30.000000 -32.000000 3.068601E+01
30.000000 -34.000000 1.733992E+01
30.000000 -36.000000 1.703859E+01
30.000000 -38.000000 3.684714E+01
30.000000 -40.000000 7.106218E+01
32.000000 40.000000 -6.852727E+01
32.000000 38.000000 -2.011398E+01
32.000000 36.000000 3.602726E+01
32.000000 34.000000 8.501150E+01
32.000000 32.000000 9.176979E+01
32.000000 30.000000 6.609290E+01
32.000000 28.000000 3.458078E+01
32.000000 26.000000 1.734404E+01
32.000000 24.000000 1.167240E+01
32.000000 22.000000 1.041419E+01
32.000000 20.000000 -1.004050E+01
32.000000 18.000000 -3.267742E+01
32.000000 16.000000 -2.302081E+01
32.000000 14.000000 1.512525E+01
32.000000 12.000000 7.318296E+01
32.000000 10.000000 1.222013E+02
32.000000 8.000000 1.352209E+02
32.000000 6.000000 1.141250E+02
32.000000 4.000000 4.387392E+01
32.000000 2.000000 -5.192112E+01
32.000000 0.000000 -1.429563E+02
32.000000 -2.000000 -1.907781E+02
32.000000 -4.000000 -1.793652E+02
32.000000 -6.000000 -1.442773E+02
32.000000 -8.000000 -1.299868E+02
32.000000 -10.000000 -1.228485E+02
32.000000 -12.000000 -1.362169E+02
32.000000 -14.000000 -1.303480E+02
32.000000 -16.000000 -1.080943E+02
32.000000 -18.000000 -8.492627E+01
32.000000 -20.000000 -6.110548E+01
32.000000 -22.000000 -3.110258E+01
32.000000 -24.000000 8.386074E+00
32.000000 -26.000000 3.269511E+01
32.000000 -28.000000 3.210562E+01
32.000000 -30.000000 2.678062E+01
32.000000 -32.000000 2.805376E+01
32.000000 -34.000000 2.331812E+01
32.000000 -36.000000 2.562177E+01
32.000000 -38.000000 3.888794E+01
32.000000 -40.000000 6.443267E+01
34.000000 40.000000 -7.615958E+01
34.000000 38.000000 -4.011202E+01
34.000000 36.000000 7.306293E+00
34.000000 34.000000 5.157740E+01
34.000000 32.000000 6.036484E+01
34.000000 30.000000 3.874360E+01
34.000000 28.000000 1.637045E+01
34.000000 26.000000 1.157163E+01
34.000000 24.000000 1.569552E+01
34.000000 22.000000 1.846617E+01
34.000000 20.000000 2.308271E+00
34.000000 18.000000 -1.521576E+01
34.000000 16.000000 7.408524E-01
34.000000 14.000000 4.721576E+01
34.000000 12.000000 1.086751E+02
34.000000 10.000000 1.565787E+02
34.000000 8.000000 1.554389E+02
34.000000 6.000000 1.245062E+02
34.000000 4.000000 4.550394E+01
34.000000 2.000000 -5.435151E+01
34.000000 0.000000 -1.399882E+02
34.000000 -2.000000 -1.780808E+02
34.000000 -4.000000 -1.620050E+02
34.000000 -6.000000 -1.346514E+02
34.000000 -8.000000 -1.430847E+02
34.000000 -10.000000 -1.715999E+02
34.000000 -12.000000 -1.862638E+02
34.000000 -14.000000 -1.693737E+02
34.000000 -16.000000 -1.354430E+02
34.000000 -18.000000 -1.022116E+02
34.000000 -20.000000 -7.620401E+01
34.000000 -22.000000 -4.556762E+01
34.000000 -24.000000 -7.644382E+00
34.000000 -26.000000 1.499772E+01
34.000000 -28.000000 1.210673E+01
34.000000 -30.000000 1.082097E+01
34.000000 -32.000000 2.444141E+01
34.000000 -34.000000 2.908716E+01
34.000000 -36.000000 3.091468E+01
34.000000 -38.000000 3.840767E+01
34.000000 -40.000000 5.788826E+01
36.000000 40.000000 -8.390914E+01
36.000000 38.000000 -5.699253E+01
36.000000 36.000000 -1.763877E+01
36.000000 34.000000 2.089226E+01
36.000000 32.000000 3.126875E+01
36.000000 30.000000 1.646368E+01
36.000000 28.000000 1.297355E+00
36.000000 26.000000 6.606891E+00
36.000000 24.000000 2.589431E+01
36.000000 22.000000 3.717557E+01
36.000000 20.000000 2.719327E+01
36.000000 18.000000 1.094735E+01
36.000000 16.000000 2.239289E+01
36.000000 14.000000 6.298030E+01
36.000000 12.000000 1.141757E+02
36.000000 10.000000 1.537789E+02
36.000000 8.000000 1.427180E+02
36.000000 6.000000 1.065168E+02
36.000000 4.000000 3.701926E+01
36.000000 2.000000 -4.709534E+01
36.000000 0.000000 -1.213886E+02
36.000000 -2.000000 -1.551870E+02
36.000000 -4.000000 -1.416174E+02
36.000000 -6.000000 -1.254856E+02
36.000000 -8.000000 -1.541956E+02
36.000000 -10.000000 -2.094517E+02
36.000000 -12.000000 -2.272721E+02
36.000000 -14.000000 -2.020148E+02
36.000000 -16.000000 -1.562327E+02
36.000000 -18.000000 -1.113888E+02
36.000000 -20.000000 -8.196060E+01
36.000000 -22.000000 -5.482224E+01
36.000000 -24.000000 -2.308358E+01
36.000000 -26.000000 -5.006519E+00
36.000000 -28.000000 -7.307405E+00
36.000000 -30.000000 -4.119110E-01
36.000000 -32.000000 2.301771E+01
36.000000 -34.000000 3.192636E+01
36.000000 -36.000000 3.070934E+01
36.000000 -38.000000 3.233298E+01
36.000000 -40.000000 4.493100E+01
38.000000 40.000000 -8.686936E+01
38.000000 38.000000 -6.612176E+01
38.000000 36.000000 -3.334657E+01
38.000000 34.000000 -2.898397E-01
38.000000 32.000000 1.195274E+01
38.000000 30.000000 1.552901E+00
38.000000 28.000000 -1.278289E+01
38.000000 26.000000 -6.392601E+00
38.000000 24.000000 1.991021E+01
38.000000 22.000000 4.016310E+01
38.000000 20.000000 4.027991E+01
38.000000 18.000000 2.850787E+01
38.000000 16.000000 2.862522E+01
38.000000 14.000000 4.834592E+01
38.000000 12.000000 7.822749E+01
38.000000 10.000000 1.047513E+02
38.000000 8.000000 9.514825E+01
38.000000 6.000000 6.685117E+01
38.000000 4.000000 2.035673E+01
38.000000 2.000000 -3.553704E+01
38.000000 0.000000 -9.054247E+01
38.000000 -2.000000 -1.175307E+02
38.000000 -4.000000 -1.067657E+02
38.000000 -6.000000 -9.963533E+01
38.000000 -8.000000 -1.382194E+02
38.000000 -10.000000 -2.016546E+02
38.000000 -12.000000 -2.247481E+02
38.000000 -14.000000 -2.035606E+02
38.000000 -16.000000 -1.612674E+02
38.000000 -18.000000 -1.171242E+02
38.000000 -20.000000 -8.562315E+01
38.000000 -22.000000 -6.096854E+01
38.000000 -24.000000 -3.601732E+01
38.000000 -26.000000 -2.398265E+01
38.000000 -28.000000 -2.248375E+01
38.000000 -30.000000 -7.965652E+00
38.000000 -32.000000 1.748067E+01
38.000000 -34.000000 2.751682E+01
38.000000 -36.000000 2.450250E+01
38.000000 -38.000000 2.257187E+01
38.000000 -40.000000 2.784180E+01
40.000000 40.000000 -8.256507E+01
40.000000 38.000000 -6.945043E+01
40.000000 36.000000 -4.395508E+01
40.000000 34.000000 -1.382755E+01
40.000000 32.000000 2.145197E+00
40.000000 30.000000 -5.165288E+00
40.000000 28.000000 -2.244759E+01
40.000000 26.000000 -2.209639E+01
40.000000 24.000000 -1.908379E-01
40.000000 22.000000 2.513691E+01
40.000000 20.000000 3.381481E+01
40.000000 18.000000 2.432801E+01
40.000000 16.000000 1.128169E+01
40.000000 14.000000 9.547113E+00
40.000000 12.000000 2.036050E+01
40.000000 10.000000 3.415058E+01
40.000000 8.000000 3.348787E+01
40.000000 6.000000 1.972727E+01
40.000000 4.000000 -2.785843E+00
40.000000 2.000000 -3.055062E+01
40.000000 0.000000 -5.811089E+01
40.000000 -2.000000 -6.902641E+01
40.000000 -4.000000 -5.799734E+01
40.000000 -6.000000 -5.605993E+01
40.000000 -8.000000 -9.513577E+01
40.000000 -10.000000 -1.517393E+02
40.000000 -12.000000 -1.778452E+02
40.000000 -14.000000 -1.701722E+02
40.000000 -16.000000 -1.513898E+02
40.000000 -18.000000 -1.294364E+02
40.000000 -20.000000 -1.034720E+02
40.000000 -22.000000 -7.373269E+01
40.000000 -24.000000 -4.471776E+01
40.000000 -26.000000 -3.053999E+01
40.000000 -28.000000 -2.858326E+01
40.000000 -30.000000 -1.571362E+01
40.000000 -32.000000 5.424307E+00
40.000000 -34.000000 1.420655E+01
40.000000 -36.000000 9.580202E+00
40.000000 -38.000000 8.384972E+00
40.000000 -40.000000 1.165264E+01
42.000000 40.000000 -7.648205E+01
42.000000 38.000000 -6.970241E+01
42.000000 36.000000 -4.927871E+01
42.000000 34.000000 -2.058086E+01
42.000000 32.000000 -4.009223E-01
42.000000 30.000000 -2.600400E+00
42.000000 28.000000 -2.282123E+01
42.000000 26.000000 -3.210207E+01
42.000000 24.000000 -2.231318E+01
42.000000 22.000000 -3.508739E-01
42.000000 20.000000 7.896111E+00
42.000000 18.000000 -4.665474E+00
42.000000 16.000000 -2.639959E+01
42.000000 14.000000 -3.742894E+01
42.000000 12.000000 -2.809950E+01
42.000000 10.000000 -1.311317E+01
42.000000 8.000000 -4.009472E+00
42.000000 6.000000 -4.593033E+00
42.000000 4.000000 -1.134891E+01
42.000000 2.000000 -2.550658E+01
42.000000 0.000000 -3.826637E+01
42.000000 -2.000000 -3.941541E+01
42.000000 -4.000000 -2.810130E+01
42.000000 -6.000000 -2.605358E+01
42.000000 -8.000000 -5.511225E+01
42.000000 -10.000000 -9.144411E+01
42.000000 -12.000000 -1.141572E+02
42.000000 -14.000000 -1.242960E+02
42.000000 -16.000000 -1.374986E+02
42.000000 -18.000000 -1.447144E+02
42.000000 -20.000000 -1.299756E+02
42.000000 -22.000000 -9.127467E+01
42.000000 -24.000000 -4.682686E+01
42.000000 -26.000000 -2.182192E+01
42.000000 -28.000000 -2.310213E+01
42.000000 -30.000000 -2.117490E+01
42.000000 -32.000000 -1.044638E+01
42.000000 -34.000000 -4.775452E+00
42.000000 -36.000000 -9.870810E+00
42.000000 -38.000000 -8.082866E+00
42.000000 -40.000000 -3.461949E+00
44.000000 40.000000 -7.197139E+01
44.000000 38.000000 -6.502197E+01
44.000000 36.000000 -4.592795E+01
44.000000 34.000000 -2.059848E+01
44.000000 32.000000 2.511449E-01
44.000000 30.000000 1.907127E+00
44.000000 28.000000 -1.733609E+01
44.000000 26.000000 -3.263569E+01
44.000000 24.000000 -3.428928E+01
44.000000 22.000000 -2.373526E+01
44.000000 20.000000 -2.505017E+01
44.000000 18.000000 -4.276780E+01
44.000000 16.000000 -6.689034E+01
44.000000 14.000000 -7.604028E+01
44.000000 12.000000 -5.187706E+01
44.000000 10.000000 -2.215336E+01
44.000000 8.000000 -7.310972E+00
44.000000 6.000000 -1.168968E+00
44.000000 4.000000 -3.112534E+00
44.000000 2.000000 -1.673090E+01
44.000000 0.000000 -3.153790E+01
44.000000 -2.000000 -3.578110E+01
44.000000 -4.000000 -2.536187E+01
44.000000 -6.000000 -1.919935E+01
44.000000 -8.000000 -3.352357E+01
44.000000 -10.000000 -5.071592E+01
44.000000 -12.000000 -6.678913E+01
44.000000 -14.000000 -9.078069E+01
44.000000 -16.000000 -1.286341E+02
44.000000 -18.000000 -1.570728E+02
44.000000 -20.000000 -1.499426E+02
44.000000 -22.000000 -1.010912E+02
44.000000 -24.000000 -4.090727E+01
44.000000 -26.000000 -1.118088E+01
44.000000 -28.000000 -1.964769E+01
44.000000 -30.000000 -2.764370E+01
44.000000 -32.000000 -2.505344E+01
44.000000 -34.000000 -2.019275E+01
44.000000 -36.000000 -2.365990E+01
44.000000 -38.000000 -2.088089E+01
44.000000 -40.000000 -1.723232E+01
46.000000 40.000000 -6.797609E+01
46.000000 38.000000 -5.797214E+01
46.000000 36.000000 -4.061972E+01
46.000000 34.000000 -1.922539E+01
46.000000 32.000000 5.723829E-01
46.000000 30.000000 2.234891E+00
46.000000 28.000000 -1.255385E+01
46.000000 26.000000 -2.350653E+01
46.000000 24.000000 -2.749372E+01
46.000000 22.000000 -2.957168E+01
46.000000 20.000000 -4.214268E+01
46.000000 18.000000 -6.457772E+01
46.000000 16.000000 -8.252909E+01
46.000000 14.000000 -8.305678E+01
46.000000 12.000000 -5.162018E+01
46.000000 10.000000 -2.061874E+01
46.000000 8.000000 -8.936003E+00
46.000000 6.000000 -2.490788E+00
46.000000 4.000000 -9.570847E-01
46.000000 2.000000 -1.115822E+01
46.000000 0.000000 -2.729779E+01
46.000000 -2.000000 -3.690568E+01
46.000000 -4.000000 -2.953300E+01
46.000000 -6.000000 -1.863012E+01
46.000000 -8.000000 -2.217236E+01
46.000000 -10.000000 -2.950408E+01
46.000000 -12.000000 -4.206748E+01
46.000000 -14.000000 -7.572252E+01
46.000000 -16.000000 -1.283894E+02
46.000000 -18.000000 -1.662744E+02
46.000000 -20.000000 -1.590789E+02
46.000000 -22.000000 -1.021569E+02
46.000000 -24.000000 -3.529630E+01
46.000000 -26.000000 -9.448957E+00
46.000000 -28.000000 -2.637607E+01
46.000000 -30.000000 -3.892674E+01
46.000000 -32.000000 -3.492776E+01
46.000000 -34.000000 -2.556916E+01
46.000000 -36.000000 -2.800595E+01
46.000000 -38.000000 -2.921424E+01
46.000000 -40.000000 -2.902934E+01
48.000000 40.000000 -6.714704E+01
48.000000 38.000000 -5.516127E+01
48.000000 36.000000 -3.869198E+01
48.000000 34.000000 -1.718080E+01
48.000000 32.000000 3.545317E+00
48.000000 30.000000 3.791235E+00
48.000000 28.000000 -7.160900E+00
48.000000 26.000000 -1.169821E+01
48.000000 24.000000 -1.015160E+01
48.000000 22.000000 -1.584966E+01
48.000000 20.000000 -3.131956E+01
48.000000 18.000000 -5.542144E+01
48.000000 16.000000 -6.568562E+01
48.000000 14.000000 -6.010338E+01
48.000000 12.000000 -3.823782E+01
48.000000 10.000000 -2.231430E+01
48.000000 8.000000 -1.920497E+01
48.000000 6.000000 -1.735100E+01
48.000000 4.000000 -1.266425E+01
48.000000 2.000000 -1.571429E+01
48.000000 0.000000 -2.841291E+01
48.000000 -2.000000 -3.824231E+01
48.000000 -4.000000 -3.053599E+01
48.000000 -6.000000 -1.465810E+01
48.000000 -8.000000 -1.145413E+01
48.000000 -10.000000 -1.505438E+01
48.000000 -12.000000 -3.287241E+01
48.000000 -14.000000 -7.345593E+01
48.000000 -16.000000 -1.296439E+02
48.000000 -18.000000 -1.662724E+02
48.000000 -20.000000 -1.567080E+02
48.000000 -22.000000 -1.000869E+02
48.000000 -24.000000 -3.948821E+01
48.000000 -26.000000 -2.181787E+01
48.000000 -28.000000 -4.062877E+01
48.000000 -30.000000 -5.388695E+01
48.000000 -32.000000 -4.540767E+01
48.000000 -34.000000 -2.788954E+01
48.000000 -36.000000 -2.820408E+01
48.000000 -38.000000 -3.250486E+01
48.000000 -40.000000 -3.309025E+01
50.000000 40.000000 -7.372060E+01
50.000000 38.000000 -6.004859E+01
50.000000 36.000000 -3.881598E+01
50.000000 34.000000 -1.128593E+01
50.000000 32.000000 1.089358E+01
50.000000 30.000000 9.704946E+00
50.000000 28.000000 -3.819861E-01
50.000000 26.000000 -4.260298E+00
50.000000 24.000000 2.940208E+00
50.000000 22.000000 6.143330E+00
50.000000 20.000000 3.803959E-01
50.000000 18.000000 -1.738609E+01
50.000000 16.000000 -2.730821E+01
50.000000 14.000000 -2.752055E+01
50.000000 12.000000 -2.140758E+01
50.000000 10.000000 -1.917059E+01
50.000000 8.000000 -2.341977E+01
50.000000 6.000000 -2.751138E+01
50.000000 4.000000 -2.649742E+01
50.000000 2.000000 -2.893034E+01
50.000000 0.000000 -3.884671E+01
50.000000 -2.000000 -4.432360E+01
50.000000 -4.000000 -3.429107E+01
50.000000 -6.000000 -1.726715E+01
50.000000 -8.000000 -1.086102E+01
50.000000 -10.000000 -1.217596E+01
50.000000 -12.000000 -3.763929E+01
50.000000 -14.000000 -7.855922E+01
50.000000 -16.000000 -1.234265E+02
50.000000 -18.000000 -1.486786E+02
50.000000 -20.000000 -1.375607E+02
50.000000 -22.000000 -9.312416E+01
50.000000 -24.000000 -5.060168E+01
50.000000 -26.000000 -4.648910E+01
50.000000 -28.000000 -6.448076E+01
50.000000 -30.000000 -7.226061E+01
50.000000 -32.000000 -5.671737E+01
50.000000 -34.000000 -3.227026E+01
50.000000 -36.000000 -2.688330E+01
50.000000 -38.000000 -2.688129E+01
50.000000 -40.000000 -2.530965E+01
52.000000 40.000000 -8.197935E+01
52.000000 38.000000 -6.773966E+01
52.000000 36.000000 -4.242853E+01
52.000000 34.000000 -1.050068E+01
52.000000 32.000000 1.299933E+01
52.000000 30.000000 1.228968E+01
52.000000 28.000000 9.978690E-01
52.000000 26.000000 -4.848153E+00
52.000000 24.000000 5.521865E+00
52.000000 22.000000 2.134098E+01
52.000000 20.000000 2.777661E+01
52.000000 18.000000 1.916351E+01
52.000000 16.000000 1.038046E+01
52.000000 14.000000 5.811094E+00
52.000000 12.000000 5.119291E+00
52.000000 10.000000 2.766672E+00
52.000000 8.000000 -6.215470E+00
52.000000 6.000000 -1.229262E+01
52.000000 4.000000 -1.824094E+01
52.000000 2.000000 -2.909288E+01
52.000000 0.000000 -4.477986E+01
52.000000 -2.000000 -5.443867E+01
52.000000 -4.000000 -5.146594E+01
52.000000 -6.000000 -4.093600E+01
52.000000 -8.000000 -3.349692E+01
52.000000 -10.000000 -3.372859E+01
52.000000 -12.000000 -5.521776E+01
52.000000 -14.000000 -8.743318E+01
52.000000 -16.000000 -1.147344E+02
52.000000 -18.000000 -1.241307E+02
52.000000 -20.000000 -1.120263E+02
52.000000 -22.000000 -8.192558E+01
52.000000 -24.000000 -5.984105E+01
52.000000 -26.000000 -6.636118E+01
52.000000 -28.000000 -8.398318E+01
52.000000 -30.000000 -8.371380E+01
52.000000 -32.000000 -5.944117E+01
52.000000 -34.000000 -3.184788E+01
52.000000 -36.000000 -2.000307E+01
52.000000 -38.000000 -1.512528E+01
52.000000 -40.000000 -1.437284E+01
54.000000 40.000000 -8.438757E+01
54.000000 38.000000 -7.419083E+01
54.000000 36.000000 -5.270637E+01
54.000000 34.000000 -2.284571E+01
54.000000 32.000000 1.732522E+00
54.000000 30.000000 3.642223E+00
54.000000 28.000000 -8.374362E+00
54.000000 26.000000 -1.401666E+01
54.000000 24.000000 -5.251880E-01
54.000000 22.000000 2.350636E+01
54.000000 20.000000 3.528834E+01
54.000000 18.000000 3.248173E+01
54.000000 16.000000 3.139223E+01
54.000000 14.000000 3.385815E+01
54.000000 12.000000 3.598355E+01
54.000000 10.000000 3.498761E+01
54.000000 8.000000 2.447598E+01
54.000000 6.000000 1.887367E+01
54.000000 4.000000 7.626261E+00
54.000000 2.000000 -1.399282E+01
54.000000 0.000000 -4.121824E+01
54.000000 -2.000000 -6.473597E+01
54.000000 -4.000000 -7.629067E+01
54.000000 -6.000000 -7.057356E+01
54.000000 -8.000000 -6.051807E+01
54.000000 -10.000000 -5.971495E+01
54.000000 -12.000000 -7.107557E+01
54.000000 -14.000000 -9.105959E+01
54.000000 -16.000000 -1.059614E+02
54.000000 -18.000000 -1.036370E+02
54.000000 -20.000000 -9.064323E+01
54.000000 -22.000000 -6.911633E+01
54.000000 -24.000000 -5.946552E+01
54.000000 -26.000000 -6.682854E+01
54.000000 -28.000000 -8.020383E+01
54.000000 -30.000000 -7.635915E+01
54.000000 -32.000000 -5.069689E+01
54.000000 -34.000000 -2.411489E+01
54.000000 -36.000000 -9.919593E+00
54.000000 -38.000000 -6.284588E+00
54.000000 -40.000000 -9.140356E+00
56.000000 40.000000 -8.070757E+01
56.000000 38.000000 -7.804114E+01
56.000000 36.000000 -6.331310E+01
56.000000 34.000000 -4.070314E+01
56.000000 32.000000 -1.830639E+01
56.000000 30.000000 -1.227050E+01
56.000000 28.000000 -2.012861E+01
56.000000 26.000000 -2.134615E+01
56.000000 24.000000 -4.309508E+00
56.000000 22.000000 2.187790E+01
56.000000 20.000000 3.183753E+01
56.000000 18.000000 2.897093E+01
56.000000 16.000000 3.150388E+01
56.000000 14.000000 3.943892E+01
56.000000 12.000000 4.323042E+01
56.000000 10.000000 4.260926E+01
56.000000 8.000000 3.654527E+01
56.000000 6.000000 3.623707E+01
56.000000 4.000000 2.616224E+01
56.000000 2.000000 -2.436485E-01
56.000000 0.000000 -3.657038E+01
56.000000 -2.000000 -7.219425E+01
56.000000 -4.000000 -9.362184E+01
56.000000 -6.000000 -8.912392E+01
56.000000 -8.000000 -7.536227E+01
56.000000 -10.000000 -6.764145E+01
56.000000 -12.000000 -6.431149E+01
56.000000 -14.000000 -7.100117E+01
56.000000 -16.000000 -8.137481E+01
56.000000 -18.000000 -7.992321E+01
56.000000 -20.000000 -7.122754E+01
56.000000 -22.000000 -5.458511E+01
56.000000 -24.000000 -4.514026E+01
56.000000 -26.000000 -4.977898E+01
56.000000 -28.000000 -5.895573E+01
56.000000 -30.000000 -5.375590E+01
56.000000 -32.000000 -3.158988E+01
56.000000 -34.000000 -1.235603E+01
56.000000 -36.000000 -4.696089E+00
56.000000 -38.000000 -2.270441E+00
56.000000 -40.000000 -8.788362E+00
58.000000 40.000000 -7.353423E+01
58.000000 38.000000 -7.920593E+01
58.000000 36.000000 -7.408573E+01
58.000000 34.000000 -5.778499E+01
58.000000 32.000000 -3.365237E+01
58.000000 30.000000 -2.145616E+01
58.000000 28.000000 -2.346282E+01
58.000000 26.000000 -1.802528E+01
58.000000 24.000000 9.682810E-01
58.000000 22.000000 2.160503E+01
58.000000 20.000000 2.752173E+01
58.000000 18.000000 2.194899E+01
58.000000 16.000000 2.154171E+01
58.000000 14.000000 2.565597E+01
58.000000 12.000000 2.895058E+01
58.000000 10.000000 2.743519E+01
58.000000 8.000000 2.824940E+01
58.000000 6.000000 3.116236E+01
58.000000 4.000000 2.496379E+01
58.000000 2.000000 1.880765E+00
58.000000 0.000000 -3.348947E+01
58.000000 -2.000000 -6.959851E+01
58.000000 -4.000000 -9.081293E+01
58.000000 -6.000000 -8.563673E+01
58.000000 -8.000000 -7.070201E+01
58.000000 -10.000000 -5.828147E+01
58.000000 -12.000000 -4.593957E+01
58.000000 -14.000000 -4.382006E+01
58.000000 -16.000000 -5.377057E+01
58.000000 -18.000000 -5.867804E+01
58.000000 -20.000000 -5.621691E+01
58.000000 -22.000000 -4.321424E+01
58.000000 -24.000000 -3.377272E+01
58.000000 -26.000000 -3.163806E+01
58.000000 -28.000000 -3.753670E+01
58.000000 -30.000000 -3.094440E+01
58.000000 -32.000000 -1.188432E+01
58.000000 -34.000000 -3.618250E-01
58.000000 -36.000000 -2.537554E+00
58.000000 -38.000000 -5.535035E+00
58.000000 -40.000000 -1.297785E+01
60.000000 40.000000 -6.903311E+01
60.000000 38.000000 -7.780501E+01
60.000000 36.000000 -7.873588E+01
