-16.000000 -18.000000 2.078356E+01
-16.000000 -20.000000 1.876985E+01
-16.000000 -22.000000 2.540113E+01
-16.000000 -24.000000 3.499327E+01
-16.000000 -26.000000 3.865099E+01
-16.000000 -28.000000 3.245269E+01
-16.000000 -30.000000 2.303584E+01
-16.000000 -32.000000 1.620378E+01
-16.000000 -34.000000 1.432478E+01
-16.000000 -36.000000 1.148199E+01
-16.000000 -38.000000 7.172862E+00
-16.000000 -40.000000 -4.197377E+00
-14.000000 40.000000 3.172626E+00
-14.000000 38.000000 -1.019997E+01
-14.000000 36.000000 -1.924552E+01
-14.000000 34.000000 -2.647873E+01
-14.000000 32.000000 -2.489090E+01
-14.000000 30.000000 -1.621184E+01
-14.000000 28.000000 -7.935131E+00
-14.000000 26.000000 -1.621456E+00
-14.000000 24.000000 3.991917E+00
-14.000000 22.000000 -6.759388E+00
-14.000000 20.000000 -1.227120E+01
-14.000000 18.000000 -9.752779E+00
-14.000000 16.000000 -1.151801E+01
-14.000000 14.000000 -3.305201E+01
-14.000000 12.000000 -7.196319E+01
-14.000000 10.000000 -1.047725E+02
-14.000000 8.000000 -9.961436E+01
-14.000000 6.000000 -7.234696E+01
-14.000000 4.000000 -3.410929E+01
-14.000000 2.000000 -5.562487E+00
-14.000000 0.000000 9.133781E+00
-14.000000 -2.000000 9.424727E+00
-14.000000 -4.000000 1.878143E+00
-14.000000 -6.000000 -1.361293E+00
-14.000000 -8.000000 1.328556E+00
-14.000000 -10.000000 8.808482E+00
-14.000000 -12.000000 1.686899E+01
-14.000000 -14.000000 2.080968E+01
-14.000000 -16.000000 2.262119E+01
-14.000000 -18.000000 2.066012E+01
-14.000000 -20.000000 1.781464E+01
-14.000000 -22.000000 2.466938E+01
-14.000000 -24.000000 3.751670E+01
-14.000000 -26.000000 4.567004E+01
-14.000000 -28.000000 4.204399E+01
-14.000000 -30.000000 3.330041E+01
-14.000000 -32.000000 2.469025E+01
-14.000000 -34.000000 2.060609E+01
-14.000000 -36.000000 1.655341E+01
-14.000000 -38.000000 1.104688E+01
-14.000000 -40.000000 -2.470989E+00
-12.000000 40.000000 8.622013E+00
-12.000000 38.000000 -8.768791E+00
-12.000000 36.000000 -1.821178E+01
-12.000000 34.000000 -2.382758E+01
-12.000000 32.000000 -2.026827E+01
-12.000000 30.000000 -1.024511E+01
-12.000000 28.000000 -6.582626E+00
-12.000000 26.000000 -6.989742E+00
-12.000000 24.000000 -6.658451E+00
-12.000000 22.000000 -1.281846E+01
-12.000000 20.000000 -7.506824E+00
-12.000000 18.000000 7.718887E+00
-12.000000 16.000000 1.124792E+01
-12.000000 14.000000 -1.198563E+01
-12.000000 12.000000 -6.031001E+01
-12.000000 10.000000 -1.078108E+02
-12.000000 8.000000 -1.176905E+02
-12.000000 6.000000 -9.767055E+01
-12.000000 4.000000 -5.679742E+01
-12.000000 2.000000 -1.862975E+01
-12.000000 0.000000 6.422558E+00
-12.000000 -2.000000 1.330903E+01
-12.000000 -4.000000 1.002292E+01
-12.000000 -6.000000 9.483020E+00
-12.000000 -8.000000 1.158555E+01
-12.000000 -10.000000 1.731455E+01
-12.000000 -12.000000 2.335436E+01
-12.000000 -14.000000 2.656843E+01
-12.000000 -16.000000 2.855784E+01
-12.000000 -18.000000 2.569057E+01
-12.000000 -20.000000 2.088639E+01
-12.000000 -22.000000 2.607203E+01
-12.000000 -24.000000 3.951548E+01
-12.000000 -26.000000 4.990919E+01
-12.000000 -28.000000 4.797824E+01
-12.000000 -30.000000 4.007553E+01
-12.000000 -32.000000 3.133436E+01
-12.000000 -34.000000 2.676382E+01
-12.000000 -36.000000 2.144581E+01
-12.000000 -38.000000 1.428259E+01
-12.000000 -40.000000 -1.619228E+00
-10.000000 40.000000 1.395372E+01
-10.000000 38.000000 -3.597267E+00
-10.000000 36.000000 -9.788349E+00
-10.000000 34.000000 -1.315568E+01
-10.000000 32.000000 -9.787601E+00
-10.000000 30.000000 -2.451191E+00
-10.000000 28.000000 -8.990757E+00
-10.000000 26.000000 -2.105017E+01
-10.000000 24.000000 -3.084624E+01
-10.000000 22.000000 -3.592399E+01
-10.000000 20.000000 -2.352014E+01
-10.000000 18.000000 3.018913E+00
-10.000000 16.000000 1.450072E+01
-10.000000 14.000000 -4.331051E+00
-10.000000 12.000000 -5.157050E+01
-10.000000 10.000000 -1.002322E+02
-10.000000 8.000000 -1.159750E+02
-10.000000 6.000000 -1.009961E+02
-10.000000 4.000000 -6.260113E+01
-10.000000 2.000000 -2.361496E+01
-10.000000 0.000000 4.448225E+00
-10.000000 -2.000000 1.626820E+01
-10.000000 -4.000000 1.785847E+01
-10.000000 -6.000000 1.993595E+01
-10.000000 -8.000000 2.220566E+01
-10.000000 -10.000000 2.686492E+01
-10.000000 -12.000000 3.129306E+01
-10.000000 -14.000000 3.545510E+01
-10.000000 -16.000000 3.875584E+01
-10.000000 -18.000000 3.576998E+01
-10.000000 -20.000000 2.892265E+01
-10.000000 -22.000000 3.112524E+01
-10.000000 -24.000000 4.266660E+01
-10.000000 -26.000000 5.224347E+01
-10.000000 -28.000000 5.005331E+01
-10.000000 -30.000000 4.258670E+01
-10.000000 -32.000000 3.495271E+01
-10.000000 -34.000000 3.172148E+01
-10.000000 -36.000000 2.495685E+01
-10.000000 -38.000000 1.549995E+01
-10.000000 -40.000000 -2.330164E+00
-8.000000 40.000000 1.798466E+01
-8.000000 38.000000 3.471741E+00
-8.000000 36.000000 3.242756E+00
-8.000000 34.000000 7.044445E+00
-8.000000 32.000000 1.111245E+01
-8.000000 30.000000 7.998852E+00
-8.000000 28.000000 -1.182935E+01
-8.000000 26.000000 -3.501809E+01
-8.000000 24.000000 -5.494857E+01
-8.000000 22.000000 -6.154479E+01
-8.000000 20.000000 -5.024021E+01
-8.000000 18.000000 -2.263174E+01
-8.000000 16.000000 -7.273052E+00
-8.000000 14.000000 -1.971010E+01
-8.000000 12.000000 -5.654806E+01
-8.000000 10.000000 -9.200870E+01
-8.000000 8.000000 -1.001789E+02
-8.000000 6.000000 -8.420011E+01
-8.000000 4.000000 -5.035489E+01
-8.000000 2.000000 -1.798988E+01
-8.000000 0.000000 5.778389E+00
-8.000000 -2.000000 1.843233E+01
-8.000000 -4.000000 2.287145E+01
-8.000000 -6.000000 2.648745E+01
-8.000000 -8.000000 2.962938E+01
-8.000000 -10.000000 3.453830E+01
-8.000000 -12.000000 3.762786E+01
-8.000000 -14.000000 4.283801E+01
-8.000000 -16.000000 4.743649E+01
-8.000000 -18.000000 4.471069E+01
-8.000000 -20.000000 3.633484E+01
-8.000000 -22.000000 3.623984E+01
-8.000000 -24.000000 4.601353E+01
-8.000000 -26.000000 5.308822E+01
-8.000000 -28.000000 4.933875E+01
-8.000000 -30.000000 4.232764E+01
-8.000000 -32.000000 3.682538E+01
-8.000000 -34.000000 3.579714E+01
-8.000000 -36.000000 2.769472E+01
-8.000000 -38.000000 1.547710E+01
-8.000000 -40.000000 -4.354786E+00
-6.000000 40.000000 2.067324E+01
-6.000000 38.000000 8.807457E+00
-6.000000 36.000000 1.508037E+01
-6.000000 34.000000 2.873520E+01
-6.000000 32.000000 3.403632E+01
-6.000000 30.000000 1.875368E+01
-6.000000 28.000000 -1.198078E+01
-6.000000 26.000000 -3.946719E+01
-6.000000 24.000000 -6.103057E+01
-6.000000 22.000000 -7.065778E+01
-6.000000 20.000000 -6.847339E+01
-6.000000 18.000000 -5.132800E+01
-6.000000 16.000000 -4.051163E+01
-6.000000 14.000000 -5.093623E+01
-6.000000 12.000000 -7.481968E+01
-6.000000 10.000000 -9.183090E+01
-6.000000 8.000000 -8.309194E+01
-6.000000 6.000000 -5.871192E+01
-6.000000 4.000000 -2.798365E+01
-6.000000 2.000000 -4.814577E+00
-6.000000 0.000000 1.094716E+01
-6.000000 -2.000000 1.819681E+01
-6.000000 -4.000000 1.945761E+01
-6.000000 -6.000000 2.183252E+01
-6.000000 -8.000000 2.740473E+01
-6.000000 -10.000000 3.458146E+01
-6.000000 -12.000000 3.723181E+01
-6.000000 -14.000000 4.281745E+01
-6.000000 -16.000000 4.849132E+01
-6.000000 -18.000000 4.594248E+01
-6.000000 -20.000000 3.717588E+01
-6.000000 -22.000000 3.675066E+01
-6.000000 -24.000000 4.637473E+01
-6.000000 -26.000000 5.232722E+01
-6.000000 -28.000000 4.761910E+01
-6.000000 -30.000000 4.180349E+01
-6.000000 -32.000000 3.876514E+01
-6.000000 -34.000000 3.966785E+01
-6.000000 -36.000000 3.035701E+01
-6.000000 -38.000000 1.554769E+01
-6.000000 -40.000000 -6.415556E+00
-4.000000 40.000000 2.240796E+01
-4.000000 38.000000 1.121598E+01
-4.000000 36.000000 2.228366E+01
-4.000000 34.000000 4.250558E+01
-4.000000 32.000000 4.743884E+01
-4.000000 30.000000 2.474439E+01
-4.000000 28.000000 -9.718483E+00
-4.000000 26.000000 -3.333666E+01
-4.000000 24.000000 -4.747419E+01
-4.000000 22.000000 -5.995277E+01
-4.000000 20.000000 -7.002877E+01
-4.000000 18.000000 -6.678682E+01
-4.000000 16.000000 -6.394596E+01
-4.000000 14.000000 -7.662528E+01
-4.000000 12.000000 -9.063984E+01
-4.000000 10.000000 -9.093492E+01
-4.000000 8.000000 -6.506052E+01
-4.000000 6.000000 -3.245731E+01
-4.000000 4.000000 -5.792450E+00
-4.000000 2.000000 6.800936E+00
-4.000000 0.000000 1.239774E+01
-4.000000 -2.000000 1.077493E+01
-4.000000 -4.000000 5.000242E+00
-4.000000 -6.000000 4.647379E+00
-4.000000 -8.000000 1.328430E+01
-4.000000 -10.000000 2.340476E+01
-4.000000 -12.000000 2.788021E+01
-4.000000 -14.000000 3.400396E+01
-4.000000 -16.000000 4.041590E+01
-4.000000 -18.000000 3.850710E+01
-4.000000 -20.000000 3.022899E+01
-4.000000 -22.000000 3.041345E+01
-4.000000 -24.000000 4.120647E+01
-4.000000 -26.000000 4.901785E+01
-4.000000 -28.000000 4.569692E+01
-4.000000 -30.000000 4.211262E+01
-4.000000 -32.000000 4.118747E+01
-4.000000 -34.000000 4.336297E+01
-4.000000 -36.000000 3.345648E+01
-4.000000 -38.000000 1.688149E+01
-4.000000 -40.000000 -7.114193E+00
-2.000000 40.000000 2.348458E+01
-2.000000 38.000000 1.174522E+01
-2.000000 36.000000 2.355704E+01
-2.000000 34.000000 4.365751E+01
-2.000000 32.000000 4.696423E+01
-2.000000 30.000000 2.276701E+01
-2.000000 28.000000 -8.636608E+00
-2.000000 26.000000 -2.602536E+01
-2.000000 24.000000 -3.235848E+01
-2.000000 22.000000 -4.397317E+01
-2.000000 20.000000 -5.859272E+01
-2.000000 18.000000 -6.279373E+01
-2.000000 16.000000 -6.449026E+01
-2.000000 14.000000 -7.746671E+01
-2.000000 12.000000 -8.614865E+01
-2.000000 10.000000 -7.661940E+01
-2.000000 8.000000 -4.433927E+01
-2.000000 6.000000 -1.240842E+01
-2.000000 4.000000 6.596788E+00
-2.000000 2.000000 1.030061E+01
-2.000000 0.000000 8.107218E+00
-2.000000 -2.000000 -8.907442E-01
-2.000000 -4.000000 -1.353057E+01
-2.000000 -6.000000 -1.680736E+01
-2.000000 -8.000000 -5.537623E+00
-2.000000 -10.000000 7.072536E+00
-2.000000 -12.000000 1.444930E+01
-2.000000 -14.000000 2.117360E+01
-2.000000 -16.000000 2.830380E+01
-2.000000 -18.000000 2.720601E+01
-2.000000 -20.000000 1.933474E+01
-2.000000 -22.000000 2.053147E+01
-2.000000 -24.000000 3.257307E+01
-2.000000 -26.000000 4.235453E+01
-2.000000 -28.000000 4.124769E+01
-2.000000 -30.000000 4.006746E+01
-2.000000 -32.000000 4.157099E+01
-2.000000 -34.000000 4.615467E+01
-2.000000 -36.000000 3.760393E+01
-2.000000 -38.000000 2.010595E+01
-2.000000 -40.000000 -6.016780E+00
0.000000 40.000000 2.442994E+01
0.000000 38.000000 1.039972E+01
0.000000 36.000000 1.796209E+01
0.000000 34.000000 3.172585E+01
0.000000 32.000000 3.299116E+01
0.000000 30.000000 1.180734E+01
0.000000 28.000000 -1.277727E+01
0.000000 26.000000 -2.554979E+01
0.000000 24.000000 -2.863794E+01
0.000000 22.000000 -3.600723E+01
0.000000 20.000000 -4.413243E+01
0.000000 18.000000 -4.618642E+01
0.000000 16.000000 -4.636987E+01
0.000000 14.000000 -5.331219E+01
0.000000 12.000000 -5.842640E+01
0.000000 10.000000 -4.984937E+01
0.000000 8.000000 -2.691567E+01
0.000000 6.000000 -4.094250E+00
0.000000 4.000000 8.509541E+00
0.000000 2.000000 9.348270E+00
0.000000 0.000000 5.274159E+00
0.000000 -2.000000 -6.093318E+00
0.000000 -4.000000 -2.238310E+01
0.000000 -6.000000 -2.828906E+01
0.000000 -8.000000 -1.791649E+01
0.000000 -10.000000 -4.830645E+00
0.000000 -12.000000 5.795797E+00
0.000000 -14.000000 1.298280E+01
0.000000 -16.000000 1.957039E+01
0.000000 -18.000000 1.841271E+01
0.000000 -20.000000 1.120568E+01
0.000000 -22.000000 1.365763E+01
0.000000 -24.000000 2.548280E+01
0.000000 -26.000000 3.422361E+01
0.000000 -28.000000 3.249933E+01
0.000000 -30.000000 3.169666E+01
0.000000 -32.000000 3.642437E+01
0.000000 -34.000000 4.651922E+01
0.000000 -36.000000 4.246117E+01
0.000000 -38.000000 2.467400E+01
0.000000 -40.000000 -4.006618E+00
2.000000 40.000000 2.542333E+01
2.000000 38.000000 6.016701E+00
2.000000 36.000000 5.572498E+00
2.000000 34.000000 9.602818E+00
2.000000 32.000000 9.301689E+00
2.000000 30.000000 -5.591171E+00
2.000000 28.000000 -2.297467E+01
2.000000 26.000000 -3.256212E+01
2.000000 24.000000 -3.408714E+01
2.000000 22.000000 -3.694603E+01
2.000000 20.000000 -3.749102E+01
2.000000 18.000000 -2.955800E+01
2.000000 16.000000 -2.028706E+01
2.000000 14.000000 -1.709179E+01
2.000000 12.000000 -2.021040E+01
2.000000 10.000000 -2.094238E+01
2.000000 8.000000 -1.793847E+01
2.000000 6.000000 -8.844891E+00
2.000000 4.000000 1.189789E+00
2.000000 2.000000 7.098346E+00
2.000000 0.000000 8.688225E+00
2.000000 -2.000000 6.802254E-01
2.000000 -4.000000 -1.528457E+01
2.000000 -6.000000 -2.260853E+01
2.000000 -8.000000 -1.645525E+01
2.000000 -10.000000 -5.044545E+00
2.000000 -12.000000 6.697455E+00
2.000000 -14.000000 1.371937E+01
2.000000 -16.000000 1.850532E+01
2.000000 -18.000000 1.613828E+01
2.000000 -20.000000 9.879068E+00
2.000000 -22.000000 1.291320E+01
2.000000 -24.000000 2.318460E+01
2.000000 -26.000000 2.869461E+01
2.000000 -28.000000 2.253582E+01
2.000000 -30.000000 1.738650E+01
2.000000 -32.000000 2.523795E+01
2.000000 -34.000000 4.434519E+01
2.000000 -36.000000 4.681380E+01
2.000000 -38.000000 2.899351E+01
2.000000 -40.000000 -2.675993E+00
4.000000 40.000000 2.470697E+01
4.000000 38.000000 -1.933815E+00
4.000000 36.000000 -1.073556E+01
4.000000 34.000000 -1.486823E+01
4.000000 32.000000 -1.509112E+01
4.000000 30.000000 -2.280170E+01
4.000000 28.000000 -3.351018E+01
4.000000 26.000000 -4.066076E+01
4.000000 24.000000 -4.228625E+01
4.000000 22.000000 -4.342587E+01
4.000000 20.000000 -4.014544E+01
4.000000 18.000000 -2.233074E+01
4.000000 16.000000 -1.699406E+00
4.000000 14.000000 1.036384E+01
4.000000 12.000000 7.244881E+00
4.000000 10.000000 -4.966858E+00
4.000000 8.000000 -2.259141E+01
4.000000 6.000000 -2.687823E+01
4.000000 4.000000 -1.351470E+01
4.000000 2.000000 7.505973E+00
4.000000 0.000000 2.317456E+01
4.000000 -2.000000 2.237060E+01
4.000000 -4.000000 7.986058E+00
4.000000 -6.000000 -2.311475E+00
4.000000 -8.000000 -1.598680E+00
4.000000 -10.000000 6.825117E+00
4.000000 -12.000000 1.441018E+01
4.000000 -14.000000 1.861843E+01
4.000000 -16.000000 2.141713E+01
4.000000 -18.000000 1.791497E+01
4.000000 -20.000000 1.209992E+01
4.000000 -22.000000 1.513898E+01
4.000000 -24.000000 2.440583E+01
4.000000 -26.000000 2.774308E+01
4.000000 -28.000000 1.790018E+01
4.000000 -30.000000 8.164898E+00
4.000000 -32.000000 1.679681E+01
4.000000 -34.000000 4.124961E+01
4.000000 -36.000000 4.776269E+01
4.000000 -38.000000 3.044372E+01
4.000000 -40.000000 -3.547700E+00
6.000000 40.000000 2.061908E+01
6.000000 38.000000 -1.218742E+01
6.000000 36.000000 -2.676241E+01
6.000000 34.000000 -3.434511E+01
6.000000 32.000000 -3.239519E+01
6.000000 30.000000 -3.429247E+01
6.000000 28.000000 -3.866015E+01
6.000000 26.000000 -4.356938E+01
6.000000 24.000000 -4.652377E+01
6.000000 22.000000 -4.938035E+01
6.000000 20.000000 -4.677628E+01
6.000000 18.000000 -2.496241E+01
6.000000 16.000000 2.068531E+00
6.000000 14.000000 1.705059E+01
6.000000 12.000000 1.006305E+01
6.000000 10.000000 -1.359697E+01
6.000000 8.000000 -4.720520E+01
6.000000 6.000000 -6.062041E+01
6.000000 4.000000 -3.748986E+01
6.000000 2.000000 6.706485E+00
6.000000 0.000000 4.471700E+01
6.000000 -2.000000 5.616792E+01
6.000000 -4.000000 4.407210E+01
6.000000 -6.000000 2.713830E+01
6.000000 -8.000000 1.786252E+01
6.000000 -10.000000 1.800199E+01
6.000000 -12.000000 1.912295E+01
6.000000 -14.000000 2.116361E+01
6.000000 -16.000000 2.419928E+01
6.000000 -18.000000 2.230425E+01
6.000000 -20.000000 1.835152E+01
6.000000 -22.000000 2.138919E+01
6.000000 -24.000000 2.934615E+01
6.000000 -26.000000 3.191403E+01
6.000000 -28.000000 2.320338E+01
6.000000 -30.000000 1.453439E+01
6.000000 -32.000000 1.989102E+01
6.000000 -34.000000 3.911214E+01
6.000000 -36.000000 4.355785E+01
6.000000 -38.000000 2.684836E+01
6.000000 -40.000000 -8.175898E+00
8.000000 40.000000 1.409678E+01
8.000000 38.000000 -2.186707E+01
8.000000 36.000000 -3.946288E+01
8.000000 34.000000 -4.713075E+01
8.000000 32.000000 -4.219429E+01
8.000000 30.000000 -3.917267E+01
8.000000 28.000000 -3.814576E+01
8.000000 26.000000 -4.021997E+01
8.000000 24.000000 -4.283233E+01
8.000000 22.000000 -4.876385E+01
8.000000 20.000000 -4.993792E+01
8.000000 18.000000 -3.195656E+01
8.000000 16.000000 -7.808036E+00
8.000000 14.000000 1.815239E+00
8.000000 12.000000 -1.304194E+01
8.000000 10.000000 -4.815931E+01
8.000000 8.000000 -8.981627E+01
8.000000 6.000000 -1.058892E+02
8.000000 4.000000 -7.070681E+01
8.000000 2.000000 -1.125064E+00
8.000000 0.000000 6.400057E+01
8.000000 -2.000000 9.290136E+01
8.000000 -4.000000 8.425962E+01
8.000000 -6.000000 5.661984E+01
8.000000 -8.000000 3.206790E+01
8.000000 -10.000000 1.845545E+01
8.000000 -12.000000 1.580381E+01
8.000000 -14.000000 2.245492E+01
8.000000 -16.000000 3.296924E+01
8.000000 -18.000000 3.664466E+01
8.000000 -20.000000 3.494548E+01
8.000000 -22.000000 3.561316E+01
8.000000 -24.000000 3.925904E+01
8.000000 -26.000000 4.052862E+01
8.000000 -28.000000 3.484074E+01
8.000000 -30.000000 2.927876E+01
8.000000 -32.000000 3.086247E+01
8.000000 -34.000000 4.138073E+01
8.000000 -36.000000 3.840319E+01
8.000000 -38.000000 1.850517E+01
8.000000 -40.000000 -1.805099E+01
10.000000 40.000000 8.534546E+00
10.000000 38.000000 -2.865606E+01
10.000000 36.000000 -4.816925E+01
10.000000 34.000000 -5.505404E+01
10.000000 32.000000 -4.735592E+01
10.000000 30.000000 -4.030123E+01
10.000000 28.000000 -3.551737E+01
10.000000 26.000000 -3.413405E+01
10.000000 24.000000 -3.345293E+01
10.000000 22.000000 -4.176884E+01
10.000000 20.000000 -4.801733E+01
10.000000 18.000000 -4.143080E+01
10.000000 16.000000 -2.907518E+01
10.000000 14.000000 -2.999344E+01
10.000000 12.000000 -5.223799E+01
10.000000 10.000000 -9.450103E+01
10.000000 8.000000 -1.363762E+02
10.000000 6.000000 -1.501293E+02
10.000000 4.000000 -1.045437E+02
10.000000 2.000000 -1.564825E+01
10.000000 0.000000 7.236090E+01
10.000000 -2.000000 1.198890E+02
10.000000 -4.000000 1.186369E+02
10.000000 -6.000000 8.031872E+01
10.000000 -8.000000 3.802544E+01
10.000000 -10.000000 9.783422E+00
10.000000 -12.000000 1.006190E+01
10.000000 -14.000000 3.034111E+01
10.000000 -16.000000 5.624830E+01
10.000000 -18.000000 6.774036E+01
10.000000 -20.000000 6.456992E+01
10.000000 -22.000000 5.674444E+01
10.000000 -24.000000 5.128349E+01
10.000000 -26.000000 4.903951E+01
10.000000 -28.000000 4.464445E+01
10.000000 -30.000000 4.117294E+01
10.000000 -32.000000 4.118120E+01
10.000000 -34.000000 4.533685E+01
10.000000 -36.000000 3.328753E+01
10.000000 -38.000000 7.404802E+00
10.000000 -40.000000 -3.074327E+01
12.000000 40.000000 7.836189E+00
12.000000 38.000000 -3.110709E+01
12.000000 36.000000 -5.326467E+01
12.000000 34.000000 -6.081068E+01
12.000000 32.000000 -5.170748E+01
12.000000 30.000000 -4.168411E+01
12.000000 28.000000 -3.388846E+01
12.000000 26.000000 -2.948421E+01
12.000000 24.000000 -2.481257E+01
12.000000 22.000000 -3.563979E+01
12.000000 20.000000 -4.806821E+01
12.000000 18.000000 -5.108585E+01
12.000000 16.000000 -4.920035E+01
12.000000 14.000000 -6.001404E+01
12.000000 12.000000 -8.733461E+01
12.000000 10.000000 -1.327064E+02
12.000000 8.000000 -1.719967E+02
12.000000 6.000000 -1.842060E+02
12.000000 4.000000 -1.354703E+02
12.000000 2.000000 -3.818608E+01
12.000000 0.000000 6.366959E+01
12.000000 -2.000000 1.281087E+02
12.000000 -4.000000 1.395112E+02
12.000000 -6.000000 9.626432E+01
12.000000 -8.000000 4.009681E+01
12.000000 -10.000000 2.523108E+00
12.000000 -12.000000 1.376523E+01
12.000000 -14.000000 5.497510E+01
12.000000 -16.000000 9.856771E+01
12.000000 -18.000000 1.144915E+02
12.000000 -20.000000 1.021469E+02
12.000000 -22.000000 7.897461E+01
12.000000 -24.000000 5.966094E+01
12.000000 -26.000000 5.107882E+01
12.000000 -28.000000 4.606460E+01
12.000000 -30.000000 4.308570E+01
12.000000 -32.000000 4.222300E+01
12.000000 -34.000000 4.252664E+01
12.000000 -36.000000 2.521910E+01
12.000000 -38.000000 -2.531326E+00
12.000000 -40.000000 -4.056877E+01
14.000000 40.000000 1.291663E+01
14.000000 38.000000 -2.895098E+01
14.000000 36.000000 -5.491909E+01
14.000000 34.000000 -6.538633E+01
14.000000 32.000000 -5.628878E+01
14.000000 30.000000 -4.442197E+01
14.000000 28.000000 -3.528840E+01
14.000000 26.000000 -2.983774E+01
14.000000 24.000000 -2.390320E+01
14.000000 22.000000 -3.580722E+01
14.000000 20.000000 -4.992903E+01
14.000000 18.000000 -5.341487E+01
14.000000 16.000000 -5.452987E+01
14.000000 14.000000 -7.176864E+01
14.000000 12.000000 -1.045406E+02
14.000000 10.000000 -1.512408E+02
14.000000 8.000000 -1.898404E+02
14.000000 6.000000 -2.050188E+02
14.000000 4.000000 -1.625905E+02
14.000000 2.000000 -6.882132E+01
14.000000 0.000000 3.711429E+01
14.000000 -2.000000 1.143408E+02
14.000000 -4.000000 1.408446E+02
14.000000 -6.000000 1.033223E+02
14.000000 -8.000000 4.401428E+01
14.000000 -10.000000 7.036803E+00
14.000000 -12.000000 3.501198E+01
14.000000 -14.000000 1.003082E+02
14.000000 -16.000000 1.583157E+02
14.000000 -18.000000 1.687723E+02
14.000000 -20.000000 1.366189E+02
14.000000 -22.000000 9.352301E+01
14.000000 -24.000000 6.001740E+01
14.000000 -26.000000 4.494573E+01
14.000000 -28.000000 3.883489E+01
14.000000 -30.000000 3.516596E+01
14.000000 -32.000000 3.339028E+01
14.000000 -34.000000 3.295412E+01
14.000000 -36.000000 1.550414E+01
14.000000 -38.000000 -1.057404E+01
14.000000 -40.000000 -4.758850E+01
16.000000 40.000000 2.265308E+01
16.000000 38.000000 -2.301102E+01
16.000000 36.000000 -5.284224E+01
16.000000 34.000000 -6.677453E+01
16.000000 32.000000 -5.724048E+01
16.000000 30.000000 -4.498743E+01
16.000000 28.000000 -3.878883E+01
16.000000 26.000000 -3.681958E+01
16.000000 24.000000 -3.487669E+01
16.000000 22.000000 -4.258187E+01
16.000000 20.000000 -4.861006E+01
16.000000 18.000000 -4.459258E+01
16.000000 16.000000 -4.440803E+01
16.000000 14.000000 -6.431663E+01
16.000000 12.000000 -1.029585E+02
16.000000 10.000000 -1.512022E+02
16.000000 8.000000 -1.908370E+02
16.000000 6.000000 -2.119368E+02
16.000000 4.000000 -1.814530E+02
16.000000 2.000000 -9.950504E+01
16.000000 0.000000 8.793068E-01
16.000000 -2.000000 8.206215E+01
16.000000 -4.000000 1.192367E+02
16.000000 -6.000000 9.557622E+01
16.000000 -8.000000 4.841577E+01
16.000000 -10.000000 2.757869E+01
16.000000 -12.000000 7.890859E+01
16.000000 -14.000000 1.653510E+02
16.000000 -16.000000 2.275875E+02
16.000000 -18.000000 2.191950E+02
16.000000 -20.000000 1.584053E+02
16.000000 -22.000000 9.482450E+01
16.000000 -24.000000 5.195790E+01
16.000000 -26.000000 3.381029E+01
16.000000 -28.000000 2.768424E+01
16.000000 -30.000000 2.393816E+01
16.000000 -32.000000 2.113927E+01
16.000000 -34.000000 2.159684E+01
16.000000 -36.000000 5.908587E+00
16.000000 -38.000000 -1.928597E+01
16.000000 -40.000000 -5.553171E+01
18.000000 40.000000 3.561751E+01
18.000000 38.000000 -1.336154E+01
18.000000 36.000000 -4.570242E+01
18.000000 34.000000 -6.125638E+01
18.000000 32.000000 -5.187088E+01
18.000000 30.000000 -4.152282E+01
18.000000 28.000000 -4.113134E+01
18.000000 26.000000 -4.574011E+01
18.000000 24.000000 -5.030069E+01
18.000000 22.000000 -5.241463E+01
18.000000 20.000000 -4.762113E+01
18.000000 18.000000 -3.342218E+01
18.000000 16.000000 -2.884627E+01
18.000000 14.000000 -4.609061E+01
18.000000 12.000000 -8.544877E+01
18.000000 10.000000 -1.339159E+02
18.000000 8.000000 -1.760551E+02
18.000000 6.000000 -2.043928E+02
18.000000 4.000000 -1.885645E+02
18.000000 2.000000 -1.233083E+02
18.000000 0.000000 -3.651035E+01
18.000000 -2.000000 3.821491E+01
18.000000 -4.000000 7.718497E+01
18.000000 -6.000000 7.148070E+01
18.000000 -8.000000 5.246183E+01
18.000000 -10.000000 6.544058E+01
18.000000 -12.000000 1.454221E+02
18.000000 -14.000000 2.442950E+02
18.000000 -16.000000 2.935425E+02
18.000000 -18.000000 2.533072E+02
18.000000 -20.000000 1.606882E+02
18.000000 -22.000000 8.068483E+01
18.000000 -24.000000 3.557220E+01
18.000000 -26.000000 2.029499E+01
18.000000 -28.000000 1.623084E+01
18.000000 -30.000000 1.409628E+01
18.000000 -32.000000 1.109180E+01
18.000000 -34.000000 1.150865E+01
18.000000 -36.000000 -3.783531E+00
18.000000 -38.000000 -2.907467E+01
18.000000 -40.000000 -6.499186E+01
20.000000 40.000000 4.955426E+01
20.000000 38.000000 2.478600E-02
20.000000 36.000000 -3.325579E+01
20.000000 34.000000 -4.980838E+01
20.000000 32.000000 -4.190364E+01
20.000000 30.000000 -3.393108E+01
20.000000 28.000000 -3.764563E+01
20.000000 26.000000 -4.710401E+01
20.000000 24.000000 -5.738205E+01
20.000000 22.000000 -5.711578E+01
20.000000 20.000000 -4.631822E+01
20.000000 18.000000 -2.537224E+01
20.000000 16.000000 -1.590287E+01
20.000000 14.000000 -2.821584E+01
20.000000 12.000000 -6.341496E+01
20.000000 10.000000 -1.092502E+02
20.000000 8.000000 -1.528810E+02
20.000000 6.000000 -1.854006E+02
20.000000 4.000000 -1.819974E+02
20.000000 2.000000 -1.348950E+02
20.000000 0.000000 -6.591245E+01
20.000000 -2.000000 -1.686234E+00
20.000000 -4.000000 3.539158E+01
20.000000 -6.000000 4.626205E+01
20.000000 -8.000000 6.151228E+01
20.000000 -10.000000 1.139181E+02
20.000000 -12.000000 2.180063E+02
20.000000 -14.000000 3.168093E+02
20.000000 -16.000000 3.388457E+02
20.000000 -18.000000 2.596470E+02
20.000000 -20.000000 1.375897E+02
20.000000 -22.000000 4.893058E+01
20.000000 -24.000000 1.096749E+01
20.000000 -26.000000 6.358187E+00
20.000000 -28.000000 7.157909E+00
20.000000 -30.000000 7.877916E+00
20.000000 -32.000000 5.037764E+00
20.000000 -34.000000 3.640562E+00
20.000000 -36.000000 -1.321188E+01
20.000000 -38.000000 -3.840067E+01
20.000000 -40.000000 -7.394736E+01
22.000000 40.000000 6.140572E+01
22.000000 38.000000 1.595339E+01
22.000000 36.000000 -1.716868E+01
22.000000 34.000000 -3.732607E+01
22.000000 32.000000 -3.107449E+01
22.000000 30.000000 -2.259392E+01
22.000000 28.000000 -2.565089E+01
22.000000 26.000000 -3.655317E+01
22.000000 24.000000 -4.877831E+01
22.000000 22.000000 -4.990766E+01
22.000000 20.000000 -4.015676E+01
22.000000 18.000000 -2.028754E+01
22.000000 16.000000 -8.679559E+00
22.000000 14.000000 -1.675142E+01
22.000000 12.000000 -4.556707E+01
22.000000 10.000000 -8.519313E+01
22.000000 8.000000 -1.267127E+02
22.000000 6.000000 -1.593584E+02
22.000000 4.000000 -1.638551E+02
22.000000 2.000000 -1.314976E+02
22.000000 0.000000 -7.711106E+01
22.000000 -2.000000 -2.026781E+01
22.000000 -4.000000 1.603336E+01
22.000000 -6.000000 3.787177E+01
22.000000 -8.000000 7.881185E+01
22.000000 -10.000000 1.594949E+02
22.000000 -12.000000 2.730228E+02
22.000000 -14.000000 3.584950E+02
22.000000 -16.000000 3.466742E+02
22.000000 -18.000000 2.300767E+02
22.000000 -20.000000 8.743987E+01
22.000000 -22.000000 1.647297E+00
22.000000 -24.000000 -1.866592E+01
22.000000 -26.000000 -6.168541E+00
22.000000 -28.000000 2.290054E+00
22.000000 -30.000000 5.654716E+00
22.000000 -32.000000 1.548710E+00
22.000000 -34.000000 -2.305428E+00
22.000000 -36.000000 -2.072559E+01
22.000000 -38.000000 -4.482393E+01
22.000000 -40.000000 -7.949014E+01
24.000000 40.000000 6.923333E+01
24.000000 38.000000 3.054785E+01
24.000000 36.000000 -1.407801E+00
24.000000 34.000000 -2.577995E+01
24.000000 32.000000 -2.143562E+01
24.000000 30.000000 -1.122027E+01
24.000000 28.000000 -1.110183E+01
24.000000 26.000000 -1.989538E+01
24.000000 24.000000 -2.832497E+01
24.000000 22.000000 -3.120015E+01
24.000000 20.000000 -2.690067E+01
24.000000 18.000000 -1.458188E+01
24.000000 16.000000 -4.558389E+00
24.000000 14.000000 -9.054811E+00
24.000000 12.000000 -3.131699E+01
24.000000 10.000000 -6.432703E+01
24.000000 8.000000 -1.016178E+02
24.000000 6.000000 -1.324707E+02
24.000000 4.000000 -1.403823E+02
24.000000 2.000000 -1.154131E+02
24.000000 0.000000 -6.672315E+01
24.000000 -2.000000 -1.162918E+01
24.000000 -4.000000 2.686152E+01
24.000000 -6.000000 5.383209E+01
24.000000 -8.000000 1.020984E+02
24.000000 -10.000000 1.888065E+02
24.000000 -12.000000 2.937017E+02
24.000000 -14.000000 3.545675E+02
24.000000 -16.000000 3.106422E+02
24.000000 -18.000000 1.695738E+02
24.000000 -20.000000 2.200487E+01
24.000000 -22.000000 -5.021907E+01
24.000000 -24.000000 -4.719537E+01
24.000000 -26.000000 -1.566222E+01
24.000000 -28.000000 1.228596E+00
24.000000 -30.000000 6.661495E+00
24.000000 -32.000000 1.047699E+00
24.000000 -34.000000 -4.635628E+00
24.000000 -36.000000 -2.331326E+01
24.000000 -38.000000 -4.614834E+01
24.000000 -40.000000 -8.008407E+01
26.000000 40.000000 7.346350E+01
26.000000 38.000000 4.031434E+01
26.000000 36.000000 8.999879E+00
26.000000 34.000000 -1.771069E+01
26.000000 32.000000 -1.509394E+01
26.000000 30.000000 -3.895393E+00
26.000000 28.000000 -7.427006E-01
26.000000 26.000000 -5.410686E+00
26.000000 24.000000 -7.948437E+00
26.000000 22.000000 -1.097512E+01
26.000000 20.000000 -1.155115E+01
26.000000 18.000000 -5.535975E+00
26.000000 16.000000 2.148391E+00
26.000000 14.000000 -4.077053E-01
26.000000 12.000000 -1.869507E+01
26.000000 10.000000 -4.789215E+01
26.000000 8.000000 -8.166959E+01
26.000000 6.000000 -1.099202E+02
26.000000 4.000000 -1.184129E+02
26.000000 2.000000 -9.631950E+01
26.000000 0.000000 -4.850556E+01
26.000000 -2.000000 8.799286E+00
26.000000 -4.000000 5.275212E+01
26.000000 -6.000000 8.241538E+01
26.000000 -8.000000 1.257162E+02
26.000000 -10.000000 2.002603E+02
26.000000 -12.000000 2.820209E+02
26.000000 -14.000000 3.134164E+02
26.000000 -16.000000 2.476436E+02
26.000000 -18.000000 1.042303E+02
26.000000 -20.000000 -3.084370E+01
26.000000 -22.000000 -8.722064E+01
26.000000 -24.000000 -6.569865E+01
26.000000 -26.000000 -1.940148E+01
26.000000 -28.000000 3.458233E+00
26.000000 -30.000000 1.036294E+01
26.000000 -32.000000 4.523388E+00
26.000000 -34.000000 -1.813232E+00
26.000000 -36.000000 -1.983223E+01
26.000000 -38.000000 -4.264031E+01
26.000000 -40.000000 -7.652390E+01
28.000000 40.000000 7.632649E+01
28.000000 38.000000 4.525702E+01
28.000000 36.000000 1.216927E+01
28.000000 34.000000 -1.842315E+01
28.000000 32.000000 -1.810847E+01
28.000000 30.000000 -5.654385E+00
28.000000 28.000000 8.687620E-01
28.000000 26.000000 3.942490E-02
28.000000 24.000000 3.407137E+00
28.000000 22.000000 2.832247E+00
28.000000 20.000000 9.911680E-01
28.000000 18.000000 5.648968E+00
28.000000 16.000000 1.174913E+01
28.000000 14.000000 7.196736E+00
28.000000 12.000000 -1.107588E+01
28.000000 10.000000 -3.695352E+01
28.000000 8.000000 -6.543653E+01
28.000000 6.000000 -8.974031E+01
28.000000 4.000000 -9.849767E+01
28.000000 2.000000 -7.997586E+01
28.000000 0.000000 -3.539486E+01
28.000000 -2.000000 2.353135E+01
28.000000 -4.000000 7.427621E+01
28.000000 -6.000000 1.072422E+02
28.000000 -8.000000 1.430875E+02
28.000000 -10.000000 1.998229E+02
28.000000 -12.000000 2.543781E+02
28.000000 -14.000000 2.604769E+02
28.000000 -16.000000 1.868880E+02
28.000000 -18.000000 5.878893E+01
28.000000 -20.000000 -5.280272E+01
28.000000 -22.000000 -9.433665E+01
28.000000 -24.000000 -6.525329E+01
28.000000 -26.000000 -1.560248E+01
28.000000 -28.000000 9.285679E+00
28.000000 -30.000000 1.809347E+01
28.000000 -32.000000 1.295917E+01
28.000000 -34.000000 5.920677E+00
28.000000 -36.000000 -1.273551E+01
28.000000 -38.000000 -3.742735E+01
28.000000 -40.000000 -7.185114E+01
30.000000 40.000000 7.712700E+01
30.000000 38.000000 4.461291E+01
30.000000 36.000000 7.674024E+00
30.000000 34.000000 -2.918372E+01
30.000000 32.000000 -3.213280E+01
30.000000 30.000000 -1.787902E+01
30.000000 28.000000 -6.956311E+00
30.000000 26.000000 -3.062219E+00
30.000000 24.000000 8.098550E+00
30.000000 22.000000 1.275751E+01
30.000000 20.000000 1.214734E+01
30.000000 18.000000 1.716211E+01
30.000000 16.000000 2.123779E+01
30.000000 14.000000 1.252266E+01
30.000000 12.000000 -7.845329E+00
30.000000 10.000000 -3.060174E+01
30.000000 8.000000 -5.285580E+01
30.000000 6.000000 -7.350356E+01
30.000000 4.000000 -8.416567E+01
30.000000 2.000000 -7.222025E+01
30.000000 0.000000 -3.485814E+01
30.000000 -2.000000 2.149436E+01
30.000000 -4.000000 7.561304E+01
30.000000 -6.000000 1.141612E+02
30.000000 -8.000000 1.481837E+02
30.000000 -10.000000 1.926932E+02
30.000000 -12.000000 2.263869E+02
30.000000 -14.000000 2.175314E+02
30.000000 -16.000000 1.480476E+02
30.000000 -18.000000 4.368222E+01
30.000000 -20.000000 -4.082520E+01
30.000000 -22.000000 -6.993520E+01
30.000000 -24.000000 -4.528886E+01
30.000000 -26.000000 -5.896244E+00
30.000000 -28.000000 1.769629E+01
30.000000 -30.000000 2.902443E+01
30.000000 -32.000000 2.477895E+01
30.000000 -34.000000 1.606184E+01
30.000000 -36.000000 -5.199287E+00
30.000000 -38.000000 -3.293726E+01
30.000000 -40.000000 -6.858958E+01
32.000000 40.000000 7.301203E+01
32.000000 38.000000 3.666764E+01
32.000000 36.000000 -4.212663E+00
32.000000 34.000000 -4.594574E+01
32.000000 32.000000 -5.178809E+01
32.000000 30.000000 -3.657002E+01
32.000000 28.000000 -1.904451E+01
32.000000 26.000000 -5.185032E+00
32.000000 24.000000 1.398940E+01
32.000000 22.000000 2.309218E+01
32.000000 20.000000 2.363545E+01
32.000000 18.000000 2.703346E+01
32.000000 16.000000 2.843605E+01
32.000000 14.000000 1.596990E+01
32.000000 12.000000 -6.570677E+00
32.000000 10.000000 -2.726179E+01
32.000000 8.000000 -4.422184E+01
32.000000 6.000000 -6.259040E+01
32.000000 4.000000 -7.683337E+01
32.000000 2.000000 -7.357925E+01
32.000000 0.000000 -4.643622E+01
32.000000 -2.000000 2.189571E+00
32.000000 -4.000000 5.411967E+01
32.000000 -6.000000 9.887749E+01
32.000000 -8.000000 1.376622E+02
32.000000 -10.000000 1.785276E+02
32.000000 -12.000000 2.021160E+02
32.000000 -14.000000 1.892303E+02
32.000000 -16.000000 1.312694E+02
32.000000 -18.000000 5.178370E+01
32.000000 -20.000000 -9.757893E+00
32.000000 -22.000000 -3.056308E+01
32.000000 -24.000000 -1.330761E+01
32.000000 -26.000000 1.305852E+01
32.000000 -28.000000 2.981538E+01
32.000000 -30.000000 3.965744E+01
32.000000 -32.000000 3.575516E+01
32.000000 -34.000000 2.472091E+01
32.000000 -36.000000 6.890411E-01
32.000000 -38.000000 -2.884976E+01
32.000000 -40.000000 -6.641486E+01
34.000000 40.000000 6.303597E+01
34.000000 38.000000 2.155736E+01
34.000000 36.000000 -2.158915E+01
34.000000 34.000000 -6.350769E+01
34.000000 32.000000 -6.896989E+01
34.000000 30.000000 -5.236270E+01
34.000000 28.000000 -2.804204E+01
34.000000 26.000000 -4.541698E+00
34.000000 24.000000 1.942203E+01
34.000000 22.000000 3.047194E+01
34.000000 20.000000 3.243515E+01
34.000000 18.000000 3.473285E+01
34.000000 16.000000 3.357460E+01
34.000000 14.000000 1.837611E+01
34.000000 12.000000 -5.922775E+00
34.000000 10.000000 -2.551226E+01
34.000000 8.000000 -3.820191E+01
34.000000 6.000000 -5.215244E+01
34.000000 4.000000 -6.812078E+01
34.000000 2.000000 -7.551398E+01
34.000000 0.000000 -6.325764E+01
34.000000 -2.000000 -2.738837E+01
34.000000 -4.000000 1.807526E+01
34.000000 -6.000000 6.599269E+01
34.000000 -8.000000 1.106358E+02
34.000000 -10.000000 1.532872E+02
34.000000 -12.000000 1.770443E+02
34.000000 -14.000000 1.692364E+02
34.000000 -16.000000 1.254046E+02
34.000000 -18.000000 6.575850E+01
34.000000 -20.000000 2.055669E+01
34.000000 -22.000000 6.349915E+00
34.000000 -24.000000 1.874983E+01
34.000000 -26.000000 3.594786E+01
34.000000 -28.000000 4.397670E+01
34.000000 -30.000000 4.890289E+01
34.000000 -32.000000 4.439477E+01
34.000000 -34.000000 3.082206E+01
34.000000 -36.000000 4.445217E+00
34.000000 -38.000000 -2.567669E+01
34.000000 -40.000000 -6.473825E+01
36.000000 40.000000 4.846895E+01
36.000000 38.000000 2.392380E+00
36.000000 36.000000 -4.054837E+01
36.000000 34.000000 -7.744676E+01
36.000000 32.000000 -7.732910E+01
36.000000 30.000000 -5.678455E+01
36.000000 28.000000 -2.913704E+01
36.000000 26.000000 -4.942314E+00
36.000000 24.000000 1.751624E+01
36.000000 22.000000 2.827678E+01
36.000000 20.000000 3.210474E+01
36.000000 18.000000 3.884335E+01
36.000000 16.000000 3.786170E+01
36.000000 14.000000 1.946734E+01
36.000000 12.000000 -8.012623E+00
36.000000 10.000000 -2.803626E+01
36.000000 8.000000 -3.672800E+01
36.000000 6.000000 -4.363277E+01
36.000000 4.000000 -5.786604E+01
36.000000 2.000000 -7.289166E+01
36.000000 0.000000 -7.289588E+01
36.000000 -2.000000 -4.986625E+01
36.000000 -4.000000 -1.424208E+01
36.000000 -6.000000 3.068541E+01
36.000000 -8.000000 7.719445E+01
36.000000 -10.000000 1.213423E+02
36.000000 -12.000000 1.487838E+02
36.000000 -14.000000 1.497772E+02
36.000000 -16.000000 1.201134E+02
36.000000 -18.000000 7.483109E+01
36.000000 -20.000000 4.041640E+01
36.000000 -22.000000 3.037345E+01
36.000000 -24.000000 3.845286E+01
36.000000 -26.000000 4.986463E+01
36.000000 -28.000000 5.447290E+01
36.000000 -30.000000 5.590983E+01
36.000000 -32.000000 4.939906E+01
36.000000 -34.000000 3.441646E+01
36.000000 -36.000000 6.494507E+00
36.000000 -38.000000 -2.416572E+01
36.000000 -40.000000 -6.331099E+01
38.000000 40.000000 3.274523E+01
38.000000 38.000000 -1.650961E+01
38.000000 36.000000 -5.870642E+01
38.000000 34.000000 -8.765772E+01
38.000000 32.000000 -7.791374E+01
38.000000 30.000000 -5.160853E+01
38.000000 28.000000 -2.331133E+01
38.000000 26.000000 -3.861740E+00
38.000000 24.000000 1.216170E+01
38.000000 22.000000 2.004647E+01
38.000000 20.000000 2.607890E+01
38.000000 18.000000 3.959711E+01
38.000000 16.000000 3.971616E+01
38.000000 14.000000 1.664616E+01
38.000000 12.000000 -1.582084E+01
38.000000 10.000000 -3.946774E+01
38.000000 8.000000 -4.571927E+01
38.000000 6.000000 -4.641961E+01
38.000000 4.000000 -5.365532E+01
38.000000 2.000000 -6.563211E+01
38.000000 0.000000 -6.662518E+01
38.000000 -2.000000 -5.047908E+01
38.000000 -4.000000 -2.518892E+01
38.000000 -6.000000 9.249193E+00
38.000000 -8.000000 4.877714E+01
38.000000 -10.000000 8.800950E+01
38.000000 -12.000000 1.164936E+02
38.000000 -14.000000 1.258568E+02
38.000000 -16.000000 1.096577E+02
38.000000 -18.000000 7.645181E+01
38.000000 -20.000000 4.943390E+01
38.000000 -22.000000 4.092095E+01
38.000000 -24.000000 4.542727E+01
38.000000 -26.000000 5.294168E+01
38.000000 -28.000000 5.595644E+01
38.000000 -30.000000 5.478084E+01
38.000000 -32.000000 4.722740E+01
38.000000 -34.000000 3.339135E+01
38.000000 -36.000000 6.502644E+00
38.000000 -38.000000 -2.288155E+01
38.000000 -40.000000 -6.080113E+01
40.000000 40.000000 1.888539E+01
40.000000 38.000000 -3.238456E+01
40.000000 36.000000 -7.457486E+01
40.000000 34.000000 -9.444265E+01
40.000000 32.000000 -7.334598E+01
40.000000 30.000000 -4.113094E+01
40.000000 28.000000 -1.300932E+01
40.000000 26.000000 1.276151E+00
40.000000 24.000000 1.045605E+01
40.000000 22.000000 1.245083E+01
40.000000 20.000000 1.840102E+01
40.000000 18.000000 3.273437E+01
40.000000 16.000000 3.269049E+01
40.000000 14.000000 7.831729E+00
40.000000 12.000000 -2.698497E+01
40.000000 10.000000 -5.292714E+01
40.000000 8.000000 -5.746259E+01
40.000000 6.000000 -5.445581E+01
40.000000 4.000000 -5.219588E+01
40.000000 2.000000 -5.198471E+01
40.000000 0.000000 -4.532838E+01
40.000000 -2.000000 -3.182623E+01
40.000000 -4.000000 -1.662234E+01
40.000000 -6.000000 2.135378E+00
40.000000 -8.000000 2.687245E+01
40.000000 -10.000000 5.493653E+01
40.000000 -12.000000 8.133990E+01
40.000000 -14.000000 9.636446E+01
40.000000 -16.000000 9.214868E+01
40.000000 -18.000000 7.073634E+01
40.000000 -20.000000 5.024045E+01
40.000000 -22.000000 4.218375E+01
40.000000 -24.000000 4.419322E+01
40.000000 -26.000000 4.861146E+01
40.000000 -28.000000 4.857801E+01
40.000000 -30.000000 4.530901E+01
40.000000 -32.000000 3.922072E+01
40.000000 -34.000000 2.858412E+01
40.000000 -36.000000 5.088501E+00
40.000000 -38.000000 -2.101079E+01
40.000000 -40.000000 -5.708699E+01
42.000000 40.000000 7.356178E+00
42.000000 38.000000 -4.460918E+01
42.000000 36.000000 -8.467090E+01
42.000000 34.000000 -9.567956E+01
42.000000 32.000000 -6.584212E+01
42.000000 30.000000 -3.032685E+01
42.000000 28.000000 -3.793524E+00
42.000000 26.000000 6.805639E+00
42.000000 24.000000 1.186373E+01
42.000000 22.000000 6.639343E+00
42.000000 20.000000 8.054196E+00
42.000000 18.000000 2.156680E+01
42.000000 16.000000 2.363911E+01
42.000000 14.000000 1.807857E+00
42.000000 12.000000 -3.088006E+01
42.000000 10.000000 -5.742516E+01
42.000000 8.000000 -6.360201E+01
42.000000 6.000000 -6.019220E+01
42.000000 4.000000 -5.083719E+01
42.000000 2.000000 -3.721522E+01
42.000000 0.000000 -2.164460E+01
42.000000 -2.000000 -1.004033E+01
42.000000 -4.000000 -4.239916E+00
42.000000 -6.000000 -6.717796E-01
42.000000 -8.000000 8.740376E+00
42.000000 -10.000000 2.437701E+01
42.000000 -12.000000 4.836145E+01
42.000000 -14.000000 6.784000E+01
42.000000 -16.000000 7.415479E+01
42.000000 -18.000000 6.362771E+01
42.000000 -20.000000 4.730787E+01
42.000000 -22.000000 3.782328E+01
42.000000 -24.000000 3.738136E+01
42.000000 -26.000000 3.975194E+01
42.000000 -28.000000 3.755179E+01
42.000000 -30.000000 3.391246E+01
42.000000 -32.000000 3.001654E+01
42.000000 -34.000000 2.343483E+01
42.000000 -36.000000 3.939369E+00
42.000000 -38.000000 -1.989321E+01
42.000000 -40.000000 -5.455619E+01
44.000000 40.000000 -1.759548E-01
44.000000 38.000000 -5.044537E+01
44.000000 36.000000 -8.577952E+01
44.000000 34.000000 -9.139540E+01
44.000000 32.000000 -5.954533E+01
44.000000 30.000000 -2.547491E+01
44.000000 28.000000 -2.052633E+00
44.000000 26.000000 6.490136E+00
44.000000 24.000000 1.020279E+01
44.000000 22.000000 1.180992E+00
44.000000 20.000000 -1.487634E+00
44.000000 18.000000 1.294648E+01
44.000000 16.000000 1.963287E+01
44.000000 14.000000 4.639875E+00
44.000000 12.000000 -2.302588E+01
44.000000 10.000000 -4.873289E+01
44.000000 8.000000 -5.886538E+01
44.000000 6.000000 -5.820094E+01
44.000000 4.000000 -4.623401E+01
44.000000 2.000000 -2.753040E+01
44.000000 0.000000 -8.806297E+00
44.000000 -2.000000 1.264748E+00
44.000000 -4.000000 4.914513E-01
44.000000 -6.000000 -5.316853E+00
44.000000 -8.000000 -5.053640E+00
44.000000 -10.000000 3.302437E+00
44.000000 -12.000000 2.675224E+01
44.000000 -14.000000 5.122386E+01
44.000000 -16.000000 6.510339E+01
44.000000 -18.000000 6.095221E+01
44.000000 -20.000000 4.405875E+01
44.000000 -22.000000 3.027228E+01
44.000000 -24.000000 2.681267E+01
44.000000 -26.000000 2.865856E+01
44.000000 -28.000000 2.660821E+01
44.000000 -30.000000 2.368741E+01
44.000000 -32.000000 2.220396E+01
44.000000 -34.000000 1.991935E+01
44.000000 -36.000000 3.844448E+00
44.000000 -38.000000 -1.996624E+01
44.000000 -40.000000 -5.404897E+01
46.000000 40.000000 -4.374294E-01
46.000000 38.000000 -4.637513E+01
46.000000 36.000000 -7.663374E+01
46.000000 34.000000 -8.326360E+01
46.000000 32.000000 -5.762083E+01
46.000000 30.000000 -3.044094E+01
46.000000 28.000000 -1.340808E+01
46.000000 26.000000 -7.565479E+00
46.000000 24.000000 -3.577795E+00
46.000000 22.000000 -6.402527E+00
46.000000 20.000000 -4.945823E+00
46.000000 18.000000 1.048904E+01
46.000000 16.000000 2.182128E+01
46.000000 14.000000 1.638901E+01
46.000000 12.000000 -4.157482E+00
46.000000 10.000000 -2.658750E+01
46.000000 8.000000 -4.084923E+01
46.000000 6.000000 -4.603828E+01
46.000000 4.000000 -3.791278E+01
46.000000 2.000000 -2.169316E+01
46.000000 0.000000 -4.765944E+00
46.000000 -2.000000 3.310230E+00
46.000000 -4.000000 -1.379780E+00
46.000000 -6.000000 -1.089765E+01
46.000000 -8.000000 -1.347278E+01
46.000000 -10.000000 -5.548422E+00
46.000000 -12.000000 1.970277E+01
46.000000 -14.000000 4.772224E+01
46.000000 -16.000000 6.465420E+01
46.000000 -18.000000 6.090575E+01
46.000000 -20.000000 4.110924E+01
46.000000 -22.000000 2.341276E+01
46.000000 -24.000000 1.648327E+01
46.000000 -26.000000 1.822528E+01
46.000000 -28.000000 1.759200E+01
46.000000 -30.000000 1.509924E+01
46.000000 -32.000000 1.626254E+01
46.000000 -34.000000 1.768749E+01
46.000000 -36.000000 3.989529E+00
46.000000 -38.000000 -2.061867E+01
46.000000 -40.000000 -5.425869E+01
48.000000 40.000000 8.180729E+00
48.000000 38.000000 -3.311008E+01
48.000000 36.000000 -5.969420E+01
48.000000 34.000000 -7.189542E+01
48.000000 32.000000 -5.887867E+01
48.000000 30.000000 -4.508611E+01
48.000000 28.000000 -3.781145E+01
48.000000 26.000000 -3.321722E+01
48.000000 24.000000 -2.409957E+01
48.000000 22.000000 -1.366313E+01
48.000000 20.000000 -4.302715E+00
48.000000 18.000000 1.147693E+01
48.000000 16.000000 2.593913E+01
48.000000 14.000000 3.000486E+01
48.000000 12.000000 1.872143E+01
48.000000 10.000000 2.033896E+00
48.000000 8.000000 -1.508939E+01
48.000000 6.000000 -2.622915E+01
48.000000 4.000000 -2.575469E+01
48.000000 2.000000 -1.530818E+01
48.000000 0.000000 -3.112795E+00
48.000000 -2.000000 1.410372E+00
48.000000 -4.000000 -5.470679E+00
48.000000 -6.000000 -1.494717E+01
48.000000 -8.000000 -1.672392E+01
48.000000 -10.000000 -5.351318E+00
48.000000 -12.000000 2.227616E+01
48.000000 -14.000000 4.996319E+01
48.000000 -16.000000 6.513068E+01
48.000000 -18.000000 5.821776E+01
48.000000 -20.000000 3.743763E+01
48.000000 -22.000000 2.062452E+01
48.000000 -24.000000 1.272239E+01
48.000000 -26.000000 1.402193E+01
48.000000 -28.000000 1.311398E+01
48.000000 -30.000000 9.888102E+00
48.000000 -32.000000 1.138547E+01
48.000000 -34.000000 1.428523E+01
48.000000 -36.000000 1.954445E+00
48.000000 -38.000000 -2.202292E+01
48.000000 -40.000000 -5.419217E+01
50.000000 40.000000 2.189530E+01
50.000000 38.000000 -1.536741E+01
50.000000 36.000000 -3.879280E+01
50.000000 34.000000 -5.644409E+01
50.000000 32.000000 -5.786636E+01
50.000000 30.000000 -6.054150E+01
50.000000 28.000000 -6.200134E+01
50.000000 26.000000 -5.423840E+01
50.000000 24.000000 -3.683895E+01
50.000000 22.000000 -1.649902E+01
50.000000 20.000000 -4.378111E+00
50.000000 18.000000 9.004521E+00
50.000000 16.000000 2.347276E+01
50.000000 14.000000 3.188419E+01
50.000000 12.000000 2.810108E+01
50.000000 10.000000 1.869519E+01
50.000000 8.000000 4.083285E+00
50.000000 6.000000 -6.696029E+00
50.000000 4.000000 -9.626665E+00
50.000000 2.000000 -4.918191E+00
50.000000 0.000000 8.046703E-01
50.000000 -2.000000 1.173611E+00
50.000000 -4.000000 -6.647608E+00
50.000000 -6.000000 -1.404515E+01
50.000000 -8.000000 -1.322918E+01
50.000000 -10.000000 1.471901E-01
50.000000 -12.000000 2.597358E+01
50.000000 -14.000000 4.900641E+01
50.000000 -16.000000 5.879691E+01
50.000000 -18.000000 4.983352E+01
50.000000 -20.000000 3.217305E+01
50.000000 -22.000000 2.038735E+01
50.000000 -24.000000 1.586157E+01
50.000000 -26.000000 1.739165E+01
50.000000 -28.000000 1.438161E+01
50.000000 -30.000000 9.021320E+00
50.000000 -32.000000 7.468357E+00
50.000000 -34.000000 8.978846E+00
50.000000 -36.000000 -2.750326E+00
50.000000 -38.000000 -2.408891E+01
50.000000 -40.000000 -5.340997E+01
52.000000 40.000000 3.353663E+01
52.000000 38.000000 1.791296E+00
52.000000 36.000000 -1.727513E+01
52.000000 34.000000 -3.663829E+01
52.000000 32.000000 -4.735017E+01
52.000000 30.000000 -6.048913E+01
52.000000 28.000000 -6.464931E+01
52.000000 26.000000 -5.337606E+01
52.000000 24.000000 -3.401020E+01
52.000000 22.000000 -1.596574E+01
52.000000 20.000000 -8.595593E+00
52.000000 18.000000 -7.996511E-01
52.000000 16.000000 9.437130E+00
52.000000 14.000000 1.528361E+01
52.000000 12.000000 1.414063E+01
52.000000 10.000000 1.105248E+01
52.000000 8.000000 5.781564E+00
52.000000 6.000000 2.664732E+00
52.000000 4.000000 3.279340E+00
52.000000 2.000000 5.103005E+00
52.000000 0.000000 5.372586E+00
52.000000 -2.000000 3.002102E+00
52.000000 -4.000000 -3.095971E+00
52.000000 -6.000000 -7.098979E+00
52.000000 -8.000000 -4.511365E+00
52.000000 -10.000000 7.358068E+00
52.000000 -12.000000 2.566100E+01
52.000000 -14.000000 4.024912E+01
52.000000 -16.000000 4.403658E+01
52.000000 -18.000000 3.523298E+01
52.000000 -20.000000 2.214764E+01
52.000000 -22.000000 1.700966E+01
52.000000 -24.000000 1.903579E+01
52.000000 -26.000000 2.304999E+01
52.000000 -28.000000 1.922979E+01
52.000000 -30.000000 1.151540E+01
52.000000 -32.000000 5.742367E+00
52.000000 -34.000000 4.577930E+00
52.000000 -36.000000 -6.951742E+00
52.000000 -38.000000 -2.590335E+01
52.000000 -40.000000 -5.238247E+01
54.000000 40.000000 4.082212E+01
54.000000 38.000000 1.676255E+01
54.000000 36.000000 3.031304E+00
54.000000 34.000000 -1.417023E+01
54.000000 32.000000 -2.680366E+01
54.000000 30.000000 -4.182627E+01
54.000000 28.000000 -4.476751E+01
54.000000 26.000000 -3.405813E+01
54.000000 24.000000 -1.952343E+01
54.000000 22.000000 -1.220474E+01
54.000000 20.000000 -1.391636E+01
54.000000 18.000000 -1.303169E+01
54.000000 16.000000 -8.164398E+00
54.000000 14.000000 -6.670921E+00
54.000000 12.000000 -7.990388E+00
54.000000 10.000000 -9.033905E+00
54.000000 8.000000 -7.087022E+00
54.000000 6.000000 -4.297658E+00
