-14.000000 -40.000000 -7.322202E+01
-12.000000 40.000000 -7.012037E+01
-12.000000 38.000000 -7.936454E+01
-12.000000 36.000000 -7.767489E+01
-12.000000 34.000000 -7.735265E+01
-12.000000 32.000000 -8.157119E+01
-12.000000 30.000000 -8.436178E+01
-12.000000 28.000000 -7.641075E+01
-12.000000 26.000000 -6.642367E+01
-12.000000 24.000000 -5.642667E+01
-12.000000 22.000000 -4.528287E+01
-12.000000 20.000000 -3.973987E+01
-12.000000 18.000000 -4.263067E+01
-12.000000 16.000000 -6.575210E+01
-12.000000 14.000000 -1.118706E+02
-12.000000 12.000000 -1.696809E+02
-12.000000 10.000000 -2.142115E+02
-12.000000 8.000000 -1.870658E+02
-12.000000 6.000000 -1.106386E+02
-12.000000 4.000000 -2.916193E+01
-12.000000 2.000000 9.519156E+00
-12.000000 0.000000 2.103902E+01
-12.000000 -2.000000 1.965154E+01
-12.000000 -4.000000 1.736954E+01
-12.000000 -6.000000 9.130060E+00
-12.000000 -8.000000 -3.203845E+00
-12.000000 -10.000000 -1.280445E+01
-12.000000 -12.000000 -1.217016E+01
-12.000000 -14.000000 4.085114E+00
-12.000000 -16.000000 3.262757E+01
-12.000000 -18.000000 4.487002E+01
-12.000000 -20.000000 3.299006E+01
-12.000000 -22.000000 1.744321E+01
-12.000000 -24.000000 8.453462E+00
-12.000000 -26.000000 1.352184E+00
-12.000000 -28.000000 -8.027142E+00
-12.000000 -30.000000 -1.688436E+01
-12.000000 -32.000000 -2.161002E+01
-12.000000 -34.000000 -2.201726E+01
-12.000000 -36.000000 -3.447635E+01
-12.000000 -38.000000 -5.489120E+01
-12.000000 -40.000000 -8.044871E+01
-10.000000 40.000000 -8.672519E+01
-10.000000 38.000000 -1.139669E+02
-10.000000 36.000000 -1.145682E+02
-10.000000 34.000000 -1.048782E+02
-10.000000 32.000000 -9.753732E+01
-10.000000 30.000000 -8.933416E+01
-10.000000 28.000000 -7.316959E+01
-10.000000 26.000000 -6.002627E+01
-10.000000 24.000000 -5.227536E+01
-10.000000 22.000000 -4.720312E+01
-10.000000 20.000000 -4.563785E+01
-10.000000 18.000000 -5.050850E+01
-10.000000 16.000000 -7.326669E+01
-10.000000 14.000000 -1.182244E+02
-10.000000 12.000000 -1.763883E+02
-10.000000 10.000000 -2.232841E+02
-10.000000 8.000000 -1.978808E+02
-10.000000 6.000000 -1.166333E+02
-10.000000 4.000000 -2.150935E+01
-10.000000 2.000000 2.820014E+01
-10.000000 0.000000 4.528836E+01
-10.000000 -2.000000 4.387791E+01
-10.000000 -4.000000 4.026794E+01
-10.000000 -6.000000 2.844886E+01
-10.000000 -8.000000 9.259703E+00
-10.000000 -10.000000 -6.442349E+00
-10.000000 -12.000000 -1.674835E+01
-10.000000 -14.000000 -1.488062E+01
-10.000000 -16.000000 8.529043E-01
-10.000000 -18.000000 1.059487E+01
-10.000000 -20.000000 2.091116E+00
-10.000000 -22.000000 -9.727756E+00
-10.000000 -24.000000 -1.220669E+01
-10.000000 -26.000000 -1.279645E+01
-10.000000 -28.000000 -1.781218E+01
-10.000000 -30.000000 -2.471245E+01
-10.000000 -32.000000 -2.781275E+01
-10.000000 -34.000000 -2.652395E+01
-10.000000 -36.000000 -3.780394E+01
-10.000000 -38.000000 -5.752875E+01
-10.000000 -40.000000 -8.359947E+01
-8.000000 40.000000 -9.363513E+01
-8.000000 38.000000 -1.434721E+02
-8.000000 36.000000 -1.454074E+02
-8.000000 34.000000 -1.210160E+02
-8.000000 32.000000 -1.006299E+02
-8.000000 30.000000 -8.148408E+01
-8.000000 28.000000 -5.768117E+01
-8.000000 26.000000 -4.194804E+01
-8.000000 24.000000 -3.549084E+01
-8.000000 22.000000 -3.634811E+01
-8.000000 20.000000 -3.759309E+01
-8.000000 18.000000 -4.287297E+01
-8.000000 16.000000 -6.115221E+01
-8.000000 14.000000 -9.932199E+01
-8.000000 12.000000 -1.551748E+02
-8.000000 10.000000 -2.045753E+02
-8.000000 8.000000 -1.912378E+02
-8.000000 6.000000 -1.207908E+02
-8.000000 4.000000 -3.072274E+01
-8.000000 2.000000 2.039267E+01
-8.000000 0.000000 3.846617E+01
-8.000000 -2.000000 3.676169E+01
-8.000000 -4.000000 3.119083E+01
-8.000000 -6.000000 1.949075E+01
-8.000000 -8.000000 2.850920E+00
-8.000000 -10.000000 -1.127089E+01
-8.000000 -12.000000 -2.344867E+01
-8.000000 -14.000000 -2.907591E+01
-8.000000 -16.000000 -2.277707E+01
-8.000000 -18.000000 -1.508016E+01
-8.000000 -20.000000 -2.082692E+01
-8.000000 -22.000000 -2.867096E+01
-8.000000 -24.000000 -2.771668E+01
-8.000000 -26.000000 -2.398345E+01
-8.000000 -28.000000 -2.672702E+01
-8.000000 -30.000000 -3.326349E+01
-8.000000 -32.000000 -3.600104E+01
-8.000000 -34.000000 -3.271129E+01
-8.000000 -36.000000 -4.167835E+01
-8.000000 -38.000000 -6.003371E+01
-8.000000 -40.000000 -8.516003E+01
-6.000000 40.000000 -9.161252E+01
-6.000000 38.000000 -1.450047E+02
-6.000000 36.000000 -1.451948E+02
-6.000000 34.000000 -1.150548E+02
-6.000000 32.000000 -8.975004E+01
-6.000000 30.000000 -6.672785E+01
-6.000000 28.000000 -4.019019E+01
-6.000000 26.000000 -2.295436E+01
-6.000000 24.000000 -1.549775E+01
-6.000000 22.000000 -1.856983E+01
-6.000000 20.000000 -2.081003E+01
-6.000000 18.000000 -2.414286E+01
-6.000000 16.000000 -3.488687E+01
-6.000000 14.000000 -6.618964E+01
-6.000000 12.000000 -1.216062E+02
-6.000000 10.000000 -1.786369E+02
-6.000000 8.000000 -1.805303E+02
-6.000000 6.000000 -1.253553E+02
-6.000000 4.000000 -4.777095E+01
-6.000000 2.000000 -8.331146E-01
-6.000000 0.000000 1.349481E+01
-6.000000 -2.000000 8.516977E+00
-6.000000 -4.000000 5.338860E-01
-6.000000 -6.000000 -8.969446E+00
-6.000000 -8.000000 -1.940953E+01
-6.000000 -10.000000 -2.949718E+01
-6.000000 -12.000000 -3.655392E+01
-6.000000 -14.000000 -4.009679E+01
-6.000000 -16.000000 -3.660478E+01
-6.000000 -18.000000 -2.971254E+01
-6.000000 -20.000000 -3.107427E+01
-6.000000 -22.000000 -3.386045E+01
-6.000000 -24.000000 -3.225871E+01
-6.000000 -26.000000 -2.884673E+01
-6.000000 -28.000000 -3.351373E+01
-6.000000 -30.000000 -4.079923E+01
-6.000000 -32.000000 -4.378339E+01
-6.000000 -34.000000 -3.860513E+01
-6.000000 -36.000000 -4.454394E+01
-6.000000 -38.000000 -6.245917E+01
-6.000000 -40.000000 -8.678163E+01
-4.000000 40.000000 -8.070254E+01
-4.000000 38.000000 -1.122372E+02
-4.000000 36.000000 -1.080502E+02
-4.000000 34.000000 -8.641656E+01
-4.000000 32.000000 -6.756047E+01
-4.000000 30.000000 -5.013150E+01
-4.000000 28.000000 -2.838966E+01
-4.000000 26.000000 -1.243783E+01
-4.000000 24.000000 -2.783937E+00
-4.000000 22.000000 -5.118095E+00
-4.000000 20.000000 -6.264156E+00
-4.000000 18.000000 -4.771233E+00
-4.000000 16.000000 -7.171665E+00
-4.000000 14.000000 -3.029974E+01
-4.000000 12.000000 -8.378788E+01
-4.000000 10.000000 -1.482076E+02
-4.000000 8.000000 -1.648867E+02
-4.000000 6.000000 -1.248384E+02
-4.000000 4.000000 -5.893134E+01
-4.000000 2.000000 -1.855444E+01
-4.000000 0.000000 -8.921631E+00
-4.000000 -2.000000 -1.614871E+01
-4.000000 -4.000000 -2.590371E+01
-4.000000 -6.000000 -3.501454E+01
-4.000000 -8.000000 -4.209803E+01
-4.000000 -10.000000 -4.990238E+01
-4.000000 -12.000000 -5.136744E+01
-4.000000 -14.000000 -5.150503E+01
-4.000000 -16.000000 -4.670869E+01
-4.000000 -18.000000 -3.809735E+01
-4.000000 -20.000000 -3.483484E+01
-4.000000 -22.000000 -3.257770E+01
-4.000000 -24.000000 -3.087460E+01
-4.000000 -26.000000 -3.097170E+01
-4.000000 -28.000000 -3.879078E+01
-4.000000 -30.000000 -4.747628E+01
-4.000000 -32.000000 -5.084715E+01
-4.000000 -34.000000 -4.494765E+01
-4.000000 -36.000000 -4.756836E+01
-4.000000 -38.000000 -6.295411E+01
-4.000000 -40.000000 -8.536830E+01
-2.000000 40.000000 -5.565071E+01
-2.000000 38.000000 -6.475296E+01
-2.000000 36.000000 -5.666954E+01
-2.000000 34.000000 -4.613354E+01
-2.000000 32.000000 -3.972057E+01
-2.000000 30.000000 -3.377472E+01
-2.000000 28.000000 -2.188727E+01
-2.000000 26.000000 -1.085515E+01
-2.000000 24.000000 -1.768446E+00
-2.000000 22.000000 -3.163599E+00
-2.000000 20.000000 -2.391289E+00
-2.000000 18.000000 5.911026E+00
-2.000000 16.000000 1.309241E+01
-2.000000 14.000000 1.167973E+00
-2.000000 12.000000 -4.889140E+01
-2.000000 10.000000 -1.170195E+02
-2.000000 8.000000 -1.455832E+02
-2.000000 6.000000 -1.173874E+02
-2.000000 4.000000 -6.041241E+01
-2.000000 2.000000 -2.329435E+01
-2.000000 0.000000 -1.406603E+01
-2.000000 -2.000000 -2.092196E+01
-2.000000 -4.000000 -3.182304E+01
-2.000000 -6.000000 -4.321908E+01
-2.000000 -8.000000 -5.101723E+01
-2.000000 -10.000000 -5.872889E+01
-2.000000 -12.000000 -5.782093E+01
-2.000000 -14.000000 -5.688011E+01
-2.000000 -16.000000 -5.008879E+01
-2.000000 -18.000000 -3.828985E+01
-2.000000 -20.000000 -3.163686E+01
-2.000000 -22.000000 -2.761101E+01
-2.000000 -24.000000 -2.678853E+01
-2.000000 -26.000000 -3.107861E+01
-2.000000 -28.000000 -4.199925E+01
-2.000000 -30.000000 -5.323269E+01
-2.000000 -32.000000 -5.788620E+01
-2.000000 -34.000000 -5.208158E+01
-2.000000 -36.000000 -5.182848E+01
-2.000000 -38.000000 -6.248643E+01
-2.000000 -40.000000 -8.054091E+01
0.000000 40.000000 -1.943174E+01
0.000000 38.000000 -1.742833E+01
0.000000 36.000000 -8.939857E+00
0.000000 34.000000 -6.810389E+00
0.000000 32.000000 -1.263569E+01
0.000000 30.000000 -1.824523E+01
0.000000 28.000000 -1.627161E+01
0.000000 26.000000 -1.255717E+01
0.000000 24.000000 -8.847538E+00
0.000000 22.000000 -1.049958E+01
0.000000 20.000000 -8.793251E+00
0.000000 18.000000 4.833151E+00
0.000000 16.000000 2.194932E+01
0.000000 14.000000 1.977373E+01
0.000000 12.000000 -2.954114E+01
0.000000 10.000000 -1.024909E+02
0.000000 8.000000 -1.374066E+02
0.000000 6.000000 -1.125653E+02
0.000000 4.000000 -5.401678E+01
0.000000 2.000000 -1.178364E+01
0.000000 0.000000 2.134815E+00
0.000000 -2.000000 -4.093472E+00
0.000000 -4.000000 -1.738967E+01
0.000000 -6.000000 -3.362029E+01
0.000000 -8.000000 -4.594152E+01
0.000000 -10.000000 -5.473737E+01
0.000000 -12.000000 -5.239948E+01
0.000000 -14.000000 -4.839966E+01
0.000000 -16.000000 -3.923034E+01
0.000000 -18.000000 -2.542787E+01
0.000000 -20.000000 -1.680064E+01
0.000000 -22.000000 -1.476646E+01
0.000000 -24.000000 -1.725141E+01
0.000000 -26.000000 -2.538049E+01
0.000000 -28.000000 -3.926661E+01
0.000000 -30.000000 -5.316772E+01
0.000000 -32.000000 -5.979529E+01
0.000000 -34.000000 -5.577364E+01
0.000000 -36.000000 -5.522846E+01
0.000000 -38.000000 -6.295476E+01
0.000000 -40.000000 -7.706125E+01
2.000000 40.000000 1.677426E+01
2.000000 38.000000 2.131432E+01
2.000000 36.000000 2.794120E+01
2.000000 34.000000 2.448761E+01
2.000000 32.000000 1.192698E+01
2.000000 30.000000 -8.181515E-01
2.000000 28.000000 -6.125011E+00
2.000000 26.000000 -8.952260E+00
2.000000 24.000000 -1.208875E+01
2.000000 22.000000 -1.610999E+01
2.000000 20.000000 -1.530171E+01
2.000000 18.000000 -9.856529E-01
2.000000 16.000000 1.686497E+01
2.000000 14.000000 1.252635E+01
2.000000 12.000000 -3.829747E+01
2.000000 10.000000 -1.130116E+02
2.000000 8.000000 -1.469934E+02
2.000000 6.000000 -1.212717E+02
2.000000 4.000000 -5.404188E+01
2.000000 2.000000 9.859886E-01
2.000000 0.000000 2.520962E+01
2.000000 -2.000000 2.307310E+01
2.000000 -4.000000 8.772974E+00
2.000000 -6.000000 -1.211524E+01
2.000000 -8.000000 -2.941827E+01
2.000000 -10.000000 -3.848748E+01
2.000000 -12.000000 -3.412750E+01
2.000000 -14.000000 -2.630310E+01
2.000000 -16.000000 -1.585610E+01
2.000000 -18.000000 -2.684717E+00
2.000000 -20.000000 5.446457E+00
2.000000 -22.000000 5.292990E+00
2.000000 -24.000000 -4.119740E-01
2.000000 -26.000000 -1.181274E+01
2.000000 -28.000000 -2.708708E+01
2.000000 -30.000000 -4.275750E+01
2.000000 -32.000000 -5.218161E+01
2.000000 -34.000000 -5.221358E+01
2.000000 -36.000000 -5.531771E+01
2.000000 -38.000000 -6.346117E+01
2.000000 -40.000000 -7.671037E+01
4.000000 40.000000 4.371631E+01
4.000000 38.000000 4.686859E+01
4.000000 36.000000 5.116061E+01
4.000000 34.000000 4.526765E+01
4.000000 32.000000 3.181832E+01
4.000000 30.000000 1.719114E+01
4.000000 28.000000 8.415289E+00
4.000000 26.000000 2.166534E+00
4.000000 24.000000 -6.288799E+00
4.000000 22.000000 -1.557472E+01
4.000000 20.000000 -1.976938E+01
4.000000 18.000000 -1.149958E+01
4.000000 16.000000 -2.622795E-01
4.000000 14.000000 -9.942678E+00
4.000000 12.000000 -5.795890E+01
4.000000 10.000000 -1.270435E+02
4.000000 8.000000 -1.583217E+02
4.000000 6.000000 -1.354588E+02
4.000000 4.000000 -6.879438E+01
4.000000 2.000000 -5.951704E+00
4.000000 0.000000 3.112203E+01
4.000000 -2.000000 3.965926E+01
4.000000 -4.000000 3.018994E+01
4.000000 -6.000000 1.047100E+01
4.000000 -8.000000 -6.623409E+00
4.000000 -10.000000 -1.424010E+01
4.000000 -12.000000 -9.034927E+00
4.000000 -14.000000 5.604954E-01
4.000000 -16.000000 1.057676E+01
4.000000 -18.000000 2.031785E+01
4.000000 -20.000000 2.518339E+01
4.000000 -22.000000 2.408398E+01
4.000000 -24.000000 1.880130E+01
4.000000 -26.000000 8.272779E+00
4.000000 -28.000000 -6.310862E+00
4.000000 -30.000000 -2.241870E+01
4.000000 -32.000000 -3.495709E+01
4.000000 -34.000000 -4.085759E+01
4.000000 -36.000000 -5.127845E+01
4.000000 -38.000000 -6.281827E+01
4.000000 -40.000000 -7.842197E+01
6.000000 40.000000 5.808225E+01
6.000000 38.000000 5.833940E+01
6.000000 36.000000 6.072700E+01
6.000000 34.000000 5.519880E+01
6.000000 32.000000 4.337503E+01
6.000000 30.000000 3.028914E+01
6.000000 28.000000 2.261324E+01
6.000000 26.000000 1.584586E+01
6.000000 24.000000 5.082504E+00
6.000000 22.000000 -1.068419E+01
6.000000 20.000000 -2.257332E+01
6.000000 18.000000 -2.378913E+01
6.000000 16.000000 -1.850018E+01
6.000000 14.000000 -2.791864E+01
6.000000 12.000000 -6.935826E+01
6.000000 10.000000 -1.325188E+02
6.000000 8.000000 -1.654871E+02
6.000000 6.000000 -1.487775E+02
6.000000 4.000000 -9.166302E+01
6.000000 2.000000 -2.838201E+01
6.000000 0.000000 2.118294E+01
6.000000 -2.000000 4.537719E+01
6.000000 -4.000000 4.659835E+01
6.000000 -6.000000 3.125021E+01
6.000000 -8.000000 1.590055E+01
6.000000 -10.000000 8.054691E+00
6.000000 -12.000000 1.144633E+01
6.000000 -14.000000 2.026838E+01
6.000000 -16.000000 2.868872E+01
6.000000 -18.000000 3.350829E+01
6.000000 -20.000000 3.364899E+01
6.000000 -22.000000 3.207824E+01
6.000000 -24.000000 2.929388E+01
6.000000 -26.000000 2.418541E+01
6.000000 -28.000000 1.365804E+01
6.000000 -30.000000 7.793427E-01
6.000000 -32.000000 -1.182112E+01
6.000000 -34.000000 -2.300386E+01
6.000000 -36.000000 -4.195185E+01
6.000000 -38.000000 -5.973579E+01
6.000000 -40.000000 -8.006761E+01
8.000000 40.000000 6.030161E+01
8.000000 38.000000 5.660668E+01
8.000000 36.000000 5.718090E+01
8.000000 34.000000 5.365228E+01
8.000000 32.000000 4.399491E+01
8.000000 30.000000 3.406218E+01
8.000000 28.000000 3.108249E+01
8.000000 26.000000 2.625391E+01
8.000000 24.000000 1.591828E+01
8.000000 22.000000 -4.508823E+00
8.000000 20.000000 -2.111454E+01
8.000000 18.000000 -2.801004E+01
8.000000 16.000000 -2.577605E+01
8.000000 14.000000 -3.329571E+01
8.000000 12.000000 -7.093582E+01
8.000000 10.000000 -1.350569E+02
8.000000 8.000000 -1.768389E+02
8.000000 6.000000 -1.704980E+02
8.000000 4.000000 -1.206410E+02
8.000000 2.000000 -5.355561E+01
8.000000 0.000000 9.745955E+00
8.000000 -2.000000 5.220943E+01
8.000000 -4.000000 6.716875E+01
8.000000 -6.000000 5.512015E+01
8.000000 -8.000000 3.702907E+01
8.000000 -10.000000 2.414321E+01
8.000000 -12.000000 2.398595E+01
8.000000 -14.000000 3.044365E+01
8.000000 -16.000000 3.725219E+01
8.000000 -18.000000 3.738890E+01
8.000000 -20.000000 3.165225E+01
8.000000 -22.000000 2.712582E+01
8.000000 -24.000000 2.486372E+01
8.000000 -26.000000 2.530075E+01
8.000000 -28.000000 2.219704E+01
8.000000 -30.000000 1.597123E+01
8.000000 -32.000000 7.185221E+00
8.000000 -34.000000 -5.075377E+00
8.000000 -36.000000 -2.895534E+01
8.000000 -38.000000 -5.293648E+01
8.000000 -40.000000 -7.871202E+01
10.000000 40.000000 5.358942E+01
10.000000 38.000000 4.463848E+01
10.000000 36.000000 4.235537E+01
10.000000 34.000000 3.950468E+01
10.000000 32.000000 3.197363E+01
10.000000 30.000000 2.696287E+01
10.000000 28.000000 3.032362E+01
10.000000 26.000000 2.882418E+01
10.000000 24.000000 2.058875E+01
10.000000 22.000000 -5.414152E-01
10.000000 20.000000 -1.720041E+01
10.000000 18.000000 -2.407547E+01
10.000000 16.000000 -2.240777E+01
10.000000 14.000000 -3.144981E+01
10.000000 12.000000 -7.279297E+01
10.000000 10.000000 -1.436867E+02
10.000000 8.000000 -1.947998E+02
10.000000 6.000000 -1.984195E+02
10.000000 4.000000 -1.512360E+02
10.000000 2.000000 -7.680127E+01
10.000000 0.000000 6.512699E-01
10.000000 -2.000000 6.070840E+01
10.000000 -4.000000 9.025509E+01
10.000000 -6.000000 8.163873E+01
10.000000 -8.000000 5.912424E+01
10.000000 -10.000000 4.060781E+01
10.000000 -12.000000 3.654088E+01
10.000000 -14.000000 4.039458E+01
10.000000 -16.000000 4.479710E+01
10.000000 -18.000000 3.875884E+01
10.000000 -20.000000 2.498526E+01
10.000000 -22.000000 1.413245E+01
10.000000 -24.000000 1.026834E+01
10.000000 -26.000000 1.410354E+01
10.000000 -28.000000 1.748936E+01
10.000000 -30.000000 1.746022E+01
10.000000 -32.000000 1.380017E+01
10.000000 -34.000000 5.605965E+00
10.000000 -36.000000 -1.717746E+01
10.000000 -38.000000 -4.465738E+01
10.000000 -40.000000 -7.491729E+01
12.000000 40.000000 4.410570E+01
12.000000 38.000000 2.734517E+01
12.000000 36.000000 1.974611E+01
12.000000 34.000000 1.260745E+01
12.000000 32.000000 6.538912E+00
12.000000 30.000000 7.943397E+00
12.000000 28.000000 1.740040E+01
12.000000 26.000000 1.919590E+01
12.000000 24.000000 1.340810E+01
12.000000 22.000000 -4.337919E+00
12.000000 20.000000 -1.795728E+01
12.000000 18.000000 -2.040784E+01
12.000000 16.000000 -1.633864E+01
12.000000 14.000000 -2.807173E+01
12.000000 12.000000 -7.553101E+01
12.000000 10.000000 -1.527964E+02
12.000000 8.000000 -2.099887E+02
12.000000 6.000000 -2.221635E+02
12.000000 4.000000 -1.795605E+02
12.000000 2.000000 -1.033670E+02
12.000000 0.000000 -1.607013E+01
12.000000 -2.000000 6.034568E+01
12.000000 -4.000000 1.066898E+02
12.000000 -6.000000 1.065846E+02
12.000000 -8.000000 8.460699E+01
12.000000 -10.000000 6.582289E+01
12.000000 -12.000000 5.904283E+01
12.000000 -14.000000 5.960088E+01
12.000000 -16.000000 5.773769E+01
12.000000 -18.000000 3.995382E+01
12.000000 -20.000000 1.553141E+01
12.000000 -22.000000 -1.239142E+00
12.000000 -24.000000 -3.848207E+00
12.000000 -26.000000 3.120890E+00
12.000000 -28.000000 7.076591E+00
12.000000 -30.000000 8.880578E+00
12.000000 -32.000000 9.275503E+00
12.000000 -34.000000 6.866147E+00
12.000000 -36.000000 -1.136668E+01
12.000000 -38.000000 -3.970515E+01
12.000000 -40.000000 -7.265923E+01
14.000000 40.000000 3.966800E+01
14.000000 38.000000 1.028909E+01
14.000000 36.000000 -8.034630E+00
14.000000 34.000000 -2.397795E+01
14.000000 32.000000 -2.973310E+01
14.000000 30.000000 -2.232235E+01
14.000000 28.000000 -6.948843E+00
14.000000 26.000000 -2.228911E+00
14.000000 24.000000 -5.364055E+00
14.000000 22.000000 -1.622106E+01
14.000000 20.000000 -2.443168E+01
14.000000 18.000000 -2.078931E+01
14.000000 16.000000 -1.357611E+01
14.000000 14.000000 -2.485656E+01
14.000000 12.000000 -7.295373E+01
14.000000 10.000000 -1.514102E+02
14.000000 8.000000 -2.142327E+02
14.000000 6.000000 -2.368204E+02
14.000000 4.000000 -2.059540E+02
14.000000 2.000000 -1.366481E+02
14.000000 0.000000 -4.623067E+01
14.000000 -2.000000 4.492168E+01
14.000000 -4.000000 1.096703E+02
14.000000 -6.000000 1.243788E+02
14.000000 -8.000000 1.114327E+02
14.000000 -10.000000 1.010128E+02
14.000000 -12.000000 9.662711E+01
14.000000 -14.000000 9.052315E+01
14.000000 -16.000000 7.419471E+01
14.000000 -18.000000 4.070302E+01
14.000000 -20.000000 3.914864E+00
14.000000 -22.000000 -1.697106E+01
14.000000 -24.000000 -1.512839E+01
14.000000 -26.000000 -3.448321E+00
14.000000 -28.000000 -1.098079E+00
14.000000 -30.000000 -1.295627E+00
14.000000 -32.000000 1.666107E-01
14.000000 -34.000000 1.824560E+00
14.000000 -36.000000 -1.237892E+01
14.000000 -38.000000 -4.031237E+01
14.000000 -40.000000 -7.444362E+01
16.000000 40.000000 4.108589E+01
16.000000 38.000000 -3.312862E+00
16.000000 36.000000 -3.587963E+01
16.000000 34.000000 -6.007566E+01
16.000000 32.000000 -6.549088E+01
16.000000 30.000000 -5.363849E+01
16.000000 28.000000 -3.328355E+01
16.000000 26.000000 -2.503422E+01
16.000000 24.000000 -2.570151E+01
16.000000 22.000000 -2.933472E+01
16.000000 20.000000 -3.029774E+01
16.000000 18.000000 -2.042685E+01
16.000000 16.000000 -9.955026E+00
16.000000 14.000000 -1.845057E+01
16.000000 12.000000 -6.451565E+01
16.000000 10.000000 -1.414306E+02
16.000000 8.000000 -2.092656E+02
16.000000 6.000000 -2.421343E+02
16.000000 4.000000 -2.286533E+02
16.000000 2.000000 -1.728454E+02
16.000000 0.000000 -8.723779E+01
16.000000 -2.000000 1.184381E+01
16.000000 -4.000000 9.127167E+01
16.000000 -6.000000 1.251271E+02
16.000000 -8.000000 1.318180E+02
16.000000 -10.000000 1.386761E+02
16.000000 -12.000000 1.408770E+02
16.000000 -14.000000 1.278733E+02
16.000000 -16.000000 9.312158E+01
16.000000 -18.000000 4.265766E+01
16.000000 -20.000000 -5.629274E+00
16.000000 -22.000000 -2.892195E+01
16.000000 -24.000000 -2.266619E+01
16.000000 -26.000000 -7.124499E+00
16.000000 -28.000000 -4.350237E+00
16.000000 -30.000000 -7.015539E+00
16.000000 -32.000000 -7.915552E+00
16.000000 -34.000000 -5.344688E+00
16.000000 -36.000000 -1.852711E+01
16.000000 -38.000000 -4.644118E+01
16.000000 -40.000000 -8.080993E+01
18.000000 40.000000 3.685232E+01
18.000000 38.000000 -1.488905E+01
18.000000 36.000000 -5.288795E+01
18.000000 34.000000 -7.832951E+01
18.000000 32.000000 -8.174139E+01
18.000000 30.000000 -6.846080E+01
18.000000 28.000000 -4.783555E+01
18.000000 26.000000 -3.731914E+01
18.000000 24.000000 -3.478478E+01
18.000000 22.000000 -3.225384E+01
18.000000 20.000000 -2.720460E+01
18.000000 18.000000 -1.354423E+01
18.000000 16.000000 -1.793948E+00
18.000000 14.000000 -9.194228E+00
18.000000 12.000000 -5.499555E+01
18.000000 10.000000 -1.335961E+02
18.000000 8.000000 -2.053181E+02
18.000000 6.000000 -2.456002E+02
18.000000 4.000000 -2.439290E+02
18.000000 2.000000 -1.998541E+02
18.000000 0.000000 -1.231807E+02
18.000000 -2.000000 -2.778072E+01
18.000000 -4.000000 5.574174E+01
18.000000 -6.000000 1.073671E+02
18.000000 -8.000000 1.390347E+02
18.000000 -10.000000 1.675782E+02
18.000000 -12.000000 1.792482E+02
18.000000 -14.000000 1.634186E+02
18.000000 -16.000000 1.132086E+02
18.000000 -18.000000 4.739370E+01
18.000000 -20.000000 -8.413823E+00
18.000000 -22.000000 -3.188687E+01
18.000000 -24.000000 -2.325129E+01
18.000000 -26.000000 -7.039445E+00
18.000000 -28.000000 -6.538733E+00
18.000000 -30.000000 -1.216792E+01
18.000000 -32.000000 -1.641911E+01
18.000000 -34.000000 -1.547315E+01
18.000000 -36.000000 -2.966400E+01
18.000000 -38.000000 -5.647730E+01
18.000000 -40.000000 -8.956220E+01
20.000000 40.000000 2.638025E+01
20.000000 38.000000 -2.228603E+01
20.000000 36.000000 -5.485590E+01
20.000000 34.000000 -7.435160E+01
20.000000 32.000000 -7.488946E+01
20.000000 30.000000 -6.382547E+01
20.000000 28.000000 -4.699927E+01
20.000000 26.000000 -3.748470E+01
20.000000 24.000000 -3.202541E+01
20.000000 22.000000 -2.440577E+01
20.000000 20.000000 -1.633004E+01
20.000000 18.000000 -3.292379E+00
20.000000 16.000000 5.518744E+00
20.000000 14.000000 -3.257995E+00
20.000000 12.000000 -4.809256E+01
20.000000 10.000000 -1.256079E+02
20.000000 8.000000 -1.923221E+02
20.000000 6.000000 -2.300731E+02
20.000000 4.000000 -2.325203E+02
20.000000 2.000000 -2.009689E+02
20.000000 0.000000 -1.387003E+02
20.000000 -2.000000 -5.537773E+01
20.000000 -4.000000 2.415064E+01
20.000000 -6.000000 8.495897E+01
20.000000 -8.000000 1.355819E+02
20.000000 -10.000000 1.813293E+02
20.000000 -12.000000 2.021101E+02
20.000000 -14.000000 1.858948E+02
20.000000 -16.000000 1.278605E+02
20.000000 -18.000000 5.247956E+01
20.000000 -20.000000 -8.056024E+00
20.000000 -22.000000 -3.086450E+01
20.000000 -24.000000 -2.254943E+01
20.000000 -26.000000 -9.156079E+00
20.000000 -28.000000 -1.426748E+01
20.000000 -30.000000 -2.272152E+01
20.000000 -32.000000 -2.827653E+01
20.000000 -34.000000 -2.824946E+01
20.000000 -36.000000 -4.266746E+01
20.000000 -38.000000 -6.612461E+01
20.000000 -40.000000 -9.606078E+01
22.000000 40.000000 2.258242E+01
22.000000 38.000000 -1.939904E+01
22.000000 36.000000 -4.620454E+01
22.000000 34.000000 -5.979265E+01
22.000000 32.000000 -5.944684E+01
22.000000 30.000000 -5.113536E+01
22.000000 28.000000 -3.788499E+01
22.000000 26.000000 -3.218415E+01
22.000000 24.000000 -2.658046E+01
22.000000 22.000000 -1.604005E+01
22.000000 20.000000 -7.913539E+00
22.000000 18.000000 1.283102E-01
22.000000 16.000000 5.662928E+00
22.000000 14.000000 -2.363580E+00
22.000000 12.000000 -4.120106E+01
22.000000 10.000000 -1.059003E+02
22.000000 8.000000 -1.535997E+02
22.000000 6.000000 -1.724453E+02
22.000000 4.000000 -1.798612E+02
22.000000 2.000000 -1.697758E+02
22.000000 0.000000 -1.276170E+02
22.000000 -2.000000 -5.950209E+01
22.000000 -4.000000 1.145447E+01
22.000000 -6.000000 7.236226E+01
22.000000 -8.000000 1.305830E+02
22.000000 -10.000000 1.823064E+02
22.000000 -12.000000 2.058275E+02
22.000000 -14.000000 1.867776E+02
22.000000 -16.000000 1.257397E+02
22.000000 -18.000000 4.784108E+01
22.000000 -20.000000 -1.375041E+01
22.000000 -22.000000 -3.562394E+01
22.000000 -24.000000 -2.995114E+01
22.000000 -26.000000 -2.140780E+01
22.000000 -28.000000 -2.837062E+01
22.000000 -30.000000 -3.612012E+01
22.000000 -32.000000 -3.931833E+01
22.000000 -34.000000 -3.701256E+01
22.000000 -36.000000 -4.982514E+01
22.000000 -38.000000 -7.081592E+01
22.000000 -40.000000 -9.798637E+01
24.000000 40.000000 2.809729E+01
24.000000 38.000000 -7.009943E+00
24.000000 36.000000 -3.066074E+01
24.000000 34.000000 -4.256485E+01
24.000000 32.000000 -4.336592E+01
24.000000 30.000000 -3.688992E+01
24.000000 28.000000 -2.630263E+01
24.000000 26.000000 -2.338149E+01
24.000000 24.000000 -1.750023E+01
24.000000 22.000000 -7.283893E+00
24.000000 20.000000 -2.973170E+00
24.000000 18.000000 -6.670599E-01
24.000000 16.000000 3.103334E+00
24.000000 14.000000 -3.336892E+00
24.000000 12.000000 -3.539448E+01
24.000000 10.000000 -8.362538E+01
24.000000 8.000000 -1.098295E+02
24.000000 6.000000 -1.060865E+02
24.000000 4.000000 -1.185811E+02
24.000000 2.000000 -1.283515E+02
24.000000 0.000000 -1.018185E+02
24.000000 -2.000000 -4.443138E+01
24.000000 -4.000000 2.164769E+01
24.000000 -6.000000 8.096524E+01
24.000000 -8.000000 1.362782E+02
24.000000 -10.000000 1.823764E+02
24.000000 -12.000000 1.993921E+02
24.000000 -14.000000 1.724019E+02
24.000000 -16.000000 1.071793E+02
24.000000 -18.000000 3.152589E+01
24.000000 -20.000000 -2.468407E+01
24.000000 -22.000000 -4.523039E+01
24.000000 -24.000000 -4.368183E+01
24.000000 -26.000000 -3.986782E+01
24.000000 -28.000000 -4.381996E+01
24.000000 -30.000000 -4.619418E+01
24.000000 -32.000000 -4.401945E+01
24.000000 -34.000000 -3.784388E+01
24.000000 -36.000000 -4.876777E+01
24.000000 -38.000000 -6.942612E+01
24.000000 -40.000000 -9.514652E+01
26.000000 40.000000 3.791393E+01
26.000000 38.000000 9.350609E+00
26.000000 36.000000 -1.187835E+01
26.000000 34.000000 -2.501757E+01
26.000000 32.000000 -2.665136E+01
26.000000 30.000000 -2.134782E+01
26.000000 28.000000 -1.170395E+01
26.000000 26.000000 -6.882898E+00
26.000000 24.000000 2.661991E-01
26.000000 22.000000 7.172211E+00
26.000000 20.000000 7.719529E+00
26.000000 18.000000 7.002972E+00
26.000000 16.000000 7.345345E+00
26.000000 14.000000 -1.879670E+00
26.000000 12.000000 -3.322314E+01
26.000000 10.000000 -7.544920E+01
26.000000 8.000000 -9.887643E+01
26.000000 6.000000 -9.626908E+01
26.000000 4.000000 -1.054340E+02
26.000000 2.000000 -1.114706E+02
26.000000 0.000000 -8.390793E+01
26.000000 -2.000000 -2.388730E+01
26.000000 -4.000000 4.747732E+01
26.000000 -6.000000 1.091209E+02
26.000000 -8.000000 1.573943E+02
26.000000 -10.000000 1.930603E+02
26.000000 -12.000000 1.969812E+02
26.000000 -14.000000 1.595374E+02
26.000000 -16.000000 8.935892E+01
26.000000 -18.000000 1.682851E+01
26.000000 -20.000000 -3.294757E+01
26.000000 -22.000000 -5.244337E+01
26.000000 -24.000000 -5.391606E+01
26.000000 -26.000000 -5.217677E+01
26.000000 -28.000000 -5.168023E+01
26.000000 -30.000000 -4.661876E+01
26.000000 -32.000000 -3.886646E+01
26.000000 -34.000000 -3.061978E+01
26.000000 -36.000000 -4.142859E+01
26.000000 -38.000000 -6.412078E+01
26.000000 -40.000000 -9.016936E+01
28.000000 40.000000 4.995115E+01
28.000000 38.000000 2.609393E+01
28.000000 36.000000 5.906301E+00
28.000000 34.000000 -9.594254E+00
28.000000 32.000000 -1.196483E+01
28.000000 30.000000 -5.824059E+00
28.000000 28.000000 6.859322E+00
28.000000 26.000000 1.587832E+01
28.000000 24.000000 2.479614E+01
28.000000 22.000000 2.790048E+01
28.000000 20.000000 2.508590E+01
28.000000 18.000000 2.122290E+01
28.000000 16.000000 1.599654E+01
28.000000 14.000000 -1.105680E-01
28.000000 12.000000 -3.728417E+01
28.000000 10.000000 -8.559804E+01
28.000000 8.000000 -1.195163E+02
28.000000 6.000000 -1.330712E+02
28.000000 4.000000 -1.407519E+02
28.000000 2.000000 -1.329011E+02
28.000000 0.000000 -9.059107E+01
28.000000 -2.000000 -1.382917E+01
28.000000 -4.000000 7.198129E+01
28.000000 -6.000000 1.409903E+02
28.000000 -8.000000 1.844779E+02
28.000000 -10.000000 2.103771E+02
28.000000 -12.000000 1.993868E+02
28.000000 -14.000000 1.543846E+02
28.000000 -16.000000 8.270430E+01
28.000000 -18.000000 1.291856E+01
28.000000 -20.000000 -3.412254E+01
28.000000 -22.000000 -5.295060E+01
28.000000 -24.000000 -5.476709E+01
28.000000 -26.000000 -5.110847E+01
28.000000 -28.000000 -4.529028E+01
28.000000 -30.000000 -3.392294E+01
28.000000 -32.000000 -2.292248E+01
28.000000 -34.000000 -1.616360E+01
28.000000 -36.000000 -3.083066E+01
28.000000 -38.000000 -5.737303E+01
28.000000 -40.000000 -8.515657E+01
30.000000 40.000000 6.281495E+01
30.000000 38.000000 4.053967E+01
30.000000 36.000000 1.973122E+01
30.000000 34.000000 1.398895E+00
30.000000 32.000000 -3.087444E+00
30.000000 30.000000 5.095196E+00
30.000000 28.000000 2.356436E+01
30.000000 26.000000 3.789601E+01
30.000000 24.000000 5.101867E+01
30.000000 22.000000 5.075389E+01
30.000000 20.000000 4.358292E+01
30.000000 18.000000 3.527240E+01
30.000000 16.000000 2.461452E+01
30.000000 14.000000 1.900542E+00
30.000000 12.000000 -4.430281E+01
30.000000 10.000000 -1.054066E+02
30.000000 8.000000 -1.500555E+02
30.000000 6.000000 -1.729605E+02
30.000000 4.000000 -1.802304E+02
30.000000 2.000000 -1.624852E+02
30.000000 0.000000 -1.061503E+02
30.000000 -2.000000 -1.317373E+01
30.000000 -4.000000 8.525115E+01
30.000000 -6.000000 1.594558E+02
30.000000 -8.000000 1.980824E+02
30.000000 -10.000000 2.145344E+02
30.000000 -12.000000 1.929896E+02
30.000000 -14.000000 1.464871E+02
30.000000 -16.000000 7.997517E+01
30.000000 -18.000000 1.566448E+01
30.000000 -20.000000 -2.920722E+01
30.000000 -22.000000 -4.773650E+01
30.000000 -24.000000 -4.773945E+01
30.000000 -26.000000 -3.865342E+01
30.000000 -28.000000 -2.703950E+01
30.000000 -30.000000 -1.152363E+01
30.000000 -32.000000 1.476698E-01
30.000000 -34.000000 1.741635E+00
30.000000 -36.000000 -1.998126E+01
30.000000 -38.000000 -4.927464E+01
30.000000 -40.000000 -7.790894E+01
32.000000 40.000000 7.463534E+01
32.000000 38.000000 5.184957E+01
32.000000 36.000000 2.921579E+01
32.000000 34.000000 6.717106E+00
32.000000 32.000000 -2.605606E+00
32.000000 30.000000 6.282969E+00
32.000000 28.000000 3.140915E+01
32.000000 26.000000 5.290054E+01
32.000000 24.000000 7.155877E+01
32.000000 22.000000 6.817681E+01
32.000000 20.000000 5.616660E+01
32.000000 18.000000 4.398767E+01
32.000000 16.000000 3.044256E+01
32.000000 14.000000 4.737130E+00
32.000000 12.000000 -4.800412E+01
32.000000 10.000000 -1.186692E+02
32.000000 8.000000 -1.668729E+02
32.000000 6.000000 -1.875111E+02
32.000000 4.000000 -1.872359E+02
32.000000 2.000000 -1.638754E+02
32.000000 0.000000 -1.067694E+02
32.000000 -2.000000 -1.500270E+01
32.000000 -4.000000 8.199367E+01
32.000000 -6.000000 1.526037E+02
32.000000 -8.000000 1.839358E+02
32.000000 -10.000000 1.919888E+02
32.000000 -12.000000 1.690822E+02
32.000000 -14.000000 1.281068E+02
32.000000 -16.000000 7.429401E+01
32.000000 -18.000000 2.139276E+01
32.000000 -20.000000 -1.816094E+01
32.000000 -22.000000 -3.618261E+01
32.000000 -24.000000 -3.423955E+01
32.000000 -26.000000 -2.072935E+01
32.000000 -28.000000 -4.909156E+00
32.000000 -30.000000 1.275217E+01
32.000000 -32.000000 2.359362E+01
32.000000 -34.000000 1.865851E+01
32.000000 -36.000000 -9.093275E+00
32.000000 -38.000000 -3.941145E+01
32.000000 -40.000000 -6.808337E+01
34.000000 40.000000 8.435455E+01
34.000000 38.000000 6.133339E+01
34.000000 36.000000 3.694369E+01
34.000000 34.000000 8.901884E+00
34.000000 32.000000 -7.976254E+00
34.000000 30.000000 -1.685299E+00
34.000000 28.000000 2.786367E+01
34.000000 26.000000 5.574649E+01
34.000000 24.000000 7.884900E+01
34.000000 22.000000 7.333854E+01
34.000000 20.000000 5.604610E+01
34.000000 18.000000 4.071594E+01
34.000000 16.000000 2.701851E+01
34.000000 14.000000 1.511900E+00
34.000000 12.000000 -5.093265E+01
34.000000 10.000000 -1.200067E+02
34.000000 8.000000 -1.584784E+02
34.000000 6.000000 -1.627503E+02
34.000000 4.000000 -1.505996E+02
34.000000 2.000000 -1.302388E+02
34.000000 0.000000 -8.784026E+01
34.000000 -2.000000 -1.656390E+01
34.000000 -4.000000 6.364995E+01
34.000000 -6.000000 1.236374E+02
34.000000 -8.000000 1.490417E+02
34.000000 -10.000000 1.529995E+02
34.000000 -12.000000 1.361645E+02
34.000000 -14.000000 1.054264E+02
34.000000 -16.000000 6.729647E+01
34.000000 -18.000000 2.940133E+01
34.000000 -20.000000 -1.166335E+00
34.000000 -22.000000 -1.623029E+01
34.000000 -24.000000 -1.300631E+01
34.000000 -26.000000 2.630558E-01
34.000000 -28.000000 1.497082E+01
34.000000 -30.000000 3.072483E+01
34.000000 -32.000000 3.924571E+01
34.000000 -34.000000 2.979209E+01
34.000000 -36.000000 1.012395E+00
34.000000 -38.000000 -2.889992E+01
34.000000 -40.000000 -5.774004E+01
36.000000 40.000000 9.183387E+01
36.000000 38.000000 7.007340E+01
36.000000 36.000000 4.586493E+01
36.000000 34.000000 1.335464E+01
36.000000 32.000000 -1.151229E+01
36.000000 30.000000 -1.258731E+01
36.000000 28.000000 1.384456E+01
36.000000 26.000000 4.300957E+01
36.000000 24.000000 6.829205E+01
36.000000 22.000000 6.505971E+01
36.000000 20.000000 4.636844E+01
36.000000 18.000000 2.812780E+01
36.000000 16.000000 1.387678E+01
36.000000 14.000000 -1.044185E+01
36.000000 12.000000 -5.783045E+01
36.000000 10.000000 -1.159935E+02
36.000000 8.000000 -1.361366E+02
36.000000 6.000000 -1.195678E+02
36.000000 4.000000 -9.439222E+01
36.000000 2.000000 -7.897520E+01
36.000000 0.000000 -5.507247E+01
36.000000 -2.000000 -1.150732E+01
36.000000 -4.000000 4.382508E+01
36.000000 -6.000000 8.955050E+01
36.000000 -8.000000 1.125104E+02
36.000000 -10.000000 1.185199E+02
36.000000 -12.000000 1.108835E+02
36.000000 -14.000000 9.150664E+01
36.000000 -16.000000 6.657779E+01
36.000000 -18.000000 4.117250E+01
36.000000 -20.000000 1.962883E+01
36.000000 -22.000000 9.661815E+00
36.000000 -24.000000 1.285421E+01
36.000000 -26.000000 2.219028E+01
36.000000 -28.000000 2.939326E+01
36.000000 -30.000000 3.581707E+01
36.000000 -32.000000 3.842091E+01
36.000000 -34.000000 2.995609E+01
36.000000 -36.000000 7.848630E+00
36.000000 -38.000000 -1.868119E+01
36.000000 -40.000000 -4.671103E+01
38.000000 40.000000 9.604155E+01
38.000000 38.000000 7.667289E+01
38.000000 36.000000 5.556042E+01
38.000000 34.000000 2.248123E+01
38.000000 32.000000 -9.146446E+00
38.000000 30.000000 -2.109867E+01
38.000000 28.000000 -4.694271E+00
38.000000 26.000000 2.043556E+01
38.000000 24.000000 4.474764E+01
38.000000 22.000000 4.758252E+01
38.000000 20.000000 3.485144E+01
38.000000 18.000000 1.645023E+01
38.000000 16.000000 1.139187E+00
38.000000 14.000000 -2.093180E+01
38.000000 12.000000 -6.073212E+01
38.000000 10.000000 -1.057679E+02
38.000000 8.000000 -1.100659E+02
38.000000 6.000000 -8.190683E+01
38.000000 4.000000 -4.892187E+01
38.000000 2.000000 -3.592491E+01
38.000000 0.000000 -2.501429E+01
38.000000 -2.000000 -2.447062E+00
38.000000 -4.000000 3.082605E+01
38.000000 -6.000000 6.298691E+01
38.000000 -8.000000 8.581011E+01
38.000000 -10.000000 9.820241E+01
38.000000 -12.000000 1.002761E+02
38.000000 -14.000000 9.144776E+01
38.000000 -16.000000 7.651451E+01
38.000000 -18.000000 5.963547E+01
38.000000 -20.000000 4.196907E+01
38.000000 -22.000000 3.209232E+01
38.000000 -24.000000 3.300014E+01
38.000000 -26.000000 3.808444E+01
38.000000 -28.000000 3.538502E+01
38.000000 -30.000000 2.847339E+01
38.000000 -32.000000 2.386030E+01
38.000000 -34.000000 2.065551E+01
38.000000 -36.000000 9.823299E+00
38.000000 -38.000000 -1.036206E+01
38.000000 -40.000000 -3.538156E+01
40.000000 40.000000 9.492751E+01
40.000000 38.000000 7.874277E+01
40.000000 36.000000 6.367880E+01
40.000000 34.000000 3.493900E+01
40.000000 32.000000 2.028503E-01
40.000000 30.000000 -2.102222E+01
40.000000 28.000000 -1.603755E+01
40.000000 26.000000 1.031178E+00
40.000000 24.000000 1.944903E+01
40.000000 22.000000 2.617947E+01
40.000000 20.000000 2.025310E+01
40.000000 18.000000 7.600773E+00
40.000000 16.000000 -2.603786E+00
40.000000 14.000000 -1.823829E+01
40.000000 12.000000 -4.845886E+01
40.000000 10.000000 -8.279016E+01
40.000000 8.000000 -8.128519E+01
40.000000 6.000000 -5.295958E+01
40.000000 4.000000 -2.255621E+01
40.000000 2.000000 -1.269916E+01
40.000000 0.000000 -9.084110E+00
40.000000 -2.000000 2.581635E-01
40.000000 -4.000000 2.000561E+01
40.000000 -6.000000 4.514117E+01
40.000000 -8.000000 6.863019E+01
40.000000 -10.000000 8.642645E+01
40.000000 -12.000000 9.576824E+01
40.000000 -14.000000 9.692477E+01
40.000000 -16.000000 9.186115E+01
40.000000 -18.000000 8.081142E+01
40.000000 -20.000000 6.237405E+01
40.000000 -22.000000 4.673825E+01
40.000000 -24.000000 4.086504E+01
40.000000 -26.000000 3.952718E+01
40.000000 -28.000000 2.894201E+01
40.000000 -30.000000 1.307799E+01
40.000000 -32.000000 5.570059E+00
40.000000 -34.000000 8.627948E+00
40.000000 -36.000000 7.787363E+00
40.000000 -38.000000 -5.127357E+00
40.000000 -40.000000 -2.463615E+01
42.000000 40.000000 8.847639E+01
42.000000 38.000000 7.699802E+01
42.000000 36.000000 6.942258E+01
42.000000 34.000000 4.879837E+01
42.000000 32.000000 1.653897E+01
42.000000 30.000000 -8.689545E+00
42.000000 28.000000 -1.407669E+01
42.000000 26.000000 -8.105164E+00
42.000000 24.000000 5.339184E-01
42.000000 22.000000 5.356682E+00
42.000000 20.000000 6.686268E-01
42.000000 18.000000 -2.885149E+00
42.000000 16.000000 -1.298599E-01
42.000000 14.000000 -2.367414E+00
42.000000 12.000000 -1.988476E+01
42.000000 10.000000 -4.623562E+01
42.000000 8.000000 -5.019238E+01
42.000000 6.000000 -3.064230E+01
42.000000 4.000000 -8.976288E+00
42.000000 2.000000 -1.876605E+00
42.000000 0.000000 -1.891482E+00
42.000000 -2.000000 3.995552E-01
42.000000 -4.000000 1.188031E+01
42.000000 -6.000000 3.164257E+01
42.000000 -8.000000 5.203370E+01
42.000000 -10.000000 6.981497E+01
42.000000 -12.000000 8.242134E+01
42.000000 -14.000000 9.272998E+01
42.000000 -16.000000 9.905835E+01
42.000000 -18.000000 9.494684E+01
42.000000 -20.000000 7.708200E+01
42.000000 -22.000000 5.552302E+01
42.000000 -24.000000 3.965340E+01
42.000000 -26.000000 2.933297E+01
42.000000 -28.000000 1.368744E+01
42.000000 -30.000000 -4.365221E+00
42.000000 -32.000000 -9.946751E+00
42.000000 -34.000000 -1.128735E+00
42.000000 -36.000000 5.117173E+00
42.000000 -38.000000 -1.907954E+00
42.000000 -40.000000 -1.549133E+01
44.000000 40.000000 7.810301E+01
44.000000 38.000000 7.248635E+01
44.000000 36.000000 7.220950E+01
44.000000 34.000000 6.207372E+01
44.000000 32.000000 3.623588E+01
44.000000 30.000000 1.120743E+01
44.000000 28.000000 -2.309879E+00
44.000000 26.000000 -6.206997E+00
44.000000 24.000000 -5.923582E+00
44.000000 22.000000 -7.404247E+00
44.000000 20.000000 -1.511085E+01
44.000000 18.000000 -1.210711E+01
44.000000 16.000000 3.723640E+00
44.000000 14.000000 1.686206E+01
44.000000 12.000000 1.165534E+01
44.000000 10.000000 -1.136902E+01
44.000000 8.000000 -2.605098E+01
44.000000 6.000000 -1.876142E+01
44.000000 4.000000 -5.074309E+00
44.000000 2.000000 4.020846E+00
44.000000 0.000000 7.351099E+00
44.000000 -2.000000 9.442726E+00
44.000000 -4.000000 1.427884E+01
44.000000 -6.000000 2.269666E+01
44.000000 -8.000000 3.124127E+01
44.000000 -10.000000 4.141649E+01
44.000000 -12.000000 5.555049E+01
44.000000 -14.000000 7.484926E+01
44.000000 -16.000000 9.417443E+01
44.000000 -18.000000 9.965363E+01
44.000000 -20.000000 8.508334E+01
44.000000 -22.000000 5.954548E+01
44.000000 -24.000000 3.461594E+01
44.000000 -26.000000 1.646329E+01
44.000000 -28.000000 -1.629499E+00
44.000000 -30.000000 -1.860333E+01
44.000000 -32.000000 -2.101304E+01
44.000000 -34.000000 -8.084566E+00
44.000000 -36.000000 2.760736E+00
44.000000 -38.000000 3.255501E-01
44.000000 -40.000000 -8.698439E+00
46.000000 40.000000 6.622466E+01
46.000000 38.000000 6.474605E+01
46.000000 36.000000 7.054884E+01
46.000000 34.000000 7.099147E+01
46.000000 32.000000 5.242324E+01
46.000000 30.000000 2.897797E+01
46.000000 28.000000 1.072417E+01
46.000000 26.000000 2.026718E+00
46.000000 24.000000 -7.137623E-01
46.000000 22.000000 -6.609751E+00
46.000000 20.000000 -1.557387E+01
46.000000 18.000000 -1.148268E+01
46.000000 16.000000 8.616351E+00
46.000000 14.000000 2.792739E+01
46.000000 12.000000 2.755002E+01
46.000000 10.000000 4.168452E+00
46.000000 8.000000 -1.542532E+01
46.000000 6.000000 -1.163088E+01
46.000000 4.000000 1.689477E+00
46.000000 2.000000 1.585041E+01
46.000000 0.000000 2.674665E+01
46.000000 -2.000000 2.975698E+01
46.000000 -4.000000 2.436447E+01
46.000000 -6.000000 1.321815E+01
46.000000 -8.000000 5.375236E+00
46.000000 -10.000000 5.764206E+00
46.000000 -12.000000 2.296163E+01
46.000000 -14.000000 5.161699E+01
46.000000 -16.000000 8.145062E+01
46.000000 -18.000000 9.468522E+01
46.000000 -20.000000 8.410778E+01
46.000000 -22.000000 5.864791E+01
46.000000 -24.000000 2.955131E+01
46.000000 -26.000000 7.574497E+00
46.000000 -28.000000 -1.031071E+01
46.000000 -30.000000 -2.552437E+01
46.000000 -32.000000 -2.603766E+01
46.000000 -34.000000 -1.196564E+01
46.000000 -36.000000 3.825779E-01
46.000000 -38.000000 1.181755E+00
46.000000 -40.000000 -4.788960E+00
48.000000 40.000000 5.754178E+01
48.000000 38.000000 5.627623E+01
48.000000 36.000000 6.445122E+01
48.000000 34.000000 7.151986E+01
48.000000 32.000000 5.948802E+01
48.000000 30.000000 3.831855E+01
48.000000 28.000000 1.781771E+01
48.000000 26.000000 7.757496E+00
48.000000 24.000000 5.273970E+00
48.000000 22.000000 -4.619827E-01
48.000000 20.000000 -7.195992E+00
48.000000 18.000000 -3.880186E+00
48.000000 16.000000 1.348387E+01
48.000000 14.000000 2.950094E+01
48.000000 12.000000 2.738349E+01
48.000000 10.000000 4.081958E+00
48.000000 8.000000 -1.223684E+01
48.000000 6.000000 -4.407804E+00
48.000000 4.000000 1.532529E+01
48.000000 2.000000 3.479737E+01
48.000000 0.000000 5.018786E+01
48.000000 -2.000000 5.285888E+01
48.000000 -4.000000 3.565848E+01
48.000000 -6.000000 3.507567E+00
48.000000 -8.000000 -1.906842E+01
48.000000 -10.000000 -2.704930E+01
48.000000 -12.000000 -6.293093E+00
48.000000 -14.000000 2.839903E+01
48.000000 -16.000000 6.362077E+01
48.000000 -18.000000 8.202860E+01
48.000000 -20.000000 7.683861E+01
48.000000 -22.000000 5.579164E+01
48.000000 -24.000000 2.834295E+01
48.000000 -26.000000 6.793776E+00
48.000000 -28.000000 -9.916313E+00
48.000000 -30.000000 -2.370746E+01
48.000000 -32.000000 -2.418909E+01
48.000000 -34.000000 -1.154762E+01
48.000000 -36.000000 -7.373199E-01
48.000000 -38.000000 3.028526E-01
48.000000 -40.000000 -4.503748E+00
50.000000 40.000000 5.502063E+01
50.000000 38.000000 5.091594E+01
50.000000 36.000000 5.679070E+01
50.000000 34.000000 6.536713E+01
50.000000 32.000000 5.791685E+01
50.000000 30.000000 3.931540E+01
50.000000 28.000000 1.842999E+01
50.000000 26.000000 7.026424E+00
50.000000 24.000000 3.013252E+00
50.000000 22.000000 -2.265083E+00
50.000000 20.000000 -7.290638E+00
50.000000 18.000000 -3.399151E+00
50.000000 16.000000 1.179697E+01
50.000000 14.000000 2.517253E+01
50.000000 12.000000 2.246273E+01
50.000000 10.000000 3.303743E+00
50.000000 8.000000 -7.533850E+00
50.000000 6.000000 2.726315E+00
50.000000 4.000000 2.534768E+01
50.000000 2.000000 4.497843E+01
50.000000 0.000000 5.759102E+01
50.000000 -2.000000 5.739292E+01
50.000000 -4.000000 3.849024E+01
50.000000 -6.000000 2.462308E+00
50.000000 -8.000000 -2.501262E+01
50.000000 -10.000000 -3.674962E+01
50.000000 -12.000000 -1.852057E+01
50.000000 -14.000000 1.291131E+01
50.000000 -16.000000 4.585738E+01
50.000000 -18.000000 6.564934E+01
50.000000 -20.000000 6.611354E+01
50.000000 -22.000000 5.322074E+01
50.000000 -24.000000 3.311371E+01
50.000000 -26.000000 1.458350E+01
50.000000 -28.000000 -1.529211E+00
50.000000 -30.000000 -1.528721E+01
50.000000 -32.000000 -1.788923E+01
50.000000 -34.000000 -8.267365E+00
50.000000 -36.000000 -1.440783E+00
50.000000 -38.000000 -1.997358E+00
50.000000 -40.000000 -6.970766E+00
52.000000 40.000000 5.756336E+01
52.000000 38.000000 4.825582E+01
52.000000 36.000000 4.948805E+01
52.000000 34.000000 5.947543E+01
52.000000 32.000000 5.286786E+01
52.000000 30.000000 3.518313E+01
52.000000 28.000000 1.528804E+01
52.000000 26.000000 2.661310E+00
52.000000 24.000000 -4.233604E+00
52.000000 22.000000 -1.016811E+01
52.000000 20.000000 -1.641505E+01
52.000000 18.000000 -1.253189E+01
52.000000 16.000000 3.294728E+00
52.000000 14.000000 1.757961E+01
52.000000 12.000000 1.705487E+01
52.000000 10.000000 3.555806E+00
52.000000 8.000000 -3.580082E+00
52.000000 6.000000 6.522570E+00
52.000000 4.000000 2.279661E+01
52.000000 2.000000 3.335938E+01
52.000000 0.000000 4.002093E+01
52.000000 -2.000000 4.022429E+01
52.000000 -4.000000 2.995109E+01
52.000000 -6.000000 6.848693E+00
52.000000 -8.000000 -1.273608E+01
52.000000 -10.000000 -2.189653E+01
52.000000 -12.000000 -1.258104E+01
52.000000 -14.000000 8.428391E+00
52.000000 -16.000000 3.271142E+01
52.000000 -18.000000 4.926115E+01
52.000000 -20.000000 5.378032E+01
52.000000 -22.000000 5.021077E+01
52.000000 -24.000000 4.080188E+01
52.000000 -26.000000 2.791314E+01
52.000000 -28.000000 1.318742E+01
52.000000 -30.000000 -1.377548E+00
52.000000 -32.000000 -7.595854E+00
52.000000 -34.000000 -3.129244E+00
52.000000 -36.000000 -2.360661E+00
52.000000 -38.000000 -6.199547E+00
52.000000 -40.000000 -1.268378E+01
54.000000 40.000000 6.181516E+01
54.000000 38.000000 4.781718E+01
54.000000 36.000000 4.518693E+01
54.000000 34.000000 5.932716E+01
54.000000 32.000000 4.973212E+01
54.000000 30.000000 2.990820E+01
54.000000 28.000000 1.061185E+01
54.000000 26.000000 -1.235636E+00
54.000000 24.000000 -7.411341E+00
54.000000 22.000000 -1.337701E+01
54.000000 20.000000 -2.088820E+01
54.000000 18.000000 -1.737895E+01
54.000000 16.000000 -3.981686E-01
54.000000 14.000000 1.411671E+01
54.000000 12.000000 1.184457E+01
54.000000 10.000000 -4.899260E+00
54.000000 8.000000 -1.478710E+01
54.000000 6.000000 -6.730501E+00
54.000000 4.000000 2.924912E+00
54.000000 2.000000 6.225960E+00
54.000000 0.000000 1.094389E+01
54.000000 -2.000000 1.740741E+01
54.000000 -4.000000 1.937750E+01
54.000000 -6.000000 1.161662E+01
54.000000 -8.000000 1.655106E+00
54.000000 -10.000000 -5.085126E+00
54.000000 -12.000000 -4.089698E+00
54.000000 -14.000000 7.187230E+00
54.000000 -16.000000 2.323376E+01
54.000000 -18.000000 3.677631E+01
54.000000 -20.000000 4.478966E+01
54.000000 -22.000000 4.780517E+01
54.000000 -24.000000 4.629899E+01
54.000000 -26.000000 3.988508E+01
54.000000 -28.000000 2.769559E+01
54.000000 -30.000000 1.349119E+01
54.000000 -32.000000 4.207064E+00
54.000000 -34.000000 2.231173E+00
54.000000 -36.000000 -3.221062E+00
54.000000 -38.000000 -1.138912E+01
54.000000 -40.000000 -1.972070E+01
56.000000 40.000000 6.077383E+01
56.000000 38.000000 4.995560E+01
56.000000 36.000000 4.767223E+01
56.000000 34.000000 6.117522E+01
56.000000 32.000000 4.926134E+01
56.000000 30.000000 2.769583E+01
56.000000 28.000000 9.596254E+00
56.000000 26.000000 4.379978E-01
56.000000 24.000000 -6.739225E-01
56.000000 22.000000 -4.646552E+00
56.000000 20.000000 -9.025844E+00
56.000000 18.000000 -4.862322E+00
56.000000 16.000000 9.596375E+00
56.000000 14.000000 1.778021E+01
56.000000 12.000000 4.107007E+00
56.000000 10.000000 -2.838044E+01
56.000000 8.000000 -4.790999E+01
56.000000 6.000000 -4.269153E+01
56.000000 4.000000 -3.042769E+01
56.000000 2.000000 -2.265308E+01
56.000000 0.000000 -1.389435E+01
56.000000 -2.000000 -1.819110E-01
56.000000 -4.000000 1.123807E+01
56.000000 -6.000000 1.295508E+01
56.000000 -8.000000 6.964829E+00
56.000000 -10.000000 -1.180270E+00
56.000000 -12.000000 -3.426449E+00
