-10.000000 -30.000000 -9.238468E+00
-10.000000 -32.000000 -9.363202E+00
-10.000000 -34.000000 -1.002314E+01
-10.000000 -36.000000 4.865933E+00
-10.000000 -38.000000 2.491141E+01
-10.000000 -40.000000 4.288598E+01
-8.000000 40.000000 9.950893E+00
-8.000000 38.000000 3.902105E+01
-8.000000 36.000000 6.915641E+01
-8.000000 34.000000 9.575138E+01
-8.000000 32.000000 1.031969E+02
-8.000000 30.000000 9.826653E+01
-8.000000 28.000000 8.816409E+01
-8.000000 26.000000 7.864275E+01
-8.000000 24.000000 7.204363E+01
-8.000000 22.000000 6.823353E+01
-8.000000 20.000000 7.285928E+01
-8.000000 18.000000 9.504275E+01
-8.000000 16.000000 1.327808E+02
-8.000000 14.000000 1.661412E+02
-8.000000 12.000000 1.758027E+02
-8.000000 10.000000 1.596361E+02
-8.000000 8.000000 1.213662E+02
-8.000000 6.000000 8.072797E+01
-8.000000 4.000000 4.531187E+01
-8.000000 2.000000 1.776509E+01
-8.000000 0.000000 -1.962717E+00
-8.000000 -2.000000 -1.418733E+01
-8.000000 -4.000000 -2.267390E+01
-8.000000 -6.000000 -3.335251E+01
-8.000000 -8.000000 -5.122201E+01
-8.000000 -10.000000 -7.496350E+01
-8.000000 -12.000000 -9.317603E+01
-8.000000 -14.000000 -1.017390E+02
-8.000000 -16.000000 -9.917261E+01
-8.000000 -18.000000 -8.905964E+01
-8.000000 -20.000000 -7.739006E+01
-8.000000 -22.000000 -6.727700E+01
-8.000000 -24.000000 -5.696346E+01
-8.000000 -26.000000 -4.852006E+01
-8.000000 -28.000000 -3.716858E+01
-8.000000 -30.000000 -2.663412E+01
-8.000000 -32.000000 -2.457723E+01
-8.000000 -34.000000 -2.480895E+01
-8.000000 -36.000000 -5.123733E+00
-8.000000 -38.000000 2.085550E+01
-8.000000 -40.000000 4.352863E+01
-6.000000 40.000000 5.729049E+00
-6.000000 38.000000 3.938137E+01
-6.000000 36.000000 7.502927E+01
-6.000000 34.000000 1.071239E+02
-6.000000 32.000000 1.158621E+02
-6.000000 30.000000 1.091001E+02
-6.000000 28.000000 9.691783E+01
-6.000000 26.000000 8.597643E+01
-6.000000 24.000000 8.131956E+01
-6.000000 22.000000 8.010035E+01
-6.000000 20.000000 8.522701E+01
-6.000000 18.000000 1.070728E+02
-6.000000 16.000000 1.451613E+02
-6.000000 14.000000 1.772320E+02
-6.000000 12.000000 1.829966E+02
-6.000000 10.000000 1.630178E+02
-6.000000 8.000000 1.268290E+02
-6.000000 6.000000 8.940196E+01
-6.000000 4.000000 5.615007E+01
-6.000000 2.000000 2.813421E+01
-6.000000 0.000000 6.684792E+00
-6.000000 -2.000000 -5.223101E+00
-6.000000 -4.000000 -9.596716E+00
-6.000000 -6.000000 -1.532045E+01
-6.000000 -8.000000 -3.559726E+01
-6.000000 -10.000000 -6.293158E+01
-6.000000 -12.000000 -8.499349E+01
-6.000000 -14.000000 -9.548503E+01
-6.000000 -16.000000 -9.411931E+01
-6.000000 -18.000000 -8.656890E+01
-6.000000 -20.000000 -8.087457E+01
-6.000000 -22.000000 -7.738136E+01
-6.000000 -24.000000 -7.112158E+01
-6.000000 -26.000000 -6.221049E+01
-6.000000 -28.000000 -4.931618E+01
-6.000000 -30.000000 -3.871843E+01
-6.000000 -32.000000 -3.659933E+01
-6.000000 -34.000000 -3.581745E+01
-6.000000 -36.000000 -1.322314E+01
-6.000000 -38.000000 1.578716E+01
-6.000000 -40.000000 4.167539E+01
-4.000000 40.000000 -5.615740E-01
-4.000000 38.000000 3.498239E+01
-4.000000 36.000000 7.218468E+01
-4.000000 34.000000 1.053676E+02
-4.000000 32.000000 1.129828E+02
-4.000000 30.000000 1.039811E+02
-4.000000 28.000000 9.052036E+01
-4.000000 26.000000 8.197432E+01
-4.000000 24.000000 8.366036E+01
-4.000000 22.000000 8.788837E+01
-4.000000 20.000000 9.764225E+01
-4.000000 18.000000 1.209146E+02
-4.000000 16.000000 1.571680E+02
-4.000000 14.000000 1.867329E+02
-4.000000 12.000000 1.902614E+02
-4.000000 10.000000 1.702159E+02
-4.000000 8.000000 1.337591E+02
-4.000000 6.000000 9.524014E+01
-4.000000 4.000000 5.601629E+01
-4.000000 2.000000 2.235568E+01
-4.000000 0.000000 -1.306683E+00
-4.000000 -2.000000 -1.188809E+01
-4.000000 -4.000000 -1.211230E+01
-4.000000 -6.000000 -1.314161E+01
-4.000000 -8.000000 -3.096768E+01
-4.000000 -10.000000 -5.680934E+01
-4.000000 -12.000000 -7.557811E+01
-4.000000 -14.000000 -8.322574E+01
-4.000000 -16.000000 -7.989811E+01
-4.000000 -18.000000 -7.375255E+01
-4.000000 -20.000000 -7.137166E+01
-4.000000 -22.000000 -7.000511E+01
-4.000000 -24.000000 -6.585414E+01
-4.000000 -26.000000 -5.714712E+01
-4.000000 -28.000000 -4.658145E+01
-4.000000 -30.000000 -4.007683E+01
-4.000000 -32.000000 -3.949712E+01
-4.000000 -34.000000 -3.855111E+01
-4.000000 -36.000000 -1.706661E+01
-4.000000 -38.000000 1.071952E+01
-4.000000 -40.000000 3.734452E+01
-2.000000 40.000000 -7.239181E+00
-2.000000 38.000000 2.626097E+01
-2.000000 36.000000 5.939235E+01
-2.000000 34.000000 8.883299E+01
-2.000000 32.000000 9.444145E+01
-2.000000 30.000000 8.423208E+01
-2.000000 28.000000 7.103069E+01
-2.000000 26.000000 6.781515E+01
-2.000000 24.000000 7.614939E+01
-2.000000 22.000000 8.499189E+01
-2.000000 20.000000 1.004364E+02
-2.000000 18.000000 1.256124E+02
-2.000000 16.000000 1.567312E+02
-2.000000 14.000000 1.810607E+02
-2.000000 12.000000 1.835574E+02
-2.000000 10.000000 1.673461E+02
-2.000000 8.000000 1.319551E+02
-2.000000 6.000000 9.221410E+01
-2.000000 4.000000 4.669310E+01
-2.000000 2.000000 8.675381E+00
-2.000000 0.000000 -1.580804E+01
-2.000000 -2.000000 -2.495464E+01
-2.000000 -4.000000 -2.227653E+01
-2.000000 -6.000000 -1.824695E+01
-2.000000 -8.000000 -3.039504E+01
-2.000000 -10.000000 -5.120000E+01
-2.000000 -12.000000 -6.144180E+01
-2.000000 -14.000000 -6.304270E+01
-2.000000 -16.000000 -5.654040E+01
-2.000000 -18.000000 -4.998080E+01
-2.000000 -20.000000 -4.628042E+01
-2.000000 -22.000000 -4.443183E+01
-2.000000 -24.000000 -4.427902E+01
-2.000000 -26.000000 -4.104217E+01
-2.000000 -28.000000 -3.567354E+01
-2.000000 -30.000000 -3.307762E+01
-2.000000 -32.000000 -3.407118E+01
-2.000000 -34.000000 -3.360592E+01
-2.000000 -36.000000 -1.633687E+01
-2.000000 -38.000000 7.038135E+00
-2.000000 -40.000000 3.138105E+01
0.000000 40.000000 -1.345766E+01
0.000000 38.000000 1.478375E+01
0.000000 36.000000 4.080976E+01
0.000000 34.000000 6.367156E+01
0.000000 32.000000 6.570958E+01
0.000000 30.000000 5.489340E+01
0.000000 28.000000 4.237122E+01
0.000000 26.000000 4.149512E+01
0.000000 24.000000 5.101740E+01
0.000000 22.000000 6.017795E+01
0.000000 20.000000 7.554799E+01
0.000000 18.000000 9.930968E+01
0.000000 16.000000 1.256177E+02
0.000000 14.000000 1.454325E+02
0.000000 12.000000 1.489456E+02
0.000000 10.000000 1.394924E+02
0.000000 8.000000 1.116632E+02
0.000000 6.000000 7.670232E+01
0.000000 4.000000 3.381173E+01
0.000000 2.000000 -8.552456E-01
0.000000 0.000000 -2.214062E+01
0.000000 -2.000000 -2.782354E+01
0.000000 -4.000000 -2.326987E+01
0.000000 -6.000000 -1.679584E+01
0.000000 -8.000000 -2.077134E+01
0.000000 -10.000000 -3.097648E+01
0.000000 -12.000000 -3.164853E+01
0.000000 -14.000000 -2.673633E+01
0.000000 -16.000000 -1.778130E+01
0.000000 -18.000000 -1.110429E+01
0.000000 -20.000000 -7.408069E+00
0.000000 -22.000000 -8.487829E+00
0.000000 -24.000000 -1.523701E+01
0.000000 -26.000000 -2.101364E+01
0.000000 -28.000000 -2.283170E+01
0.000000 -30.000000 -2.431268E+01
0.000000 -32.000000 -2.604799E+01
0.000000 -34.000000 -2.545694E+01
0.000000 -36.000000 -1.229390E+01
0.000000 -38.000000 5.442431E+00
0.000000 -40.000000 2.467965E+01
2.000000 40.000000 -1.678963E+01
2.000000 38.000000 3.806179E+00
2.000000 36.000000 2.095652E+01
2.000000 34.000000 3.410659E+01
2.000000 32.000000 2.985268E+01
2.000000 30.000000 1.758867E+01
2.000000 28.000000 5.012390E+00
2.000000 26.000000 2.539713E+00
2.000000 24.000000 5.712202E+00
2.000000 22.000000 9.659758E+00
2.000000 20.000000 1.795161E+01
2.000000 18.000000 3.623242E+01
2.000000 16.000000 5.890733E+01
2.000000 14.000000 7.814170E+01
2.000000 12.000000 8.843794E+01
2.000000 10.000000 8.950988E+01
2.000000 8.000000 7.655997E+01
2.000000 6.000000 5.383630E+01
2.000000 4.000000 2.286312E+01
2.000000 2.000000 -2.035013E+00
2.000000 0.000000 -1.570356E+01
2.000000 -2.000000 -1.595280E+01
2.000000 -4.000000 -8.039948E+00
2.000000 -6.000000 5.824451E-01
2.000000 -8.000000 4.556707E+00
2.000000 -10.000000 6.986733E+00
2.000000 -12.000000 1.466322E+01
2.000000 -14.000000 2.542466E+01
2.000000 -16.000000 3.567784E+01
2.000000 -18.000000 3.964488E+01
2.000000 -20.000000 3.686451E+01
2.000000 -22.000000 2.780117E+01
2.000000 -24.000000 1.245636E+01
2.000000 -26.000000 -2.211160E+00
2.000000 -28.000000 -1.161359E+01
2.000000 -30.000000 -1.743835E+01
2.000000 -32.000000 -1.927898E+01
2.000000 -34.000000 -1.772395E+01
2.000000 -36.000000 -6.887136E+00
2.000000 -38.000000 4.544229E+00
2.000000 -40.000000 1.659981E+01
4.000000 40.000000 -1.570357E+01
4.000000 38.000000 -3.823756E+00
4.000000 36.000000 2.739358E+00
4.000000 34.000000 1.833750E+00
4.000000 32.000000 -1.116011E+01
4.000000 30.000000 -2.557218E+01
4.000000 28.000000 -3.790200E+01
4.000000 26.000000 -4.270484E+01
4.000000 24.000000 -4.990118E+01
4.000000 22.000000 -5.408181E+01
4.000000 20.000000 -5.693824E+01
4.000000 18.000000 -4.754073E+01
4.000000 16.000000 -2.711605E+01
4.000000 14.000000 -4.090288E+00
4.000000 12.000000 1.921203E+01
4.000000 10.000000 3.598349E+01
4.000000 8.000000 4.241747E+01
4.000000 6.000000 3.491353E+01
4.000000 4.000000 1.803654E+01
4.000000 2.000000 3.141056E+00
4.000000 0.000000 -2.496010E+00
4.000000 -2.000000 3.071660E+00
4.000000 -4.000000 1.616064E+01
4.000000 -6.000000 2.855093E+01
4.000000 -8.000000 3.785974E+01
4.000000 -10.000000 5.051919E+01
4.000000 -12.000000 6.369159E+01
4.000000 -14.000000 7.868213E+01
4.000000 -16.000000 8.871115E+01
4.000000 -18.000000 8.683600E+01
4.000000 -20.000000 7.390596E+01
4.000000 -22.000000 5.492133E+01
4.000000 -24.000000 3.141847E+01
4.000000 -26.000000 1.015628E+01
4.000000 -28.000000 -4.395758E+00
4.000000 -30.000000 -1.280091E+01
4.000000 -32.000000 -1.432685E+01
4.000000 -34.000000 -1.220764E+01
4.000000 -36.000000 -2.531175E+00
4.000000 -38.000000 2.283115E+00
4.000000 -40.000000 6.996565E+00
6.000000 40.000000 -1.374757E+01
6.000000 38.000000 -9.270292E+00
6.000000 36.000000 -1.324183E+01
6.000000 34.000000 -2.850684E+01
6.000000 32.000000 -4.963526E+01
6.000000 30.000000 -6.500820E+01
6.000000 28.000000 -7.512864E+01
6.000000 26.000000 -8.017711E+01
6.000000 24.000000 -9.479292E+01
6.000000 22.000000 -1.054881E+02
6.000000 20.000000 -1.184692E+02
6.000000 18.000000 -1.177043E+02
6.000000 16.000000 -9.863336E+01
6.000000 14.000000 -7.084315E+01
6.000000 12.000000 -3.332023E+01
6.000000 10.000000 1.191410E+00
6.000000 8.000000 2.530511E+01
6.000000 6.000000 2.873464E+01
6.000000 4.000000 1.850151E+01
6.000000 2.000000 5.727205E+00
6.000000 0.000000 3.182193E+00
6.000000 -2.000000 1.351902E+01
6.000000 -4.000000 3.102770E+01
6.000000 -6.000000 4.660840E+01
6.000000 -8.000000 5.850516E+01
6.000000 -10.000000 7.742147E+01
6.000000 -12.000000 9.302896E+01
6.000000 -14.000000 1.097855E+02
6.000000 -16.000000 1.177587E+02
6.000000 -18.000000 1.096091E+02
6.000000 -20.000000 8.822429E+01
6.000000 -22.000000 6.300281E+01
6.000000 -24.000000 3.735187E+01
6.000000 -26.000000 1.516604E+01
6.000000 -28.000000 -5.511008E-05
6.000000 -30.000000 -8.732446E+00
6.000000 -32.000000 -1.107493E+01
6.000000 -34.000000 -1.084832E+01
6.000000 -36.000000 -3.539143E+00
6.000000 -38.000000 -2.379849E+00
6.000000 -40.000000 -1.120973E+00
8.000000 40.000000 -1.776230E+01
8.000000 38.000000 -1.707108E+01
8.000000 36.000000 -2.765254E+01
8.000000 34.000000 -5.128826E+01
8.000000 32.000000 -7.594112E+01
8.000000 30.000000 -8.909974E+01
8.000000 28.000000 -9.395706E+01
8.000000 26.000000 -9.485492E+01
8.000000 24.000000 -1.080306E+02
8.000000 22.000000 -1.192498E+02
8.000000 20.000000 -1.349559E+02
8.000000 18.000000 -1.377608E+02
8.000000 16.000000 -1.200560E+02
8.000000 14.000000 -8.954627E+01
8.000000 12.000000 -4.346693E+01
8.000000 10.000000 2.971596E+00
8.000000 8.000000 3.360054E+01
8.000000 6.000000 3.696917E+01
8.000000 4.000000 1.848715E+01
8.000000 2.000000 -4.917431E+00
8.000000 0.000000 -1.354267E+01
8.000000 -2.000000 -2.584785E+00
8.000000 -4.000000 1.799536E+01
8.000000 -6.000000 3.620985E+01
8.000000 -8.000000 4.869781E+01
8.000000 -10.000000 6.605807E+01
8.000000 -12.000000 8.065235E+01
8.000000 -14.000000 9.792759E+01
8.000000 -16.000000 1.040226E+02
8.000000 -18.000000 9.300207E+01
8.000000 -20.000000 7.126422E+01
8.000000 -22.000000 4.928600E+01
8.000000 -24.000000 3.135550E+01
8.000000 -26.000000 1.673811E+01
8.000000 -28.000000 5.395762E+00
8.000000 -30.000000 -2.752411E+00
8.000000 -32.000000 -8.615529E+00
8.000000 -34.000000 -1.361497E+01
8.000000 -36.000000 -1.101958E+01
8.000000 -38.000000 -8.967785E+00
8.000000 -40.000000 -5.698102E+00
10.000000 40.000000 -3.387879E+01
10.000000 38.000000 -3.134130E+01
10.000000 36.000000 -3.928132E+01
10.000000 34.000000 -6.085788E+01
10.000000 32.000000 -8.264593E+01
10.000000 30.000000 -8.969318E+01
10.000000 28.000000 -8.720767E+01
10.000000 26.000000 -8.052816E+01
10.000000 24.000000 -8.340288E+01
10.000000 22.000000 -8.827208E+01
10.000000 20.000000 -9.686750E+01
10.000000 18.000000 -9.758553E+01
10.000000 16.000000 -8.322245E+01
10.000000 14.000000 -5.487004E+01
10.000000 12.000000 -1.164801E+01
10.000000 10.000000 3.456785E+01
10.000000 8.000000 5.774109E+01
10.000000 6.000000 4.906626E+01
10.000000 4.000000 9.364981E+00
10.000000 2.000000 -3.354855E+01
10.000000 0.000000 -5.465849E+01
10.000000 -2.000000 -4.613738E+01
10.000000 -4.000000 -2.446688E+01
10.000000 -6.000000 -5.471736E+00
10.000000 -8.000000 6.077374E+00
10.000000 -10.000000 1.659458E+01
10.000000 -12.000000 3.136256E+01
10.000000 -14.000000 5.226762E+01
10.000000 -16.000000 6.192735E+01
10.000000 -18.000000 5.273186E+01
10.000000 -20.000000 3.487234E+01
10.000000 -22.000000 2.047008E+01
10.000000 -24.000000 1.452033E+01
10.000000 -26.000000 1.266206E+01
10.000000 -28.000000 8.043460E+00
10.000000 -30.000000 1.332192E+00
10.000000 -32.000000 -8.520441E+00
10.000000 -34.000000 -1.907350E+01
10.000000 -36.000000 -2.063696E+01
10.000000 -38.000000 -1.662941E+01
10.000000 -40.000000 -9.544717E+00
12.000000 40.000000 -5.562346E+01
12.000000 38.000000 -4.741202E+01
12.000000 36.000000 -4.654813E+01
12.000000 34.000000 -5.824374E+01
12.000000 32.000000 -7.209313E+01
12.000000 30.000000 -7.112502E+01
12.000000 28.000000 -6.181224E+01
12.000000 26.000000 -4.760294E+01
12.000000 24.000000 -3.673740E+01
12.000000 22.000000 -3.295852E+01
12.000000 20.000000 -3.134512E+01
12.000000 18.000000 -2.801925E+01
12.000000 16.000000 -1.862445E+01
12.000000 14.000000 3.015739E+00
12.000000 12.000000 3.534372E+01
12.000000 10.000000 7.103855E+01
12.000000 8.000000 7.904688E+01
12.000000 6.000000 5.493764E+01
12.000000 4.000000 -4.232210E+00
12.000000 2.000000 -6.316409E+01
12.000000 0.000000 -9.504796E+01
12.000000 -2.000000 -9.053742E+01
12.000000 -4.000000 -7.201843E+01
12.000000 -6.000000 -5.689606E+01
12.000000 -8.000000 -4.999481E+01
12.000000 -10.000000 -4.624139E+01
12.000000 -12.000000 -2.577807E+01
12.000000 -14.000000 4.539912E+00
12.000000 -16.000000 2.413263E+01
12.000000 -18.000000 1.750559E+01
12.000000 -20.000000 -1.545664E+00
12.000000 -22.000000 -1.400130E+01
12.000000 -24.000000 -1.248819E+01
12.000000 -26.000000 -3.001682E+00
12.000000 -28.000000 1.447944E+00
12.000000 -30.000000 -1.652215E+00
12.000000 -32.000000 -1.292334E+01
12.000000 -34.000000 -2.658078E+01
12.000000 -36.000000 -3.044315E+01
12.000000 -38.000000 -2.500791E+01
12.000000 -40.000000 -1.471529E+01
14.000000 40.000000 -6.950910E+01
14.000000 38.000000 -5.744622E+01
14.000000 36.000000 -5.036041E+01
14.000000 34.000000 -5.059805E+01
14.000000 32.000000 -5.434142E+01
14.000000 30.000000 -4.744895E+01
14.000000 28.000000 -3.378807E+01
14.000000 26.000000 -1.563134E+01
14.000000 24.000000 4.945535E+00
14.000000 22.000000 1.531918E+01
14.000000 20.000000 2.350573E+01
14.000000 18.000000 3.088496E+01
14.000000 16.000000 3.888943E+01
14.000000 14.000000 5.440991E+01
14.000000 12.000000 7.400020E+01
14.000000 10.000000 9.334403E+01
14.000000 8.000000 8.672499E+01
14.000000 6.000000 5.440664E+01
14.000000 4.000000 -9.102987E+00
14.000000 2.000000 -7.184529E+01
14.000000 0.000000 -1.086758E+02
14.000000 -2.000000 -1.102079E+02
14.000000 -4.000000 -9.980145E+01
14.000000 -6.000000 -9.475046E+01
14.000000 -8.000000 -9.636725E+01
14.000000 -10.000000 -9.687318E+01
14.000000 -12.000000 -6.588553E+01
14.000000 -14.000000 -1.952184E+01
14.000000 -16.000000 1.187000E+01
14.000000 -18.000000 2.674442E+00
14.000000 -20.000000 -2.632862E+01
14.000000 -22.000000 -4.518395E+01
14.000000 -24.000000 -4.237402E+01
14.000000 -26.000000 -2.691267E+01
14.000000 -28.000000 -1.524466E+01
14.000000 -30.000000 -1.360004E+01
14.000000 -32.000000 -2.276422E+01
14.000000 -34.000000 -3.632258E+01
14.000000 -36.000000 -4.055035E+01
14.000000 -38.000000 -3.287679E+01
14.000000 -40.000000 -1.989406E+01
16.000000 40.000000 -7.381780E+01
16.000000 38.000000 -6.088255E+01
16.000000 36.000000 -4.988807E+01
16.000000 34.000000 -4.057468E+01
16.000000 32.000000 -3.543323E+01
16.000000 30.000000 -2.606944E+01
16.000000 28.000000 -1.174827E+01
16.000000 26.000000 5.446897E+00
16.000000 24.000000 2.706350E+01
16.000000 22.000000 3.915804E+01
16.000000 20.000000 4.893511E+01
16.000000 18.000000 5.996790E+01
16.000000 16.000000 7.238433E+01
16.000000 14.000000 8.604949E+01
16.000000 12.000000 9.413397E+01
16.000000 10.000000 9.501499E+01
16.000000 8.000000 7.791796E+01
16.000000 6.000000 4.597787E+01
16.000000 4.000000 -3.914836E+00
16.000000 2.000000 -5.472022E+01
16.000000 0.000000 -8.991946E+01
16.000000 -2.000000 -1.004792E+02
16.000000 -4.000000 -1.030803E+02
16.000000 -6.000000 -1.131382E+02
16.000000 -8.000000 -1.229150E+02
16.000000 -10.000000 -1.205456E+02
16.000000 -12.000000 -7.554795E+01
16.000000 -14.000000 -1.168161E+01
16.000000 -16.000000 2.666229E+01
16.000000 -18.000000 8.935480E+00
16.000000 -20.000000 -3.565839E+01
16.000000 -22.000000 -6.566763E+01
16.000000 -24.000000 -6.634668E+01
16.000000 -26.000000 -5.057838E+01
16.000000 -28.000000 -3.735811E+01
16.000000 -30.000000 -3.363403E+01
16.000000 -32.000000 -3.985096E+01
16.000000 -34.000000 -4.950677E+01
16.000000 -36.000000 -4.954559E+01
16.000000 -38.000000 -3.763792E+01
16.000000 -40.000000 -2.260627E+01
18.000000 40.000000 -7.274833E+01
18.000000 38.000000 -6.019771E+01
18.000000 36.000000 -4.528518E+01
18.000000 34.000000 -2.919147E+01
18.000000 32.000000 -1.761238E+01
18.000000 30.000000 -8.048387E+00
18.000000 28.000000 3.260218E+00
18.000000 26.000000 1.537051E+01
18.000000 24.000000 3.066543E+01
18.000000 22.000000 3.980487E+01
18.000000 20.000000 4.770929E+01
18.000000 18.000000 6.217701E+01
18.000000 16.000000 8.241283E+01
18.000000 14.000000 9.908987E+01
18.000000 12.000000 1.000865E+02
18.000000 10.000000 8.618209E+01
18.000000 8.000000 6.208005E+01
18.000000 6.000000 3.625619E+01
18.000000 4.000000 8.729914E+00
18.000000 2.000000 -2.402667E+01
18.000000 0.000000 -5.680672E+01
18.000000 -2.000000 -7.998744E+01
18.000000 -4.000000 -9.744949E+01
18.000000 -6.000000 -1.193167E+02
18.000000 -8.000000 -1.313754E+02
18.000000 -10.000000 -1.204469E+02
18.000000 -12.000000 -6.086442E+01
18.000000 -14.000000 1.591230E+01
18.000000 -16.000000 5.454336E+01
18.000000 -18.000000 2.672253E+01
18.000000 -20.000000 -3.169547E+01
18.000000 -22.000000 -7.200109E+01
18.000000 -24.000000 -7.854846E+01
18.000000 -26.000000 -6.585924E+01
18.000000 -28.000000 -5.653410E+01
18.000000 -30.000000 -5.512601E+01
18.000000 -32.000000 -6.092813E+01
18.000000 -34.000000 -6.439466E+01
18.000000 -36.000000 -5.497560E+01
18.000000 -38.000000 -3.766386E+01
18.000000 -40.000000 -2.195678E+01
20.000000 40.000000 -6.858770E+01
20.000000 38.000000 -5.641180E+01
20.000000 36.000000 -3.856689E+01
20.000000 34.000000 -1.735390E+01
20.000000 32.000000 -9.902251E-01
20.000000 30.000000 7.880601E+00
20.000000 28.000000 1.357116E+01
20.000000 26.000000 1.774494E+01
20.000000 24.000000 2.335614E+01
20.000000 22.000000 2.741371E+01
20.000000 20.000000 3.261246E+01
20.000000 18.000000 4.990288E+01
20.000000 16.000000 7.752906E+01
20.000000 14.000000 9.880975E+01
20.000000 12.000000 9.680858E+01
20.000000 10.000000 7.503792E+01
20.000000 8.000000 4.725017E+01
20.000000 6.000000 3.025764E+01
20.000000 4.000000 2.283969E+01
20.000000 2.000000 4.368906E+00
20.000000 0.000000 -2.836329E+01
20.000000 -2.000000 -6.555325E+01
20.000000 -4.000000 -9.687218E+01
20.000000 -6.000000 -1.234295E+02
20.000000 -8.000000 -1.308939E+02
20.000000 -10.000000 -1.082984E+02
20.000000 -12.000000 -3.561858E+01
20.000000 -14.000000 4.770961E+01
20.000000 -16.000000 8.189257E+01
20.000000 -18.000000 4.469028E+01
20.000000 -20.000000 -2.238107E+01
20.000000 -22.000000 -6.835833E+01
20.000000 -24.000000 -7.924158E+01
20.000000 -26.000000 -7.073524E+01
20.000000 -28.000000 -6.772960E+01
20.000000 -30.000000 -7.100301E+01
20.000000 -32.000000 -7.615682E+01
20.000000 -34.000000 -7.219797E+01
20.000000 -36.000000 -5.423878E+01
20.000000 -38.000000 -3.416297E+01
20.000000 -40.000000 -1.917389E+01
22.000000 40.000000 -6.315563E+01
22.000000 38.000000 -5.075530E+01
22.000000 36.000000 -3.146414E+01
22.000000 34.000000 -6.147693E+00
22.000000 32.000000 1.414961E+01
22.000000 30.000000 2.221574E+01
22.000000 28.000000 2.183203E+01
22.000000 26.000000 1.828377E+01
22.000000 24.000000 1.518844E+01
22.000000 22.000000 1.436418E+01
22.000000 20.000000 1.849981E+01
22.000000 18.000000 3.734364E+01
22.000000 16.000000 6.667109E+01
22.000000 14.000000 8.636762E+01
22.000000 12.000000 7.992775E+01
22.000000 10.000000 5.462630E+01
22.000000 8.000000 2.895665E+01
22.000000 6.000000 2.153407E+01
22.000000 4.000000 2.682695E+01
22.000000 2.000000 1.615130E+01
22.000000 0.000000 -1.563973E+01
22.000000 -2.000000 -5.957153E+01
22.000000 -4.000000 -9.926051E+01
22.000000 -6.000000 -1.265671E+02
22.000000 -8.000000 -1.260623E+02
22.000000 -10.000000 -9.134830E+01
22.000000 -12.000000 -9.807768E+00
22.000000 -14.000000 7.362961E+01
22.000000 -16.000000 1.014530E+02
22.000000 -18.000000 5.731659E+01
22.000000 -20.000000 -1.330273E+01
22.000000 -22.000000 -5.911208E+01
22.000000 -24.000000 -7.117380E+01
22.000000 -26.000000 -6.688663E+01
22.000000 -28.000000 -6.948462E+01
22.000000 -30.000000 -7.723684E+01
22.000000 -32.000000 -8.024838E+01
22.000000 -34.000000 -6.921916E+01
22.000000 -36.000000 -4.737180E+01
22.000000 -38.000000 -2.812114E+01
22.000000 -40.000000 -1.502905E+01
24.000000 40.000000 -5.815474E+01
24.000000 38.000000 -4.503936E+01
24.000000 36.000000 -2.493186E+01
24.000000 34.000000 3.064954E+00
24.000000 32.000000 2.674404E+01
24.000000 30.000000 3.383688E+01
24.000000 28.000000 2.857615E+01
24.000000 26.000000 1.995917E+01
24.000000 24.000000 1.198109E+01
24.000000 22.000000 7.700493E+00
24.000000 20.000000 1.229521E+01
24.000000 18.000000 3.054516E+01
24.000000 16.000000 5.386945E+01
24.000000 14.000000 6.405756E+01
24.000000 12.000000 4.935336E+01
24.000000 10.000000 2.051250E+01
24.000000 8.000000 2.524040E-01
24.000000 6.000000 1.111764E+00
24.000000 4.000000 1.334164E+01
24.000000 2.000000 7.177550E+00
24.000000 0.000000 -2.021601E+01
24.000000 -2.000000 -6.122150E+01
24.000000 -4.000000 -1.005814E+02
24.000000 -6.000000 -1.247150E+02
24.000000 -8.000000 -1.163579E+02
24.000000 -10.000000 -7.222313E+01
24.000000 -12.000000 1.162909E+01
24.000000 -14.000000 8.891996E+01
24.000000 -16.000000 1.104352E+02
24.000000 -18.000000 6.488316E+01
24.000000 -20.000000 -3.405959E+00
24.000000 -22.000000 -4.585991E+01
24.000000 -24.000000 -5.752436E+01
24.000000 -26.000000 -5.605734E+01
24.000000 -28.000000 -6.151215E+01
24.000000 -30.000000 -7.154929E+01
24.000000 -32.000000 -7.414674E+01
24.000000 -34.000000 -6.039963E+01
24.000000 -36.000000 -3.726889E+01
24.000000 -38.000000 -1.951566E+01
24.000000 -40.000000 -9.904441E+00
26.000000 40.000000 -5.396047E+01
26.000000 38.000000 -4.042288E+01
26.000000 36.000000 -2.011251E+01
26.000000 34.000000 8.419917E+00
26.000000 32.000000 3.343874E+01
26.000000 30.000000 3.982254E+01
26.000000 28.000000 3.196152E+01
26.000000 26.000000 2.076539E+01
26.000000 24.000000 1.137615E+01
26.000000 22.000000 6.100580E+00
26.000000 20.000000 1.215775E+01
26.000000 18.000000 2.796032E+01
26.000000 16.000000 4.131421E+01
26.000000 14.000000 3.867888E+01
26.000000 12.000000 1.431924E+01
26.000000 10.000000 -1.906626E+01
26.000000 8.000000 -3.523032E+01
26.000000 6.000000 -3.059959E+01
26.000000 4.000000 -1.536359E+01
26.000000 2.000000 -1.620973E+01
26.000000 0.000000 -3.582933E+01
26.000000 -2.000000 -6.812659E+01
26.000000 -4.000000 -9.990554E+01
26.000000 -6.000000 -1.163353E+02
26.000000 -8.000000 -1.021120E+02
26.000000 -10.000000 -5.420630E+01
26.000000 -12.000000 2.537155E+01
26.000000 -14.000000 9.387218E+01
26.000000 -16.000000 1.099914E+02
26.000000 -18.000000 6.673104E+01
26.000000 -20.000000 4.858994E+00
26.000000 -22.000000 -3.227580E+01
26.000000 -24.000000 -4.155667E+01
26.000000 -26.000000 -4.017140E+01
26.000000 -28.000000 -4.652767E+01
26.000000 -30.000000 -5.704126E+01
26.000000 -32.000000 -6.048479E+01
26.000000 -34.000000 -4.733760E+01
26.000000 -36.000000 -2.477978E+01
26.000000 -38.000000 -1.005340E+01
26.000000 -40.000000 -5.694469E+00
28.000000 40.000000 -5.072419E+01
28.000000 38.000000 -3.829151E+01
28.000000 36.000000 -1.920023E+01
28.000000 34.000000 7.260421E+00
28.000000 32.000000 3.071479E+01
28.000000 30.000000 3.694956E+01
28.000000 28.000000 2.899996E+01
28.000000 26.000000 1.698671E+01
28.000000 24.000000 7.869999E+00
28.000000 22.000000 4.251331E+00
28.000000 20.000000 1.273690E+01
28.000000 18.000000 2.661330E+01
28.000000 16.000000 3.195699E+01
28.000000 14.000000 1.894483E+01
28.000000 12.000000 -1.287440E+01
28.000000 10.000000 -5.061353E+01
28.000000 8.000000 -6.597362E+01
28.000000 6.000000 -6.265146E+01
28.000000 4.000000 -4.621502E+01
28.000000 2.000000 -3.998749E+01
28.000000 0.000000 -4.968479E+01
28.000000 -2.000000 -7.115735E+01
28.000000 -4.000000 -9.423565E+01
28.000000 -6.000000 -1.042003E+02
28.000000 -8.000000 -8.786115E+01
28.000000 -10.000000 -4.211020E+01
28.000000 -12.000000 2.840971E+01
28.000000 -14.000000 8.722654E+01
28.000000 -16.000000 9.916870E+01
28.000000 -18.000000 5.974963E+01
28.000000 -20.000000 5.235529E+00
28.000000 -22.000000 -2.456571E+01
28.000000 -24.000000 -2.800011E+01
28.000000 -26.000000 -2.330146E+01
28.000000 -28.000000 -2.968294E+01
28.000000 -30.000000 -3.925215E+01
28.000000 -32.000000 -4.208697E+01
28.000000 -34.000000 -2.987501E+01
28.000000 -36.000000 -1.053946E+01
28.000000 -38.000000 -1.937211E+00
28.000000 -40.000000 -3.439691E+00
30.000000 40.000000 -4.932787E+01
30.000000 38.000000 -4.004061E+01
30.000000 36.000000 -2.427709E+01
30.000000 34.000000 -2.259583E+00
30.000000 32.000000 1.832259E+01
30.000000 30.000000 2.427755E+01
30.000000 28.000000 1.688423E+01
30.000000 26.000000 4.791914E+00
30.000000 24.000000 -4.681514E+00
30.000000 22.000000 -5.676638E+00
30.000000 20.000000 6.661638E+00
30.000000 18.000000 2.265394E+01
30.000000 16.000000 2.724210E+01
30.000000 14.000000 1.225972E+01
30.000000 12.000000 -2.074125E+01
30.000000 10.000000 -5.931119E+01
30.000000 8.000000 -7.570464E+01
30.000000 6.000000 -7.684749E+01
30.000000 4.000000 -6.086950E+01
30.000000 2.000000 -4.849108E+01
30.000000 0.000000 -4.914273E+01
30.000000 -2.000000 -6.159053E+01
30.000000 -4.000000 -7.923971E+01
30.000000 -6.000000 -8.755736E+01
30.000000 -8.000000 -7.575913E+01
30.000000 -10.000000 -3.951741E+01
30.000000 -12.000000 1.742451E+01
30.000000 -14.000000 6.429314E+01
30.000000 -16.000000 7.251911E+01
30.000000 -18.000000 3.883253E+01
30.000000 -20.000000 -6.400630E+00
30.000000 -22.000000 -2.745016E+01
30.000000 -24.000000 -2.310739E+01
30.000000 -26.000000 -1.290951E+01
30.000000 -28.000000 -1.598720E+01
30.000000 -30.000000 -2.143759E+01
30.000000 -32.000000 -2.124365E+01
30.000000 -34.000000 -1.113903E+01
30.000000 -36.000000 1.954051E+00
30.000000 -38.000000 4.334306E+00
30.000000 -40.000000 -1.530003E+00
32.000000 40.000000 -4.926892E+01
32.000000 38.000000 -4.558451E+01
32.000000 36.000000 -3.587259E+01
32.000000 34.000000 -2.048017E+01
32.000000 32.000000 -3.066485E+00
32.000000 30.000000 2.605202E+00
32.000000 28.000000 -4.489479E+00
32.000000 26.000000 -1.729892E+01
32.000000 24.000000 -2.944990E+01
32.000000 22.000000 -2.887851E+01
32.000000 20.000000 -1.303272E+01
32.000000 18.000000 1.005974E+01
32.000000 16.000000 2.448439E+01
32.000000 14.000000 2.063288E+01
32.000000 12.000000 -2.003967E+00
32.000000 10.000000 -3.274408E+01
32.000000 8.000000 -4.968007E+01
32.000000 6.000000 -5.571201E+01
32.000000 4.000000 -4.580861E+01
32.000000 2.000000 -3.535475E+01
32.000000 0.000000 -3.227821E+01
32.000000 -2.000000 -3.854421E+01
32.000000 -4.000000 -5.310920E+01
32.000000 -6.000000 -6.574221E+01
32.000000 -8.000000 -6.500537E+01
32.000000 -10.000000 -4.504861E+01
32.000000 -12.000000 -7.437292E+00
32.000000 -14.000000 2.343247E+01
32.000000 -16.000000 2.750172E+01
32.000000 -18.000000 1.916970E+00
32.000000 -20.000000 -3.000130E+01
32.000000 -22.000000 -4.045784E+01
32.000000 -24.000000 -2.776635E+01
32.000000 -26.000000 -1.169335E+01
32.000000 -28.000000 -7.874814E+00
32.000000 -30.000000 -6.277082E+00
32.000000 -32.000000 -1.198145E+00
32.000000 -34.000000 5.940949E+00
32.000000 -36.000000 1.143830E+01
32.000000 -38.000000 9.212788E+00
32.000000 -40.000000 6.172152E-01
34.000000 40.000000 -4.927126E+01
34.000000 38.000000 -5.399785E+01
34.000000 36.000000 -5.339220E+01
34.000000 34.000000 -4.596241E+01
34.000000 32.000000 -3.097012E+01
34.000000 30.000000 -2.436375E+01
34.000000 28.000000 -3.017245E+01
34.000000 26.000000 -4.378502E+01
34.000000 24.000000 -6.019177E+01
34.000000 22.000000 -6.025424E+01
34.000000 20.000000 -4.378405E+01
34.000000 18.000000 -1.175364E+01
34.000000 16.000000 2.087285E+01
34.000000 14.000000 3.981333E+01
34.000000 12.000000 3.883195E+01
34.000000 10.000000 2.489505E+01
34.000000 8.000000 7.449096E+00
34.000000 6.000000 -4.995342E+00
34.000000 4.000000 -8.698910E+00
34.000000 2.000000 -9.159856E+00
34.000000 0.000000 -9.075015E+00
34.000000 -2.000000 -1.255125E+01
34.000000 -4.000000 -2.492513E+01
34.000000 -6.000000 -4.411193E+01
34.000000 -8.000000 -5.732698E+01
34.000000 -10.000000 -5.707946E+01
34.000000 -12.000000 -4.054130E+01
34.000000 -14.000000 -2.517738E+01
34.000000 -16.000000 -2.330219E+01
34.000000 -18.000000 -3.812549E+01
34.000000 -20.000000 -5.398000E+01
34.000000 -22.000000 -5.358492E+01
34.000000 -24.000000 -3.533144E+01
34.000000 -26.000000 -1.589589E+01
34.000000 -28.000000 -5.435000E+00
34.000000 -30.000000 3.876518E+00
34.000000 -32.000000 1.341719E+01
34.000000 -34.000000 1.950505E+01
34.000000 -36.000000 1.906522E+01
34.000000 -38.000000 1.252627E+01
34.000000 -40.000000 1.557656E+00
36.000000 40.000000 -5.129611E+01
36.000000 38.000000 -6.477067E+01
36.000000 36.000000 -7.334559E+01
36.000000 34.000000 -7.253623E+01
36.000000 32.000000 -5.792904E+01
36.000000 30.000000 -4.824186E+01
36.000000 28.000000 -5.023090E+01
36.000000 26.000000 -6.259371E+01
36.000000 24.000000 -8.190649E+01
36.000000 22.000000 -8.538245E+01
36.000000 20.000000 -7.289730E+01
36.000000 18.000000 -3.679008E+01
36.000000 16.000000 1.272605E+01
36.000000 14.000000 5.672043E+01
36.000000 12.000000 8.057645E+01
36.000000 10.000000 8.573339E+01
36.000000 8.000000 6.779618E+01
36.000000 6.000000 4.776301E+01
36.000000 4.000000 2.740459E+01
36.000000 2.000000 1.319076E+01
36.000000 0.000000 6.979869E+00
36.000000 -2.000000 4.077462E+00
36.000000 -4.000000 -4.506673E+00
36.000000 -6.000000 -2.624606E+01
36.000000 -8.000000 -5.074317E+01
36.000000 -10.000000 -6.765697E+01
36.000000 -12.000000 -6.964924E+01
36.000000 -14.000000 -6.556143E+01
36.000000 -16.000000 -6.297763E+01
36.000000 -18.000000 -6.603547E+01
36.000000 -20.000000 -6.624305E+01
36.000000 -22.000000 -5.770890E+01
36.000000 -24.000000 -3.882700E+01
36.000000 -26.000000 -1.931785E+01
36.000000 -28.000000 -4.642018E+00
36.000000 -30.000000 1.037438E+01
36.000000 -32.000000 2.245022E+01
36.000000 -34.000000 2.831424E+01
36.000000 -36.000000 2.345729E+01
36.000000 -38.000000 1.309092E+01
36.000000 -40.000000 4.562283E-01
38.000000 40.000000 -5.668785E+01
38.000000 38.000000 -7.624867E+01
38.000000 36.000000 -9.088044E+01
38.000000 34.000000 -9.291849E+01
38.000000 32.000000 -7.570015E+01
38.000000 30.000000 -6.083655E+01
38.000000 28.000000 -5.758886E+01
38.000000 26.000000 -6.570826E+01
38.000000 24.000000 -8.408402E+01
38.000000 22.000000 -9.316886E+01
38.000000 20.000000 -8.872353E+01
38.000000 18.000000 -5.733875E+01
38.000000 16.000000 -1.607714E+00
38.000000 14.000000 5.776840E+01
38.000000 12.000000 1.001092E+02
38.000000 10.000000 1.194108E+02
38.000000 8.000000 1.024449E+02
38.000000 6.000000 7.665951E+01
38.000000 4.000000 4.440148E+01
38.000000 2.000000 2.041382E+01
38.000000 0.000000 9.433075E+00
38.000000 -2.000000 7.254660E+00
38.000000 -4.000000 4.130390E+00
38.000000 -6.000000 -1.406757E+01
38.000000 -8.000000 -4.320403E+01
38.000000 -10.000000 -7.032651E+01
38.000000 -12.000000 -8.497416E+01
38.000000 -14.000000 -8.752150E+01
38.000000 -16.000000 -8.269095E+01
38.000000 -18.000000 -7.611340E+01
38.000000 -20.000000 -6.551299E+01
38.000000 -22.000000 -5.253237E+01
38.000000 -24.000000 -3.443937E+01
38.000000 -26.000000 -1.540349E+01
38.000000 -28.000000 1.066746E+00
38.000000 -30.000000 1.723690E+01
38.000000 -32.000000 2.901458E+01
38.000000 -34.000000 3.270610E+01
38.000000 -36.000000 2.334753E+01
38.000000 -38.000000 1.034357E+01
38.000000 -40.000000 -2.877478E+00
40.000000 40.000000 -6.131402E+01
40.000000 38.000000 -8.489476E+01
40.000000 36.000000 -1.033293E+02
40.000000 34.000000 -1.046937E+02
40.000000 32.000000 -8.166421E+01
40.000000 30.000000 -5.998003E+01
40.000000 28.000000 -5.185466E+01
40.000000 26.000000 -5.546726E+01
40.000000 24.000000 -7.015742E+01
40.000000 22.000000 -8.368080E+01
40.000000 20.000000 -8.752089E+01
40.000000 18.000000 -6.635154E+01
40.000000 16.000000 -1.675934E+01
40.000000 14.000000 4.246402E+01
40.000000 12.000000 8.985398E+01
40.000000 10.000000 1.141235E+02
40.000000 8.000000 9.969907E+01
40.000000 6.000000 7.108386E+01
40.000000 4.000000 3.675355E+01
40.000000 2.000000 1.232915E+01
40.000000 0.000000 6.372452E-03
40.000000 -2.000000 -2.617545E+00
40.000000 -4.000000 -8.658905E-01
40.000000 -6.000000 -1.029228E+01
40.000000 -8.000000 -3.528117E+01
40.000000 -10.000000 -6.399834E+01
40.000000 -12.000000 -8.390145E+01
40.000000 -14.000000 -9.005374E+01
40.000000 -16.000000 -8.495408E+01
40.000000 -18.000000 -7.303343E+01
40.000000 -20.000000 -5.741769E+01
40.000000 -22.000000 -4.180985E+01
40.000000 -24.000000 -2.218194E+01
40.000000 -26.000000 -2.060138E+00
40.000000 -28.000000 1.492685E+01
40.000000 -30.000000 2.831088E+01
40.000000 -32.000000 3.484082E+01
40.000000 -34.000000 3.332357E+01
40.000000 -36.000000 2.001339E+01
40.000000 -38.000000 5.844881E+00
40.000000 -40.000000 -7.894877E+00
42.000000 40.000000 -6.169366E+01
42.000000 38.000000 -8.738489E+01
42.000000 36.000000 -1.080668E+02
42.000000 34.000000 -1.073962E+02
42.000000 32.000000 -7.749926E+01
42.000000 30.000000 -4.851167E+01
42.000000 28.000000 -3.616163E+01
42.000000 26.000000 -3.732403E+01
42.000000 24.000000 -4.871679E+01
42.000000 22.000000 -6.352608E+01
42.000000 20.000000 -7.304974E+01
42.000000 18.000000 -6.296529E+01
42.000000 16.000000 -2.692720E+01
42.000000 14.000000 2.076100E+01
42.000000 12.000000 6.095272E+01
42.000000 10.000000 8.079060E+01
42.000000 8.000000 6.804074E+01
42.000000 6.000000 3.943569E+01
42.000000 4.000000 9.652704E+00
42.000000 2.000000 -8.818704E+00
42.000000 0.000000 -1.935741E+01
42.000000 -2.000000 -2.154439E+01
42.000000 -4.000000 -1.729789E+01
42.000000 -6.000000 -1.658805E+01
42.000000 -8.000000 -3.017130E+01
42.000000 -10.000000 -5.169606E+01
42.000000 -12.000000 -6.955838E+01
42.000000 -14.000000 -7.708783E+01
42.000000 -16.000000 -7.415883E+01
42.000000 -18.000000 -6.303237E+01
42.000000 -20.000000 -4.829166E+01
42.000000 -22.000000 -3.055414E+01
42.000000 -24.000000 -6.296241E+00
42.000000 -26.000000 1.686245E+01
42.000000 -28.000000 3.241412E+01
42.000000 -30.000000 4.044688E+01
42.000000 -32.000000 3.810030E+01
42.000000 -34.000000 2.984459E+01
42.000000 -36.000000 1.477304E+01
42.000000 -38.000000 1.538140E+00
42.000000 -40.000000 -1.250674E+01
44.000000 40.000000 -5.762634E+01
44.000000 38.000000 -8.198089E+01
44.000000 36.000000 -1.025228E+02
44.000000 34.000000 -1.005269E+02
44.000000 32.000000 -6.662307E+01
44.000000 30.000000 -3.194465E+01
44.000000 28.000000 -1.528667E+01
44.000000 26.000000 -1.557044E+01
44.000000 24.000000 -2.521582E+01
44.000000 22.000000 -3.922639E+01
44.000000 20.000000 -5.140566E+01
44.000000 18.000000 -4.968779E+01
44.000000 16.000000 -2.711574E+01
44.000000 14.000000 4.260093E+00
44.000000 12.000000 3.005674E+01
44.000000 10.000000 3.927177E+01
44.000000 8.000000 2.664874E+01
44.000000 6.000000 6.954832E-01
44.000000 4.000000 -2.275450E+01
44.000000 2.000000 -3.379707E+01
44.000000 0.000000 -4.030091E+01
44.000000 -2.000000 -4.105508E+01
44.000000 -4.000000 -3.668805E+01
44.000000 -6.000000 -2.803128E+01
44.000000 -8.000000 -2.848374E+01
44.000000 -10.000000 -3.819736E+01
44.000000 -12.000000 -5.019673E+01
44.000000 -14.000000 -5.803752E+01
44.000000 -16.000000 -5.912019E+01
44.000000 -18.000000 -5.280980E+01
44.000000 -20.000000 -4.202938E+01
44.000000 -22.000000 -2.338115E+01
44.000000 -24.000000 4.153585E+00
44.000000 -26.000000 2.913356E+01
44.000000 -28.000000 4.140304E+01
44.000000 -30.000000 4.447609E+01
44.000000 -32.000000 3.595073E+01
44.000000 -34.000000 2.419127E+01
44.000000 -36.000000 1.029571E+01
44.000000 -38.000000 -5.185027E-01
44.000000 -40.000000 -1.383361E+01
46.000000 40.000000 -4.996295E+01
46.000000 38.000000 -6.972555E+01
46.000000 36.000000 -8.738637E+01
46.000000 34.000000 -8.481783E+01
46.000000 32.000000 -5.144937E+01
46.000000 30.000000 -1.470947E+01
46.000000 28.000000 6.067157E+00
46.000000 26.000000 7.248374E+00
46.000000 24.000000 -5.561581E-01
46.000000 22.000000 -1.269399E+01
46.000000 20.000000 -2.536057E+01
46.000000 18.000000 -2.912780E+01
46.000000 16.000000 -1.737585E+01
46.000000 14.000000 -1.153248E+00
46.000000 12.000000 1.001189E+01
46.000000 10.000000 8.510191E+00
46.000000 8.000000 -4.196733E+00
46.000000 6.000000 -2.574916E+01
46.000000 4.000000 -4.267960E+01
46.000000 2.000000 -4.900748E+01
46.000000 0.000000 -5.245550E+01
46.000000 -2.000000 -5.288981E+01
46.000000 -4.000000 -4.894899E+01
46.000000 -6.000000 -3.654053E+01
46.000000 -8.000000 -2.861526E+01
46.000000 -10.000000 -2.837920E+01
46.000000 -12.000000 -3.577508E+01
46.000000 -14.000000 -4.352736E+01
46.000000 -16.000000 -4.907131E+01
46.000000 -18.000000 -4.902870E+01
46.000000 -20.000000 -4.288275E+01
46.000000 -22.000000 -2.649459E+01
46.000000 -24.000000 -1.157438E+00
46.000000 -26.000000 2.171442E+01
46.000000 -28.000000 3.184706E+01
46.000000 -30.000000 3.429150E+01
46.000000 -32.000000 2.703680E+01
46.000000 -34.000000 1.840628E+01
46.000000 -36.000000 9.423791E+00
46.000000 -38.000000 2.064519E+00
46.000000 -40.000000 -8.976553E+00
48.000000 40.000000 -4.011861E+01
48.000000 38.000000 -5.358727E+01
48.000000 36.000000 -6.572214E+01
48.000000 34.000000 -6.257175E+01
48.000000 32.000000 -3.394761E+01
48.000000 30.000000 4.099607E-01
48.000000 28.000000 2.432530E+01
48.000000 26.000000 2.986462E+01
48.000000 24.000000 2.701923E+01
48.000000 22.000000 1.781031E+01
48.000000 20.000000 6.635465E+00
48.000000 18.000000 -7.559419E-01
48.000000 16.000000 1.488809E+00
48.000000 14.000000 5.649627E+00
48.000000 12.000000 5.523970E+00
48.000000 10.000000 -2.778866E+00
48.000000 8.000000 -1.414752E+01
48.000000 6.000000 -2.980849E+01
48.000000 4.000000 -4.135806E+01
48.000000 2.000000 -4.748237E+01
48.000000 0.000000 -5.220859E+01
48.000000 -2.000000 -5.536183E+01
48.000000 -4.000000 -5.385269E+01
48.000000 -6.000000 -4.298877E+01
48.000000 -8.000000 -3.232363E+01
48.000000 -10.000000 -2.604335E+01
48.000000 -12.000000 -3.073906E+01
48.000000 -14.000000 -3.810566E+01
48.000000 -16.000000 -4.558086E+01
48.000000 -18.000000 -5.033454E+01
48.000000 -20.000000 -5.005175E+01
48.000000 -22.000000 -4.145360E+01
48.000000 -24.000000 -2.399492E+01
48.000000 -26.000000 -6.378406E+00
48.000000 -28.000000 4.263986E+00
48.000000 -30.000000 1.101735E+01
48.000000 -32.000000 1.236647E+01
48.000000 -34.000000 1.284584E+01
48.000000 -36.000000 1.198762E+01
48.000000 -38.000000 9.122299E+00
48.000000 -40.000000 1.881466E+00
50.000000 40.000000 -2.834021E+01
50.000000 38.000000 -3.600968E+01
50.000000 36.000000 -4.308673E+01
50.000000 34.000000 -4.054856E+01
50.000000 32.000000 -1.902856E+01
50.000000 30.000000 1.001844E+01
50.000000 28.000000 3.636924E+01
50.000000 26.000000 4.935028E+01
50.000000 24.000000 5.625173E+01
50.000000 22.000000 5.265118E+01
50.000000 20.000000 4.452836E+01
50.000000 18.000000 3.433467E+01
50.000000 16.000000 2.836173E+01
50.000000 14.000000 2.381685E+01
50.000000 12.000000 1.640241E+01
50.000000 10.000000 6.294428E+00
50.000000 8.000000 -2.578463E+00
50.000000 6.000000 -1.215804E+01
50.000000 4.000000 -2.080741E+01
50.000000 2.000000 -3.049006E+01
50.000000 0.000000 -4.186903E+01
50.000000 -2.000000 -5.206337E+01
50.000000 -4.000000 -5.688963E+01
50.000000 -6.000000 -5.234566E+01
50.000000 -8.000000 -4.364394E+01
50.000000 -10.000000 -3.636848E+01
50.000000 -12.000000 -3.742033E+01
50.000000 -14.000000 -4.196610E+01
50.000000 -16.000000 -4.747203E+01
50.000000 -18.000000 -5.340667E+01
50.000000 -20.000000 -5.852785E+01
50.000000 -22.000000 -5.967775E+01
50.000000 -24.000000 -5.209183E+01
50.000000 -26.000000 -4.045457E+01
50.000000 -28.000000 -2.803015E+01
50.000000 -30.000000 -1.465557E+01
50.000000 -32.000000 -1.922748E+00
50.000000 -34.000000 9.393976E+00
50.000000 -36.000000 1.728797E+01
50.000000 -38.000000 1.801468E+01
50.000000 -40.000000 1.348097E+01
52.000000 40.000000 -1.367446E+01
52.000000 38.000000 -1.740004E+01
52.000000 36.000000 -2.284811E+01
52.000000 34.000000 -2.363695E+01
52.000000 32.000000 -1.005968E+01
52.000000 30.000000 1.272432E+01
52.000000 28.000000 4.068263E+01
52.000000 26.000000 6.234380E+01
52.000000 24.000000 8.171748E+01
52.000000 22.000000 8.580358E+01
52.000000 20.000000 8.069691E+01
52.000000 18.000000 6.765980E+01
52.000000 16.000000 5.475897E+01
52.000000 14.000000 4.413473E+01
52.000000 12.000000 3.370236E+01
52.000000 10.000000 2.575217E+01
52.000000 8.000000 1.993117E+01
52.000000 6.000000 1.595276E+01
52.000000 4.000000 8.805274E+00
52.000000 2.000000 -5.643794E+00
52.000000 0.000000 -2.494707E+01
52.000000 -2.000000 -4.447912E+01
52.000000 -4.000000 -5.871602E+01
52.000000 -6.000000 -6.281320E+01
52.000000 -8.000000 -5.834362E+01
52.000000 -10.000000 -5.319256E+01
52.000000 -12.000000 -4.970505E+01
52.000000 -14.000000 -4.926758E+01
52.000000 -16.000000 -5.016439E+01
52.000000 -18.000000 -5.440574E+01
52.000000 -20.000000 -6.215839E+01
52.000000 -22.000000 -6.975343E+01
52.000000 -24.000000 -6.992700E+01
52.000000 -26.000000 -6.340937E+01
52.000000 -28.000000 -4.966555E+01
52.000000 -30.000000 -3.063925E+01
52.000000 -32.000000 -8.773336E+00
52.000000 -34.000000 1.036515E+01
52.000000 -36.000000 2.297802E+01
52.000000 -38.000000 2.394519E+01
52.000000 -40.000000 1.953907E+01
54.000000 40.000000 3.636835E+00
54.000000 38.000000 2.547203E+00
54.000000 36.000000 -3.667232E+00
54.000000 34.000000 -1.037929E+01
54.000000 32.000000 -5.771490E+00
54.000000 30.000000 1.043770E+01
54.000000 28.000000 3.840358E+01
54.000000 26.000000 6.670968E+01
54.000000 24.000000 9.586956E+01
54.000000 22.000000 1.060224E+02
54.000000 20.000000 1.018824E+02
54.000000 18.000000 8.609521E+01
54.000000 16.000000 6.951207E+01
54.000000 14.000000 5.586768E+01
54.000000 12.000000 4.493986E+01
54.000000 10.000000 3.984930E+01
54.000000 8.000000 3.664401E+01
54.000000 6.000000 3.607784E+01
54.000000 4.000000 3.019494E+01
54.000000 2.000000 1.380964E+01
54.000000 0.000000 -9.109078E+00
54.000000 -2.000000 -3.382884E+01
54.000000 -4.000000 -5.395023E+01
54.000000 -6.000000 -6.398502E+01
54.000000 -8.000000 -6.349868E+01
54.000000 -10.000000 -6.068388E+01
54.000000 -12.000000 -5.447642E+01
54.000000 -14.000000 -4.995328E+01
54.000000 -16.000000 -4.729723E+01
54.000000 -18.000000 -4.929680E+01
54.000000 -20.000000 -5.581618E+01
54.000000 -22.000000 -6.373091E+01
54.000000 -24.000000 -6.697175E+01
54.000000 -26.000000 -6.297362E+01
54.000000 -28.000000 -5.063403E+01
54.000000 -30.000000 -3.087486E+01
54.000000 -32.000000 -6.715393E+00
54.000000 -34.000000 1.292288E+01
54.000000 -36.000000 2.248705E+01
54.000000 -38.000000 2.128753E+01
54.000000 -40.000000 1.692316E+01
56.000000 40.000000 1.650119E+01
56.000000 38.000000 1.498549E+01
56.000000 36.000000 1.015372E+01
56.000000 34.000000 -6.468301E-01
56.000000 32.000000 -1.884031E+00
56.000000 30.000000 8.091440E+00
56.000000 28.000000 3.323710E+01
56.000000 26.000000 6.245539E+01
56.000000 24.000000 9.202962E+01
56.000000 22.000000 1.032928E+02
56.000000 20.000000 9.671064E+01
56.000000 18.000000 7.983256E+01
56.000000 16.000000 6.552601E+01
56.000000 14.000000 5.377614E+01
56.000000 12.000000 4.390738E+01
56.000000 10.000000 3.863185E+01
56.000000 8.000000 3.568832E+01
56.000000 6.000000 3.475759E+01
56.000000 4.000000 3.015759E+01
56.000000 2.000000 1.798764E+01
56.000000 0.000000 5.832109E-01
56.000000 -2.000000 -1.907633E+01
56.000000 -4.000000 -3.597577E+01
56.000000 -6.000000 -4.656716E+01
56.000000 -8.000000 -4.897940E+01
56.000000 -10.000000 -4.735075E+01
56.000000 -12.000000 -4.315297E+01
56.000000 -14.000000 -3.850719E+01
56.000000 -16.000000 -3.544351E+01
56.000000 -18.000000 -3.513929E+01
56.000000 -20.000000 -3.696290E+01
56.000000 -22.000000 -4.034920E+01
56.000000 -24.000000 -4.242481E+01
56.000000 -26.000000 -4.279240E+01
56.000000 -28.000000 -3.536966E+01
56.000000 -30.000000 -2.075123E+01
56.000000 -32.000000 -1.130392E+00
56.000000 -34.000000 1.343487E+01
56.000000 -36.000000 1.634392E+01
56.000000 -38.000000 1.521821E+01
56.000000 -40.000000 1.133899E+01
58.000000 40.000000 3.075720E+01
58.000000 38.000000 2.790624E+01
58.000000 36.000000 2.001288E+01
58.000000 34.000000 7.261497E+00
58.000000 32.000000 2.557464E+00
58.000000 30.000000 8.536438E+00
58.000000 28.000000 2.990257E+01
58.000000 26.000000 5.527446E+01
58.000000 24.000000 7.910587E+01
58.000000 22.000000 8.587080E+01
58.000000 20.000000 7.749142E+01
58.000000 18.000000 6.331519E+01
58.000000 16.000000 5.465478E+01
58.000000 14.000000 4.673583E+01
58.000000 12.000000 3.862464E+01
58.000000 10.000000 3.165732E+01
58.000000 8.000000 2.796161E+01
58.000000 6.000000 2.518184E+01
58.000000 4.000000 2.176950E+01
58.000000 2.000000 1.552226E+01
58.000000 0.000000 6.418759E+00
58.000000 -2.000000 -5.004092E+00
58.000000 -4.000000 -1.548626E+01
58.000000 -6.000000 -2.438752E+01
58.000000 -8.000000 -2.902068E+01
58.000000 -10.000000 -2.812176E+01
58.000000 -12.000000 -2.756662E+01
58.000000 -14.000000 -2.482946E+01
58.000000 -16.000000 -2.254688E+01
58.000000 -18.000000 -2.071612E+01
58.000000 -20.000000 -1.918330E+01
58.000000 -22.000000 -1.875304E+01
58.000000 -24.000000 -2.019912E+01
58.000000 -26.000000 -2.178398E+01
58.000000 -28.000000 -2.215162E+01
58.000000 -30.000000 -1.218296E+01
58.000000 -32.000000 2.299589E+00
58.000000 -34.000000 1.223166E+01
58.000000 -36.000000 1.061854E+01
58.000000 -38.000000 8.601369E+00
58.000000 -40.000000 5.153976E+00
60.000000 40.000000 4.198168E+01
60.000000 38.000000 3.820760E+01
60.000000 36.000000 2.828172E+01
60.000000 34.000000 1.446834E+01
60.000000 32.000000 7.463601E+00
60.000000 30.000000 1.056931E+01
60.000000 28.000000 2.750132E+01
60.000000 26.000000 4.722443E+01
60.000000 24.000000 6.473631E+01
60.000000 22.000000 7.097350E+01
60.000000 20.000000 6.099069E+01
60.000000 18.000000 4.929931E+01
60.000000 16.000000 4.544908E+01
60.000000 14.000000 4.082132E+01
60.000000 12.000000 3.473146E+01
60.000000 10.000000 2.681609E+01
60.000000 8.000000 2.295383E+01
60.000000 6.000000 1.875184E+01
60.000000 4.000000 1.672558E+01
60.000000 2.000000 1.456230E+01
60.000000 0.000000 1.043318E+01
60.000000 -2.000000 4.204492E+00
60.000000 -4.000000 -1.769333E+00
60.000000 -6.000000 -8.664151E+00
