-24.000000 12.000000 5.840773E+01
-24.000000 10.000000 5.494116E+01
-24.000000 8.000000 5.216456E+01
-24.000000 6.000000 5.080325E+01
-24.000000 4.000000 4.744270E+01
-24.000000 2.000000 3.093989E+01
-24.000000 0.000000 1.347820E+01
-24.000000 -2.000000 5.728945E+00
-24.000000 -4.000000 5.698153E+00
-24.000000 -6.000000 7.754078E+00
-24.000000 -8.000000 7.295295E+00
-24.000000 -10.000000 1.947720E+00
-24.000000 -12.000000 -1.419168E+00
-24.000000 -14.000000 -4.025312E+00
-24.000000 -16.000000 -1.488416E+01
-24.000000 -18.000000 -2.868576E+01
-24.000000 -20.000000 -3.380900E+01
-24.000000 -22.000000 -2.473310E+01
-24.000000 -24.000000 -8.927805E+00
-24.000000 -26.000000 -2.834366E+00
-24.000000 -28.000000 -8.218145E+00
-24.000000 -30.000000 -7.388954E+00
-24.000000 -32.000000 1.388049E+00
-24.000000 -34.000000 9.709380E+00
-24.000000 -36.000000 1.502962E+01
-24.000000 -38.000000 1.960123E+01
-24.000000 -40.000000 2.620127E+01
-22.000000 40.000000 6.014351E+00
-22.000000 38.000000 2.242763E+01
-22.000000 36.000000 4.528751E+01
-22.000000 34.000000 6.339336E+01
-22.000000 32.000000 6.773602E+01
-22.000000 30.000000 6.178033E+01
-22.000000 28.000000 5.167550E+01
-22.000000 26.000000 4.849458E+01
-22.000000 24.000000 4.953388E+01
-22.000000 22.000000 5.186227E+01
-22.000000 20.000000 5.089464E+01
-22.000000 18.000000 4.850641E+01
-22.000000 16.000000 4.804348E+01
-22.000000 14.000000 4.943383E+01
-22.000000 12.000000 5.129066E+01
-22.000000 10.000000 5.015160E+01
-22.000000 8.000000 5.142670E+01
-22.000000 6.000000 5.235557E+01
-22.000000 4.000000 4.651590E+01
-22.000000 2.000000 3.068722E+01
-22.000000 0.000000 1.893689E+01
-22.000000 -2.000000 1.712175E+01
-22.000000 -4.000000 2.300266E+01
-22.000000 -6.000000 2.749679E+01
-22.000000 -8.000000 2.377602E+01
-22.000000 -10.000000 1.558464E+01
-22.000000 -12.000000 1.148193E+01
-22.000000 -14.000000 8.529293E+00
-22.000000 -16.000000 -4.083336E+00
-22.000000 -18.000000 -1.911788E+01
-22.000000 -20.000000 -2.473121E+01
-22.000000 -22.000000 -1.646058E+01
-22.000000 -24.000000 -4.575662E+00
-22.000000 -26.000000 -3.572631E+00
-22.000000 -28.000000 -1.247103E+01
-22.000000 -30.000000 -1.359014E+01
-22.000000 -32.000000 -5.507529E+00
-22.000000 -34.000000 3.995933E+00
-22.000000 -36.000000 1.176471E+01
-22.000000 -38.000000 1.768268E+01
-22.000000 -40.000000 2.453869E+01
-20.000000 40.000000 4.122879E+00
-20.000000 38.000000 1.823503E+01
-20.000000 36.000000 3.888861E+01
-20.000000 34.000000 5.511106E+01
-20.000000 32.000000 5.893277E+01
-20.000000 30.000000 5.395905E+01
-20.000000 28.000000 4.569806E+01
-20.000000 26.000000 4.277940E+01
-20.000000 24.000000 4.075653E+01
-20.000000 22.000000 3.728876E+01
-20.000000 20.000000 3.195458E+01
-20.000000 18.000000 3.061814E+01
-20.000000 16.000000 3.975678E+01
-20.000000 14.000000 5.535021E+01
-20.000000 12.000000 6.748291E+01
-20.000000 10.000000 6.639478E+01
-20.000000 8.000000 5.681923E+01
-20.000000 6.000000 4.634831E+01
-20.000000 4.000000 3.310282E+01
-20.000000 2.000000 2.077529E+01
-20.000000 0.000000 1.795027E+01
-20.000000 -2.000000 2.424379E+01
-20.000000 -4.000000 3.483800E+01
-20.000000 -6.000000 4.061715E+01
-20.000000 -8.000000 3.392861E+01
-20.000000 -10.000000 2.378001E+01
-20.000000 -12.000000 1.964178E+01
-20.000000 -14.000000 1.780479E+01
-20.000000 -16.000000 6.853220E+00
-20.000000 -18.000000 -7.254334E+00
-20.000000 -20.000000 -1.209255E+01
-20.000000 -22.000000 -5.428566E+00
-20.000000 -24.000000 2.045449E+00
-20.000000 -26.000000 -7.229161E-01
-20.000000 -28.000000 -1.298045E+01
-20.000000 -30.000000 -1.722096E+01
-20.000000 -32.000000 -1.206802E+01
-20.000000 -34.000000 -3.230820E+00
-20.000000 -36.000000 6.449852E+00
-20.000000 -38.000000 1.388155E+01
-20.000000 -40.000000 2.093117E+01
-18.000000 40.000000 2.086979E+00
-18.000000 38.000000 1.492391E+01
-18.000000 36.000000 3.244006E+01
-18.000000 34.000000 4.574659E+01
-18.000000 32.000000 4.946633E+01
-18.000000 30.000000 4.642127E+01
-18.000000 28.000000 4.081493E+01
-18.000000 26.000000 3.821160E+01
-18.000000 24.000000 3.360915E+01
-18.000000 22.000000 2.582415E+01
-18.000000 20.000000 1.609860E+01
-18.000000 18.000000 1.594044E+01
-18.000000 16.000000 3.872885E+01
-18.000000 14.000000 7.493864E+01
-18.000000 12.000000 1.020277E+02
-18.000000 10.000000 1.006182E+02
-18.000000 8.000000 7.010784E+01
-18.000000 6.000000 3.653150E+01
-18.000000 4.000000 1.298018E+01
-18.000000 2.000000 5.200241E+00
-18.000000 0.000000 1.093552E+01
-18.000000 -2.000000 2.396726E+01
-18.000000 -4.000000 3.681300E+01
-18.000000 -6.000000 4.193419E+01
-18.000000 -8.000000 3.424288E+01
-18.000000 -10.000000 2.477740E+01
-18.000000 -12.000000 2.303782E+01
-18.000000 -14.000000 2.529630E+01
-18.000000 -16.000000 1.904847E+01
-18.000000 -18.000000 6.086204E+00
-18.000000 -20.000000 -6.179752E-01
-18.000000 -22.000000 2.712653E+00
-18.000000 -24.000000 7.134285E+00
-18.000000 -26.000000 2.428953E+00
-18.000000 -28.000000 -1.110369E+01
-18.000000 -30.000000 -1.798162E+01
-18.000000 -32.000000 -1.559310E+01
-18.000000 -34.000000 -8.873330E+00
-18.000000 -36.000000 -1.073503E-02
-18.000000 -38.000000 8.879669E+00
-18.000000 -40.000000 1.753163E+01
-16.000000 40.000000 4.005432E-03
-16.000000 38.000000 1.222569E+01
-16.000000 36.000000 2.628420E+01
-16.000000 34.000000 3.599838E+01
-16.000000 32.000000 4.056818E+01
-16.000000 30.000000 4.048674E+01
-16.000000 28.000000 3.799339E+01
-16.000000 26.000000 3.692924E+01
-16.000000 24.000000 3.161588E+01
-16.000000 22.000000 2.260619E+01
-16.000000 20.000000 1.189267E+01
-16.000000 18.000000 1.411842E+01
-16.000000 16.000000 4.682191E+01
-16.000000 14.000000 9.875428E+01
-16.000000 12.000000 1.393305E+02
-16.000000 10.000000 1.386705E+02
-16.000000 8.000000 8.912954E+01
-16.000000 6.000000 3.159936E+01
-16.000000 4.000000 -5.689674E+00
-16.000000 2.000000 -1.377017E+01
-16.000000 0.000000 -3.421894E+00
-16.000000 -2.000000 1.465101E+01
-16.000000 -4.000000 2.967198E+01
-16.000000 -6.000000 3.404131E+01
-16.000000 -8.000000 2.597751E+01
-16.000000 -10.000000 1.726845E+01
-16.000000 -12.000000 1.918540E+01
-16.000000 -14.000000 2.809625E+01
-16.000000 -16.000000 2.822066E+01
-16.000000 -18.000000 1.692996E+01
-16.000000 -20.000000 7.915462E+00
-16.000000 -22.000000 8.677196E+00
-16.000000 -24.000000 1.130858E+01
-16.000000 -26.000000 4.990442E+00
-16.000000 -28.000000 -8.843124E+00
-16.000000 -30.000000 -1.677970E+01
-16.000000 -32.000000 -1.558691E+01
-16.000000 -34.000000 -1.054458E+01
-16.000000 -36.000000 -4.517950E+00
-16.000000 -38.000000 4.216636E+00
-16.000000 -40.000000 1.452842E+01
-14.000000 40.000000 -1.032421E+00
-14.000000 38.000000 9.592365E+00
-14.000000 36.000000 1.994118E+01
-14.000000 34.000000 2.666164E+01
-14.000000 32.000000 3.261533E+01
-14.000000 30.000000 3.590242E+01
-14.000000 28.000000 3.700451E+01
-14.000000 26.000000 3.798913E+01
-14.000000 24.000000 3.411899E+01
-14.000000 22.000000 2.676537E+01
-14.000000 20.000000 1.814510E+01
-14.000000 18.000000 2.308459E+01
-14.000000 16.000000 6.055056E+01
-14.000000 14.000000 1.212369E+02
-14.000000 12.000000 1.722269E+02
-14.000000 10.000000 1.756243E+02
-14.000000 8.000000 1.151556E+02
-14.000000 6.000000 3.969521E+01
-14.000000 4.000000 -1.316916E+01
-14.000000 2.000000 -2.850048E+01
-14.000000 0.000000 -1.997258E+01
-14.000000 -2.000000 -5.120468E-02
-14.000000 -4.000000 1.597249E+01
-14.000000 -6.000000 2.026972E+01
-14.000000 -8.000000 1.270121E+01
-14.000000 -10.000000 3.246063E+00
-14.000000 -12.000000 6.929777E+00
-14.000000 -14.000000 2.090402E+01
-14.000000 -16.000000 2.757488E+01
-14.000000 -18.000000 1.924264E+01
-14.000000 -20.000000 1.034574E+01
-14.000000 -22.000000 1.089011E+01
-14.000000 -24.000000 1.320925E+01
-14.000000 -26.000000 7.893161E+00
-14.000000 -28.000000 -4.857575E+00
-14.000000 -30.000000 -1.270902E+01
-14.000000 -32.000000 -1.245314E+01
-14.000000 -34.000000 -8.540546E+00
-14.000000 -36.000000 -5.122993E+00
-14.000000 -38.000000 1.846693E+00
-14.000000 -40.000000 1.224896E+01
-12.000000 40.000000 -1.570782E+00
-12.000000 38.000000 7.535053E+00
-12.000000 36.000000 1.544333E+01
-12.000000 34.000000 2.023216E+01
-12.000000 32.000000 2.666643E+01
-12.000000 30.000000 3.238280E+01
-12.000000 28.000000 3.629576E+01
-12.000000 26.000000 3.981467E+01
-12.000000 24.000000 3.933166E+01
-12.000000 22.000000 3.434361E+01
-12.000000 20.000000 2.807025E+01
-12.000000 18.000000 3.424636E+01
-12.000000 16.000000 7.232780E+01
-12.000000 14.000000 1.357802E+02
-12.000000 12.000000 1.926019E+02
-12.000000 10.000000 2.037575E+02
-12.000000 8.000000 1.449940E+02
-12.000000 6.000000 6.359088E+01
-12.000000 4.000000 -2.084011E+00
-12.000000 2.000000 -2.827883E+01
-12.000000 0.000000 -2.605321E+01
-12.000000 -2.000000 -8.220295E+00
-12.000000 -4.000000 7.284111E+00
-12.000000 -6.000000 1.099991E+01
-12.000000 -8.000000 2.692205E+00
-12.000000 -10.000000 -9.761877E+00
-12.000000 -12.000000 -8.652954E+00
-12.000000 -14.000000 3.300940E+00
-12.000000 -16.000000 1.050379E+01
-12.000000 -18.000000 6.548965E+00
-12.000000 -20.000000 1.543600E+00
-12.000000 -22.000000 4.247850E+00
-12.000000 -24.000000 8.694493E+00
-12.000000 -26.000000 7.902738E+00
-12.000000 -28.000000 -7.152996E-01
-12.000000 -30.000000 -6.705598E+00
-12.000000 -32.000000 -7.374107E+00
-12.000000 -34.000000 -4.419574E+00
-12.000000 -36.000000 -2.140432E+00
-12.000000 -38.000000 3.548958E+00
-12.000000 -40.000000 1.285744E+01
-10.000000 40.000000 -2.139935E+00
-10.000000 38.000000 6.403496E+00
-10.000000 36.000000 1.389666E+01
-10.000000 34.000000 1.768890E+01
-10.000000 32.000000 2.405697E+01
-10.000000 30.000000 3.072409E+01
-10.000000 28.000000 3.590540E+01
-10.000000 26.000000 4.194259E+01
-10.000000 24.000000 4.423086E+01
-10.000000 22.000000 3.986656E+01
-10.000000 20.000000 3.402627E+01
-10.000000 18.000000 3.976273E+01
-10.000000 16.000000 7.655022E+01
-10.000000 14.000000 1.396557E+02
-10.000000 12.000000 1.997342E+02
-10.000000 10.000000 2.197175E+02
-10.000000 8.000000 1.707466E+02
-10.000000 6.000000 9.489597E+01
-10.000000 4.000000 2.439838E+01
-10.000000 2.000000 -1.188461E+01
-10.000000 0.000000 -1.902584E+01
-10.000000 -2.000000 -6.444641E+00
-10.000000 -4.000000 7.074772E+00
-10.000000 -6.000000 9.747147E+00
-10.000000 -8.000000 3.580704E-01
-10.000000 -10.000000 -1.515914E+01
-10.000000 -12.000000 -1.945077E+01
-10.000000 -14.000000 -1.471113E+01
-10.000000 -16.000000 -1.271793E+01
-10.000000 -18.000000 -1.499837E+01
-10.000000 -20.000000 -1.621205E+01
-10.000000 -22.000000 -1.073142E+01
-10.000000 -24.000000 -2.676405E+00
-10.000000 -26.000000 1.675470E+00
-10.000000 -28.000000 -1.183311E+00
-10.000000 -30.000000 -3.948885E+00
-10.000000 -32.000000 -4.199139E+00
-10.000000 -34.000000 -8.597937E-01
-10.000000 -36.000000 3.141104E+00
-10.000000 -38.000000 9.905755E+00
-10.000000 -40.000000 1.860739E+01
-8.000000 40.000000 -1.666000E+00
-8.000000 38.000000 6.796017E+00
-8.000000 36.000000 1.479569E+01
-8.000000 34.000000 1.912136E+01
-8.000000 32.000000 2.525025E+01
-8.000000 30.000000 3.120513E+01
-8.000000 28.000000 3.622062E+01
-8.000000 26.000000 4.230110E+01
-8.000000 24.000000 4.381218E+01
-8.000000 22.000000 3.816847E+01
-8.000000 20.000000 3.065665E+01
-8.000000 18.000000 3.497734E+01
-8.000000 16.000000 7.130915E+01
-8.000000 14.000000 1.335079E+02
-8.000000 12.000000 1.956272E+02
-8.000000 10.000000 2.243088E+02
-8.000000 8.000000 1.872635E+02
-8.000000 6.000000 1.222183E+02
-8.000000 4.000000 5.352431E+01
-8.000000 2.000000 9.907913E+00
-8.000000 0.000000 -5.433628E+00
-8.000000 -2.000000 1.353333E+00
-8.000000 -4.000000 1.280903E+01
-8.000000 -6.000000 1.507450E+01
-8.000000 -8.000000 4.250996E+00
-8.000000 -10.000000 -1.317900E+01
-8.000000 -12.000000 -2.296178E+01
-8.000000 -14.000000 -2.566915E+01
-8.000000 -16.000000 -2.880241E+01
-8.000000 -18.000000 -3.242036E+01
-8.000000 -20.000000 -3.234949E+01
-8.000000 -22.000000 -2.591752E+01
-8.000000 -24.000000 -1.532548E+01
-8.000000 -26.000000 -6.642159E+00
-8.000000 -28.000000 -4.908278E+00
-8.000000 -30.000000 -5.550043E+00
-8.000000 -32.000000 -4.731056E+00
-8.000000 -34.000000 8.125286E-01
-8.000000 -36.000000 9.278365E+00
-8.000000 -38.000000 1.888899E+01
-8.000000 -40.000000 2.841670E+01
-6.000000 40.000000 -1.656174E+00
-6.000000 38.000000 8.097298E+00
-6.000000 36.000000 1.802904E+01
-6.000000 34.000000 2.514350E+01
-6.000000 32.000000 3.074649E+01
-6.000000 30.000000 3.433012E+01
-6.000000 28.000000 3.689375E+01
-6.000000 26.000000 4.050012E+01
-6.000000 24.000000 3.979574E+01
-6.000000 22.000000 3.251792E+01
-6.000000 20.000000 2.355646E+01
-6.000000 18.000000 2.734007E+01
-6.000000 16.000000 6.160208E+01
-6.000000 14.000000 1.181700E+02
-6.000000 12.000000 1.750518E+02
-6.000000 10.000000 2.056284E+02
-6.000000 8.000000 1.799353E+02
-6.000000 6.000000 1.291959E+02
-6.000000 4.000000 6.988041E+01
-6.000000 2.000000 2.613229E+01
-6.000000 0.000000 7.314461E+00
-6.000000 -2.000000 1.021391E+01
-6.000000 -4.000000 2.053758E+01
-6.000000 -6.000000 2.243763E+01
-6.000000 -8.000000 9.964479E+00
-6.000000 -10.000000 -7.968210E+00
-6.000000 -12.000000 -1.921962E+01
-6.000000 -14.000000 -2.452002E+01
-6.000000 -16.000000 -3.028920E+01
-6.000000 -18.000000 -3.607281E+01
-6.000000 -20.000000 -3.707872E+01
-6.000000 -22.000000 -3.202933E+01
-6.000000 -24.000000 -2.127027E+01
-6.000000 -26.000000 -1.111402E+01
-6.000000 -28.000000 -8.487682E+00
-6.000000 -30.000000 -8.614719E+00
-6.000000 -32.000000 -6.134214E+00
-6.000000 -34.000000 2.753867E+00
-6.000000 -36.000000 1.594092E+01
-6.000000 -38.000000 2.806710E+01
-6.000000 -40.000000 3.854241E+01
-4.000000 40.000000 -2.779823E+00
-4.000000 38.000000 9.869965E+00
-4.000000 36.000000 2.266974E+01
-4.000000 34.000000 3.268089E+01
-4.000000 32.000000 3.760743E+01
-4.000000 30.000000 3.838977E+01
-4.000000 28.000000 3.682353E+01
-4.000000 26.000000 3.742119E+01
-4.000000 24.000000 3.538542E+01
-4.000000 22.000000 2.782945E+01
-4.000000 20.000000 1.989354E+01
-4.000000 18.000000 2.395348E+01
-4.000000 16.000000 5.148153E+01
-4.000000 14.000000 9.553326E+01
-4.000000 12.000000 1.397277E+02
-4.000000 10.000000 1.640998E+02
-4.000000 8.000000 1.477379E+02
-4.000000 6.000000 1.113277E+02
-4.000000 4.000000 6.496532E+01
-4.000000 2.000000 2.725863E+01
-4.000000 0.000000 9.943197E+00
-4.000000 -2.000000 1.288555E+01
-4.000000 -4.000000 2.378811E+01
-4.000000 -6.000000 2.628927E+01
-4.000000 -8.000000 1.488037E+01
-4.000000 -10.000000 -8.725891E-01
-4.000000 -12.000000 -9.147684E+00
-4.000000 -14.000000 -1.187588E+01
-4.000000 -16.000000 -1.688478E+01
-4.000000 -18.000000 -2.500358E+01
-4.000000 -20.000000 -2.903133E+01
-4.000000 -22.000000 -2.622248E+01
-4.000000 -24.000000 -1.660933E+01
-4.000000 -26.000000 -7.860611E+00
-4.000000 -28.000000 -7.916052E+00
-4.000000 -30.000000 -8.764921E+00
-4.000000 -32.000000 -4.775108E+00
-4.000000 -34.000000 6.741337E+00
-4.000000 -36.000000 2.273887E+01
-4.000000 -38.000000 3.556269E+01
-4.000000 -40.000000 4.582849E+01
-2.000000 40.000000 -3.555355E+00
-2.000000 38.000000 1.151198E+01
-2.000000 36.000000 2.558270E+01
-2.000000 34.000000 3.633827E+01
-2.000000 32.000000 4.093718E+01
-2.000000 30.000000 4.080658E+01
-2.000000 28.000000 3.642534E+01
-2.000000 26.000000 3.439751E+01
-2.000000 24.000000 3.125102E+01
-2.000000 22.000000 2.444736E+01
-2.000000 20.000000 1.837667E+01
-2.000000 18.000000 2.167827E+01
-2.000000 16.000000 4.014285E+01
-2.000000 14.000000 6.824213E+01
-2.000000 12.000000 9.599038E+01
-2.000000 10.000000 1.115137E+02
-2.000000 8.000000 1.070378E+02
-2.000000 6.000000 8.439203E+01
-2.000000 4.000000 4.978860E+01
-2.000000 2.000000 1.849601E+01
-2.000000 0.000000 3.894817E+00
-2.000000 -2.000000 8.672747E+00
-2.000000 -4.000000 2.120733E+01
-2.000000 -6.000000 2.652835E+01
-2.000000 -8.000000 1.943651E+01
-2.000000 -10.000000 7.975399E+00
-2.000000 -12.000000 3.978428E+00
-2.000000 -14.000000 5.835726E+00
-2.000000 -16.000000 2.329290E+00
-2.000000 -18.000000 -8.935226E+00
-2.000000 -20.000000 -1.657252E+01
-2.000000 -22.000000 -1.461878E+01
-2.000000 -24.000000 -4.971035E+00
-2.000000 -26.000000 2.292277E+00
-2.000000 -28.000000 -1.104315E+00
-2.000000 -30.000000 -3.911875E+00
-2.000000 -32.000000 -2.445202E-01
-2.000000 -34.000000 1.129324E+01
-2.000000 -36.000000 2.761722E+01
-2.000000 -38.000000 4.064999E+01
-2.000000 -40.000000 5.079704E+01
0.000000 40.000000 -4.723822E+00
0.000000 38.000000 1.066064E+01
0.000000 36.000000 2.448294E+01
0.000000 34.000000 3.420299E+01
0.000000 32.000000 3.887951E+01
0.000000 30.000000 4.003455E+01
0.000000 28.000000 3.523302E+01
0.000000 26.000000 3.141704E+01
0.000000 24.000000 2.665647E+01
0.000000 22.000000 1.980314E+01
0.000000 20.000000 1.416785E+01
0.000000 18.000000 1.604668E+01
0.000000 16.000000 2.797765E+01
0.000000 14.000000 4.492797E+01
0.000000 12.000000 6.032997E+01
0.000000 10.000000 7.109256E+01
0.000000 8.000000 7.925773E+01
0.000000 6.000000 6.805101E+01
0.000000 4.000000 3.979383E+01
0.000000 2.000000 8.939739E+00
0.000000 0.000000 -6.106628E+00
0.000000 -2.000000 -7.237606E-01
0.000000 -4.000000 1.338437E+01
0.000000 -6.000000 2.315269E+01
0.000000 -8.000000 2.232057E+01
0.000000 -10.000000 1.589084E+01
0.000000 -12.000000 1.522541E+01
0.000000 -14.000000 2.078317E+01
0.000000 -16.000000 1.630844E+01
0.000000 -18.000000 1.954885E+00
0.000000 -20.000000 -7.548885E+00
0.000000 -22.000000 -3.938356E+00
0.000000 -24.000000 8.299041E+00
0.000000 -26.000000 1.466874E+01
0.000000 -28.000000 7.998708E+00
0.000000 -30.000000 2.808505E+00
0.000000 -32.000000 4.971206E+00
0.000000 -34.000000 1.378763E+01
0.000000 -36.000000 2.899722E+01
0.000000 -38.000000 4.396194E+01
0.000000 -40.000000 5.552239E+01
2.000000 40.000000 -5.616665E+00
2.000000 38.000000 7.893164E+00
2.000000 36.000000 1.965884E+01
2.000000 34.000000 2.613962E+01
2.000000 32.000000 2.978168E+01
2.000000 30.000000 3.273051E+01
2.000000 28.000000 2.928024E+01
2.000000 26.000000 2.491817E+01
2.000000 24.000000 1.836241E+01
2.000000 22.000000 1.054510E+01
2.000000 20.000000 4.140705E+00
2.000000 18.000000 5.076309E+00
2.000000 16.000000 1.742319E+01
2.000000 14.000000 3.756222E+01
2.000000 12.000000 5.687557E+01
2.000000 10.000000 7.241568E+01
2.000000 8.000000 8.566320E+01
2.000000 6.000000 7.784382E+01
2.000000 4.000000 4.306393E+01
2.000000 2.000000 -5.681229E-02
2.000000 0.000000 -2.331682E+01
2.000000 -2.000000 -2.057106E+01
2.000000 -4.000000 -4.881237E+00
2.000000 -6.000000 1.219451E+01
2.000000 -8.000000 1.989425E+01
2.000000 -10.000000 1.920502E+01
2.000000 -12.000000 2.044351E+01
2.000000 -14.000000 2.615476E+01
2.000000 -16.000000 1.943200E+01
2.000000 -18.000000 4.604135E+00
2.000000 -20.000000 -3.243858E+00
2.000000 -22.000000 3.486495E+00
2.000000 -24.000000 1.889818E+01
2.000000 -26.000000 2.506799E+01
2.000000 -28.000000 1.617505E+01
2.000000 -30.000000 8.795450E+00
2.000000 -32.000000 8.304794E+00
2.000000 -34.000000 1.334730E+01
2.000000 -36.000000 2.745372E+01
2.000000 -38.000000 4.556332E+01
2.000000 -40.000000 5.943026E+01
4.000000 40.000000 -4.965956E+00
4.000000 38.000000 5.602098E+00
4.000000 36.000000 1.315710E+01
4.000000 34.000000 1.490759E+01
4.000000 32.000000 1.579213E+01
4.000000 30.000000 1.932124E+01
4.000000 28.000000 1.789820E+01
4.000000 26.000000 1.475078E+01
4.000000 24.000000 7.965349E+00
4.000000 22.000000 -6.862144E-01
4.000000 20.000000 -9.563080E+00
4.000000 18.000000 -9.082554E+00
4.000000 16.000000 1.042620E+01
4.000000 14.000000 4.533850E+01
4.000000 12.000000 8.485198E+01
4.000000 10.000000 1.169692E+02
4.000000 8.000000 1.273455E+02
4.000000 6.000000 1.100974E+02
4.000000 4.000000 5.602624E+01
4.000000 2.000000 -7.556984E+00
4.000000 0.000000 -4.500022E+01
4.000000 -2.000000 -4.695781E+01
4.000000 -4.000000 -2.742286E+01
4.000000 -6.000000 -1.589491E+00
4.000000 -8.000000 1.237127E+01
4.000000 -10.000000 1.532537E+01
4.000000 -12.000000 1.630929E+01
4.000000 -14.000000 1.903419E+01
4.000000 -16.000000 1.101521E+01
4.000000 -18.000000 -2.098428E+00
4.000000 -20.000000 -5.804220E+00
4.000000 -22.000000 5.250073E+00
4.000000 -24.000000 2.342695E+01
4.000000 -26.000000 3.140630E+01
4.000000 -28.000000 2.274481E+01
4.000000 -30.000000 1.302479E+01
4.000000 -32.000000 8.349954E+00
4.000000 -34.000000 1.027139E+01
4.000000 -36.000000 2.444076E+01
4.000000 -38.000000 4.548388E+01
4.000000 -40.000000 6.200100E+01
6.000000 40.000000 -5.273344E+00
6.000000 38.000000 3.619101E+00
6.000000 36.000000 8.153818E+00
6.000000 34.000000 6.261515E+00
6.000000 32.000000 4.129784E+00
6.000000 30.000000 6.747105E+00
6.000000 28.000000 6.982096E+00
6.000000 26.000000 6.991354E+00
6.000000 24.000000 3.476826E+00
6.000000 22.000000 -3.823341E+00
6.000000 20.000000 -1.546127E+01
6.000000 18.000000 -1.675977E+01
6.000000 16.000000 7.875967E+00
6.000000 14.000000 5.675948E+01
6.000000 12.000000 1.180768E+02
6.000000 10.000000 1.700592E+02
6.000000 8.000000 1.791130E+02
6.000000 6.000000 1.500519E+02
6.000000 4.000000 7.413965E+01
6.000000 2.000000 -1.023437E+01
6.000000 0.000000 -6.348377E+01
6.000000 -2.000000 -7.055451E+01
6.000000 -4.000000 -4.599563E+01
6.000000 -6.000000 -1.378059E+01
6.000000 -8.000000 1.111017E+00
6.000000 -10.000000 3.898150E+00
6.000000 -12.000000 2.469931E+00
6.000000 -14.000000 1.258440E+00
6.000000 -16.000000 -6.880734E+00
6.000000 -18.000000 -1.629972E+01
6.000000 -20.000000 -1.466959E+01
6.000000 -22.000000 1.744843E+00
6.000000 -24.000000 2.245520E+01
6.000000 -26.000000 3.196139E+01
6.000000 -28.000000 2.439297E+01
6.000000 -30.000000 1.316837E+01
6.000000 -32.000000 4.987585E+00
6.000000 -34.000000 4.933626E+00
6.000000 -36.000000 2.056746E+01
6.000000 -38.000000 4.475858E+01
6.000000 -40.000000 6.483288E+01
8.000000 40.000000 -6.960892E+00
8.000000 38.000000 3.177643E+00
8.000000 36.000000 7.309120E+00
8.000000 34.000000 2.914701E+00
8.000000 32.000000 -1.763092E+00
8.000000 30.000000 -5.633335E-01
8.000000 28.000000 9.281750E-01
8.000000 26.000000 4.965197E+00
8.000000 24.000000 7.731382E+00
8.000000 22.000000 5.355629E+00
8.000000 20.000000 -5.328163E+00
8.000000 18.000000 -9.732922E+00
8.000000 16.000000 1.217500E+01
8.000000 14.000000 6.481101E+01
8.000000 12.000000 1.363404E+02
8.000000 10.000000 2.007443E+02
8.000000 8.000000 2.140913E+02
8.000000 6.000000 1.828765E+02
8.000000 4.000000 9.711040E+01
8.000000 2.000000 -1.863908E+00
8.000000 0.000000 -7.181977E+01
8.000000 -2.000000 -9.039491E+01
8.000000 -4.000000 -6.843637E+01
8.000000 -6.000000 -3.279916E+01
8.000000 -8.000000 -1.644888E+01
8.000000 -10.000000 -1.400169E+01
8.000000 -12.000000 -1.674136E+01
8.000000 -14.000000 -1.969134E+01
8.000000 -16.000000 -2.713023E+01
8.000000 -18.000000 -3.167486E+01
8.000000 -20.000000 -2.298403E+01
8.000000 -22.000000 -4.129319E-01
8.000000 -24.000000 2.182535E+01
8.000000 -26.000000 2.825768E+01
8.000000 -28.000000 1.865472E+01
8.000000 -30.000000 6.896006E+00
8.000000 -32.000000 -1.696726E+00
8.000000 -34.000000 -1.738803E+00
8.000000 -36.000000 1.623009E+01
8.000000 -38.000000 4.394251E+01
8.000000 -40.000000 6.851737E+01
10.000000 40.000000 -7.792663E+00
10.000000 38.000000 6.240964E+00
10.000000 36.000000 1.183292E+01
10.000000 34.000000 6.329503E+00
10.000000 32.000000 -9.344349E-01
10.000000 30.000000 -1.709784E+00
10.000000 28.000000 -3.122883E-01
10.000000 26.000000 6.914467E+00
10.000000 24.000000 1.729083E+01
10.000000 22.000000 2.132248E+01
10.000000 20.000000 1.464913E+01
10.000000 18.000000 6.196822E+00
10.000000 16.000000 1.823849E+01
10.000000 14.000000 6.289528E+01
10.000000 12.000000 1.321648E+02
10.000000 10.000000 2.011483E+02
10.000000 8.000000 2.254155E+02
10.000000 6.000000 2.037688E+02
10.000000 4.000000 1.238605E+02
10.000000 2.000000 1.985756E+01
10.000000 0.000000 -6.426812E+01
10.000000 -2.000000 -1.012830E+02
10.000000 -4.000000 -9.381050E+01
10.000000 -6.000000 -6.167438E+01
10.000000 -8.000000 -4.241333E+01
10.000000 -10.000000 -3.748129E+01
10.000000 -12.000000 -3.857625E+01
10.000000 -14.000000 -3.942423E+01
10.000000 -16.000000 -4.258444E+01
10.000000 -18.000000 -4.113150E+01
10.000000 -20.000000 -2.583029E+01
10.000000 -22.000000 1.535561E+00
10.000000 -24.000000 2.342084E+01
10.000000 -26.000000 2.371409E+01
10.000000 -28.000000 9.017267E+00
10.000000 -30.000000 -3.890961E+00
10.000000 -32.000000 -1.000057E+01
10.000000 -34.000000 -7.310050E+00
10.000000 -36.000000 1.363264E+01
10.000000 -38.000000 4.360956E+01
10.000000 -40.000000 7.176735E+01
12.000000 40.000000 -7.802960E+00
12.000000 38.000000 1.093678E+01
12.000000 36.000000 2.028100E+01
12.000000 34.000000 1.695828E+01
12.000000 32.000000 7.822092E+00
12.000000 30.000000 3.704520E+00
12.000000 28.000000 3.119124E+00
12.000000 26.000000 1.129657E+01
12.000000 24.000000 2.724583E+01
12.000000 22.000000 3.635607E+01
12.000000 20.000000 3.287126E+01
12.000000 18.000000 2.019905E+01
12.000000 16.000000 2.096605E+01
12.000000 14.000000 5.248633E+01
12.000000 12.000000 1.137462E+02
12.000000 10.000000 1.819153E+02
12.000000 8.000000 2.182742E+02
12.000000 6.000000 2.107276E+02
12.000000 4.000000 1.454657E+02
12.000000 2.000000 4.605496E+01
12.000000 0.000000 -4.535768E+01
12.000000 -2.000000 -1.002599E+02
12.000000 -4.000000 -1.128385E+02
12.000000 -6.000000 -9.151644E+01
12.000000 -8.000000 -7.140450E+01
12.000000 -10.000000 -6.338889E+01
12.000000 -12.000000 -6.147779E+01
12.000000 -14.000000 -5.673759E+01
12.000000 -16.000000 -5.005364E+01
12.000000 -18.000000 -3.873288E+01
12.000000 -20.000000 -1.903452E+01
12.000000 -22.000000 5.912691E+00
12.000000 -24.000000 2.156381E+01
12.000000 -26.000000 1.650859E+01
12.000000 -28.000000 -3.852789E-01
12.000000 -30.000000 -1.374306E+01
12.000000 -32.000000 -1.679414E+01
12.000000 -34.000000 -1.040732E+01
12.000000 -36.000000 1.391425E+01
12.000000 -38.000000 4.463111E+01
12.000000 -40.000000 7.429039E+01
14.000000 40.000000 -8.209106E+00
14.000000 38.000000 1.486341E+01
14.000000 36.000000 3.033823E+01
14.000000 34.000000 3.281621E+01
14.000000 32.000000 2.344017E+01
14.000000 30.000000 1.460941E+01
14.000000 28.000000 9.836353E+00
14.000000 26.000000 1.607523E+01
14.000000 24.000000 3.193375E+01
14.000000 22.000000 4.292554E+01
14.000000 20.000000 4.071064E+01
14.000000 18.000000 2.609149E+01
14.000000 16.000000 2.127299E+01
14.000000 14.000000 4.478896E+01
14.000000 12.000000 1.001816E+02
14.000000 10.000000 1.655436E+02
14.000000 8.000000 2.069187E+02
14.000000 6.000000 2.087048E+02
14.000000 4.000000 1.567391E+02
14.000000 2.000000 6.610308E+01
14.000000 0.000000 -2.694187E+01
14.000000 -2.000000 -9.483216E+01
14.000000 -4.000000 -1.248919E+02
14.000000 -6.000000 -1.174600E+02
14.000000 -8.000000 -1.024009E+02
14.000000 -10.000000 -9.452697E+01
14.000000 -12.000000 -8.872185E+01
14.000000 -14.000000 -7.410219E+01
14.000000 -16.000000 -5.155409E+01
14.000000 -18.000000 -2.581901E+01
14.000000 -20.000000 -2.226556E+00
14.000000 -22.000000 1.523776E+01
14.000000 -24.000000 1.899119E+01
14.000000 -26.000000 8.636534E+00
14.000000 -28.000000 -6.560519E+00
14.000000 -30.000000 -1.874105E+01
14.000000 -32.000000 -1.972280E+01
14.000000 -34.000000 -1.042736E+01
14.000000 -36.000000 1.635147E+01
14.000000 -38.000000 4.692869E+01
14.000000 -40.000000 7.619801E+01
16.000000 40.000000 -9.752545E+00
16.000000 38.000000 1.720790E+01
16.000000 36.000000 4.049841E+01
16.000000 34.000000 5.153915E+01
16.000000 32.000000 4.291584E+01
16.000000 30.000000 2.825649E+01
16.000000 28.000000 1.675525E+01
16.000000 26.000000 1.748886E+01
16.000000 24.000000 2.856581E+01
16.000000 22.000000 3.810644E+01
16.000000 20.000000 3.547426E+01
16.000000 18.000000 2.262862E+01
16.000000 16.000000 2.103066E+01
16.000000 14.000000 4.618202E+01
16.000000 12.000000 1.002171E+02
16.000000 10.000000 1.631920E+02
16.000000 8.000000 2.020814E+02
16.000000 6.000000 2.057569E+02
16.000000 4.000000 1.602720E+02
16.000000 2.000000 7.662520E+01
16.000000 0.000000 -1.513521E+01
16.000000 -2.000000 -8.990934E+01
16.000000 -4.000000 -1.333574E+02
16.000000 -6.000000 -1.410217E+02
16.000000 -8.000000 -1.352737E+02
16.000000 -10.000000 -1.315003E+02
16.000000 -12.000000 -1.216077E+02
16.000000 -14.000000 -9.488909E+01
16.000000 -16.000000 -5.334530E+01
16.000000 -18.000000 -1.088238E+01
16.000000 -20.000000 1.848988E+01
16.000000 -22.000000 2.989671E+01
16.000000 -24.000000 2.246292E+01
16.000000 -26.000000 6.366004E+00
16.000000 -28.000000 -7.558637E+00
16.000000 -30.000000 -1.771218E+01
16.000000 -32.000000 -1.718820E+01
16.000000 -34.000000 -6.791208E+00
16.000000 -36.000000 1.955523E+01
16.000000 -38.000000 4.930225E+01
16.000000 -40.000000 7.736779E+01
18.000000 40.000000 -1.260589E+01
18.000000 38.000000 1.807488E+01
18.000000 36.000000 4.939676E+01
18.000000 34.000000 6.925303E+01
18.000000 32.000000 6.137918E+01
18.000000 30.000000 4.108593E+01
18.000000 28.000000 2.177720E+01
18.000000 26.000000 1.563469E+01
18.000000 24.000000 2.031876E+01
18.000000 22.000000 2.540012E+01
18.000000 20.000000 2.130336E+01
18.000000 18.000000 1.350250E+01
18.000000 16.000000 2.022451E+01
18.000000 14.000000 5.165587E+01
18.000000 12.000000 1.057872E+02
18.000000 10.000000 1.655123E+02
18.000000 8.000000 1.982750E+02
18.000000 6.000000 1.999404E+02
18.000000 4.000000 1.579964E+02
18.000000 2.000000 8.137016E+01
18.000000 0.000000 -6.629157E+00
18.000000 -2.000000 -8.402085E+01
18.000000 -4.000000 -1.374170E+02
18.000000 -6.000000 -1.604636E+02
18.000000 -8.000000 -1.670832E+02
18.000000 -10.000000 -1.710363E+02
18.000000 -12.000000 -1.571905E+02
18.000000 -14.000000 -1.178945E+02
18.000000 -16.000000 -5.803967E+01
18.000000 -18.000000 1.015549E-01
18.000000 -20.000000 3.656395E+01
18.000000 -22.000000 4.550836E+01
18.000000 -24.000000 3.232271E+01
18.000000 -26.000000 1.222861E+01
18.000000 -28.000000 -2.637942E+00
18.000000 -30.000000 -1.107608E+01
18.000000 -32.000000 -9.640707E+00
18.000000 -34.000000 -7.284560E-01
18.000000 -36.000000 2.176461E+01
18.000000 -38.000000 5.019864E+01
18.000000 -40.000000 7.800900E+01
20.000000 40.000000 -1.603963E+01
20.000000 38.000000 1.835562E+01
20.000000 36.000000 5.638444E+01
20.000000 34.000000 8.249342E+01
20.000000 32.000000 7.468253E+01
20.000000 30.000000 4.932357E+01
20.000000 28.000000 2.312989E+01
20.000000 26.000000 1.215506E+01
20.000000 24.000000 1.176056E+01
20.000000 22.000000 1.132918E+01
20.000000 20.000000 4.818674E+00
20.000000 18.000000 1.315938E+00
20.000000 16.000000 1.443407E+01
20.000000 14.000000 4.909541E+01
20.000000 12.000000 1.014952E+02
20.000000 10.000000 1.566983E+02
20.000000 8.000000 1.854473E+02
20.000000 6.000000 1.882232E+02
20.000000 4.000000 1.535381E+02
20.000000 2.000000 8.580757E+01
20.000000 0.000000 3.333435E+00
20.000000 -2.000000 -7.512420E+01
20.000000 -4.000000 -1.350684E+02
20.000000 -6.000000 -1.708290E+02
20.000000 -8.000000 -1.907589E+02
20.000000 -10.000000 -2.042982E+02
20.000000 -12.000000 -1.868329E+02
20.000000 -14.000000 -1.369980E+02
20.000000 -16.000000 -6.421789E+01
20.000000 -18.000000 2.976208E+00
20.000000 -20.000000 4.324428E+01
20.000000 -22.000000 5.313447E+01
20.000000 -24.000000 4.131441E+01
20.000000 -26.000000 2.331460E+01
20.000000 -28.000000 8.259523E+00
20.000000 -30.000000 -3.971300E-01
20.000000 -32.000000 -4.753456E-01
20.000000 -34.000000 5.465635E+00
20.000000 -36.000000 2.382455E+01
20.000000 -38.000000 5.091888E+01
20.000000 -40.000000 7.880106E+01
22.000000 40.000000 -1.889321E+01
22.000000 38.000000 1.780213E+01
22.000000 36.000000 5.906592E+01
22.000000 34.000000 8.798639E+01
22.000000 32.000000 8.086981E+01
22.000000 30.000000 5.212562E+01
22.000000 28.000000 2.184179E+01
22.000000 26.000000 9.176090E+00
22.000000 24.000000 6.173359E+00
22.000000 22.000000 1.495959E+00
22.000000 20.000000 -9.320260E+00
22.000000 18.000000 -1.354265E+01
22.000000 16.000000 1.357805E+00
22.000000 14.000000 3.399735E+01
22.000000 12.000000 8.152542E+01
22.000000 10.000000 1.314080E+02
22.000000 8.000000 1.624553E+02
22.000000 6.000000 1.735293E+02
22.000000 4.000000 1.504393E+02
22.000000 2.000000 9.023194E+01
22.000000 0.000000 1.229852E+01
22.000000 -2.000000 -6.633664E+01
22.000000 -4.000000 -1.293537E+02
22.000000 -6.000000 -1.717396E+02
22.000000 -8.000000 -1.998785E+02
22.000000 -10.000000 -2.200416E+02
22.000000 -12.000000 -2.001819E+02
22.000000 -14.000000 -1.448891E+02
22.000000 -16.000000 -6.946314E+01
22.000000 -18.000000 -4.155159E+00
22.000000 -20.000000 3.332345E+01
22.000000 -22.000000 4.491992E+01
22.000000 -24.000000 3.990533E+01
22.000000 -26.000000 3.119826E+01
22.000000 -28.000000 2.125568E+01
22.000000 -30.000000 1.200471E+01
22.000000 -32.000000 8.152510E+00
22.000000 -34.000000 1.085465E+01
22.000000 -36.000000 2.753490E+01
22.000000 -38.000000 5.397092E+01
22.000000 -40.000000 8.111654E+01
24.000000 40.000000 -2.109566E+01
24.000000 38.000000 1.422156E+01
24.000000 36.000000 5.399010E+01
24.000000 34.000000 8.315832E+01
24.000000 32.000000 7.860144E+01
24.000000 30.000000 5.010855E+01
24.000000 28.000000 1.893743E+01
24.000000 26.000000 6.902976E+00
24.000000 24.000000 3.715915E+00
24.000000 22.000000 -1.421350E+00
24.000000 20.000000 -1.484418E+01
24.000000 18.000000 -2.225136E+01
24.000000 16.000000 -9.583308E+00
24.000000 14.000000 1.796917E+01
24.000000 12.000000 5.903857E+01
24.000000 10.000000 1.030303E+02
24.000000 8.000000 1.394933E+02
24.000000 6.000000 1.604805E+02
24.000000 4.000000 1.450901E+02
24.000000 2.000000 8.558139E+01
24.000000 0.000000 7.267370E+00
24.000000 -2.000000 -7.098858E+01
24.000000 -4.000000 -1.312189E+02
24.000000 -6.000000 -1.698432E+02
24.000000 -8.000000 -1.963072E+02
24.000000 -10.000000 -2.150289E+02
24.000000 -12.000000 -1.936771E+02
24.000000 -14.000000 -1.397200E+02
24.000000 -16.000000 -7.297174E+01
24.000000 -18.000000 -1.873210E+01
24.000000 -20.000000 1.202356E+01
24.000000 -22.000000 2.516989E+01
24.000000 -24.000000 2.982319E+01
24.000000 -26.000000 3.304139E+01
24.000000 -28.000000 3.165795E+01
24.000000 -30.000000 2.403876E+01
24.000000 -32.000000 1.717709E+01
24.000000 -34.000000 1.674638E+01
24.000000 -36.000000 3.263005E+01
24.000000 -38.000000 5.795056E+01
24.000000 -40.000000 8.376714E+01
26.000000 40.000000 -2.554999E+01
26.000000 38.000000 5.824188E+00
26.000000 36.000000 4.266998E+01
26.000000 34.000000 7.153026E+01
26.000000 32.000000 7.026322E+01
26.000000 30.000000 4.449474E+01
26.000000 28.000000 1.440906E+01
26.000000 26.000000 3.590670E+00
26.000000 24.000000 2.988825E+00
26.000000 22.000000 1.815039E+00
26.000000 20.000000 -7.590381E+00
26.000000 18.000000 -1.603531E+01
26.000000 16.000000 -8.530342E+00
26.000000 14.000000 1.447011E+01
26.000000 12.000000 5.103929E+01
26.000000 10.000000 9.065785E+01
26.000000 8.000000 1.276509E+02
26.000000 6.000000 1.488218E+02
26.000000 4.000000 1.285585E+02
26.000000 2.000000 6.000980E+01
26.000000 0.000000 -2.285431E+01
26.000000 -2.000000 -9.622466E+01
26.000000 -4.000000 -1.452717E+02
26.000000 -6.000000 -1.696531E+02
26.000000 -8.000000 -1.856181E+02
26.000000 -10.000000 -1.958729E+02
26.000000 -12.000000 -1.742322E+02
26.000000 -14.000000 -1.266411E+02
26.000000 -16.000000 -7.390161E+01
26.000000 -18.000000 -3.323304E+01
26.000000 -20.000000 -8.209579E+00
26.000000 -22.000000 6.950863E+00
26.000000 -24.000000 2.047124E+01
26.000000 -26.000000 3.293026E+01
26.000000 -28.000000 3.774169E+01
26.000000 -30.000000 3.304971E+01
26.000000 -32.000000 2.579841E+01
26.000000 -34.000000 2.394980E+01
26.000000 -36.000000 3.849397E+01
26.000000 -38.000000 6.054761E+01
26.000000 -40.000000 8.295943E+01
28.000000 40.000000 -3.514411E+01
28.000000 38.000000 -7.791220E+00
28.000000 36.000000 2.800240E+01
28.000000 34.000000 5.840481E+01
28.000000 32.000000 6.109894E+01
28.000000 30.000000 3.896147E+01
28.000000 28.000000 1.118843E+01
28.000000 26.000000 1.576534E+00
28.000000 24.000000 5.660757E+00
28.000000 22.000000 1.030010E+01
28.000000 20.000000 6.330086E+00
28.000000 18.000000 -1.667093E+00
28.000000 16.000000 4.048355E+00
28.000000 14.000000 2.732954E+01
28.000000 12.000000 6.443582E+01
28.000000 10.000000 1.025824E+02
28.000000 8.000000 1.300291E+02
28.000000 6.000000 1.363416E+02
28.000000 4.000000 9.788894E+01
28.000000 2.000000 1.717804E+01
28.000000 0.000000 -6.864492E+01
28.000000 -2.000000 -1.304249E+02
28.000000 -4.000000 -1.610891E+02
28.000000 -6.000000 -1.688745E+02
28.000000 -8.000000 -1.751603E+02
28.000000 -10.000000 -1.788210E+02
28.000000 -12.000000 -1.572736E+02
28.000000 -14.000000 -1.147485E+02
28.000000 -16.000000 -7.233162E+01
28.000000 -18.000000 -4.171545E+01
28.000000 -20.000000 -2.062369E+01
28.000000 -22.000000 -2.990627E+00
28.000000 -24.000000 1.727349E+01
28.000000 -26.000000 3.354156E+01
28.000000 -28.000000 3.899231E+01
28.000000 -30.000000 3.680804E+01
28.000000 -32.000000 3.210976E+01
28.000000 -34.000000 3.120624E+01
28.000000 -36.000000 4.348180E+01
28.000000 -38.000000 6.043530E+01
28.000000 -40.000000 7.751961E+01
30.000000 40.000000 -4.896379E+01
30.000000 38.000000 -2.555826E+01
30.000000 36.000000 9.060740E+00
30.000000 34.000000 4.250446E+01
30.000000 32.000000 5.189639E+01
30.000000 30.000000 3.648166E+01
30.000000 28.000000 1.405556E+01
30.000000 26.000000 7.446877E+00
30.000000 24.000000 1.585512E+01
30.000000 22.000000 2.391943E+01
30.000000 20.000000 2.201092E+01
30.000000 18.000000 1.574651E+01
30.000000 16.000000 2.489544E+01
30.000000 14.000000 5.271686E+01
30.000000 12.000000 9.256337E+01
30.000000 10.000000 1.292709E+02
30.000000 8.000000 1.398506E+02
30.000000 6.000000 1.237790E+02
30.000000 4.000000 6.228681E+01
30.000000 2.000000 -2.889794E+01
30.000000 0.000000 -1.125450E+02
30.000000 -2.000000 -1.578902E+02
30.000000 -4.000000 -1.680746E+02
30.000000 -6.000000 -1.639884E+02
30.000000 -8.000000 -1.696300E+02
30.000000 -10.000000 -1.756931E+02
30.000000 -12.000000 -1.556615E+02
30.000000 -14.000000 -1.143706E+02
30.000000 -16.000000 -7.334661E+01
30.000000 -18.000000 -4.559399E+01
30.000000 -20.000000 -2.589528E+01
30.000000 -22.000000 -5.920593E+00
30.000000 -24.000000 1.840486E+01
30.000000 -26.000000 3.322987E+01
30.000000 -28.000000 3.542881E+01
30.000000 -30.000000 3.484305E+01
30.000000 -32.000000 3.405719E+01
30.000000 -34.000000 3.567080E+01
30.000000 -36.000000 4.507837E+01
30.000000 -38.000000 5.702241E+01
30.000000 -40.000000 6.966248E+01
32.000000 40.000000 -6.555527E+01
32.000000 38.000000 -4.512980E+01
32.000000 36.000000 -1.227096E+01
32.000000 34.000000 2.410320E+01
32.000000 32.000000 4.224547E+01
32.000000 30.000000 3.650301E+01
32.000000 28.000000 2.271676E+01
32.000000 26.000000 2.128166E+01
32.000000 24.000000 3.320250E+01
32.000000 22.000000 4.081007E+01
32.000000 20.000000 3.837667E+01
32.000000 18.000000 3.397187E+01
32.000000 16.000000 4.699701E+01
32.000000 14.000000 7.927576E+01
32.000000 12.000000 1.202826E+02
32.000000 10.000000 1.519075E+02
32.000000 8.000000 1.442060E+02
32.000000 6.000000 1.080907E+02
32.000000 4.000000 3.103313E+01
32.000000 2.000000 -6.326507E+01
32.000000 0.000000 -1.391201E+02
32.000000 -2.000000 -1.681031E+02
32.000000 -4.000000 -1.619912E+02
32.000000 -6.000000 -1.527280E+02
32.000000 -8.000000 -1.656803E+02
32.000000 -10.000000 -1.826635E+02
32.000000 -12.000000 -1.681956E+02
32.000000 -14.000000 -1.277052E+02
32.000000 -16.000000 -8.248452E+01
32.000000 -18.000000 -5.110948E+01
32.000000 -20.000000 -2.941406E+01
32.000000 -22.000000 -7.359306E+00
32.000000 -24.000000 1.882705E+01
32.000000 -26.000000 3.157317E+01
32.000000 -28.000000 3.026070E+01
32.000000 -30.000000 2.865518E+01
32.000000 -32.000000 2.958435E+01
32.000000 -34.000000 3.441397E+01
32.000000 -36.000000 4.237675E+01
32.000000 -38.000000 5.090664E+01
32.000000 -40.000000 6.060187E+01
34.000000 40.000000 -8.369171E+01
34.000000 38.000000 -6.450382E+01
34.000000 36.000000 -3.171856E+01
34.000000 34.000000 7.604267E+00
34.000000 32.000000 3.354347E+01
34.000000 30.000000 3.689657E+01
34.000000 28.000000 3.130959E+01
34.000000 26.000000 3.477382E+01
34.000000 24.000000 4.947074E+01
34.000000 22.000000 5.421804E+01
34.000000 20.000000 5.044583E+01
34.000000 18.000000 4.593748E+01
34.000000 16.000000 5.899732E+01
34.000000 14.000000 9.221918E+01
34.000000 12.000000 1.318855E+02
34.000000 10.000000 1.568680E+02
34.000000 8.000000 1.362350E+02
34.000000 6.000000 8.723605E+01
34.000000 4.000000 6.427868E+00
34.000000 2.000000 -7.934922E+01
34.000000 0.000000 -1.412727E+02
34.000000 -2.000000 -1.560589E+02
34.000000 -4.000000 -1.397920E+02
34.000000 -6.000000 -1.318374E+02
34.000000 -8.000000 -1.559812E+02
34.000000 -10.000000 -1.884632E+02
34.000000 -12.000000 -1.833074E+02
34.000000 -14.000000 -1.462533E+02
34.000000 -16.000000 -9.906860E+01
34.000000 -18.000000 -6.293469E+01
34.000000 -20.000000 -3.796594E+01
34.000000 -22.000000 -1.442333E+01
34.000000 -24.000000 1.296790E+01
34.000000 -26.000000 2.881528E+01
34.000000 -28.000000 2.763033E+01
34.000000 -30.000000 2.290151E+01
34.000000 -32.000000 2.225261E+01
34.000000 -34.000000 2.882408E+01
34.000000 -36.000000 3.586753E+01
34.000000 -38.000000 4.132701E+01
34.000000 -40.000000 4.840301E+01
36.000000 40.000000 -9.842941E+01
36.000000 38.000000 -8.139296E+01
36.000000 36.000000 -4.906901E+01
36.000000 34.000000 -7.375605E+00
36.000000 32.000000 2.433692E+01
36.000000 30.000000 3.458314E+01
36.000000 28.000000 3.448892E+01
36.000000 26.000000 3.979838E+01
36.000000 24.000000 5.406275E+01
36.000000 22.000000 5.490968E+01
36.000000 20.000000 4.924255E+01
36.000000 18.000000 4.346793E+01
36.000000 16.000000 5.385907E+01
36.000000 14.000000 8.420928E+01
36.000000 12.000000 1.203191E+02
36.000000 10.000000 1.394346E+02
36.000000 8.000000 1.136326E+02
36.000000 6.000000 6.176392E+01
36.000000 4.000000 -1.062437E+01
36.000000 2.000000 -7.793169E+01
36.000000 0.000000 -1.200955E+02
36.000000 -2.000000 -1.225117E+02
36.000000 -4.000000 -1.024112E+02
36.000000 -6.000000 -1.004446E+02
36.000000 -8.000000 -1.346416E+02
36.000000 -10.000000 -1.791115E+02
36.000000 -12.000000 -1.853277E+02
36.000000 -14.000000 -1.574253E+02
36.000000 -16.000000 -1.166195E+02
36.000000 -18.000000 -8.156063E+01
36.000000 -20.000000 -5.554606E+01
36.000000 -22.000000 -3.134176E+01
36.000000 -24.000000 -2.007908E+00
36.000000 -26.000000 2.026484E+01
36.000000 -28.000000 2.343828E+01
36.000000 -30.000000 1.977658E+01
36.000000 -32.000000 1.845663E+01
36.000000 -34.000000 2.333264E+01
36.000000 -36.000000 2.693730E+01
36.000000 -38.000000 2.834276E+01
36.000000 -40.000000 3.250905E+01
38.000000 40.000000 -1.054515E+02
38.000000 38.000000 -9.301514E+01
38.000000 36.000000 -6.432216E+01
38.000000 34.000000 -2.252024E+01
38.000000 32.000000 1.234054E+01
38.000000 30.000000 2.605561E+01
38.000000 28.000000 2.878641E+01
38.000000 26.000000 3.258130E+01
38.000000 24.000000 4.144754E+01
38.000000 22.000000 3.854843E+01
38.000000 20.000000 3.132637E+01
38.000000 18.000000 2.478332E+01
38.000000 16.000000 3.236558E+01
38.000000 14.000000 5.745795E+01
38.000000 12.000000 8.921641E+01
38.000000 10.000000 1.051490E+02
38.000000 8.000000 8.156792E+01
38.000000 6.000000 3.703669E+01
38.000000 4.000000 -1.811355E+01
38.000000 2.000000 -6.409594E+01
38.000000 0.000000 -8.678739E+01
38.000000 -2.000000 -8.056176E+01
38.000000 -4.000000 -6.185013E+01
38.000000 -6.000000 -6.501725E+01
38.000000 -8.000000 -1.018462E+02
38.000000 -10.000000 -1.477328E+02
38.000000 -12.000000 -1.640173E+02
38.000000 -14.000000 -1.518587E+02
38.000000 -16.000000 -1.266663E+02
38.000000 -18.000000 -1.015135E+02
38.000000 -20.000000 -7.900774E+01
38.000000 -22.000000 -5.417412E+01
38.000000 -24.000000 -2.176163E+01
38.000000 -26.000000 4.671841E+00
38.000000 -28.000000 1.228738E+01
38.000000 -30.000000 1.373199E+01
38.000000 -32.000000 1.465476E+01
38.000000 -34.000000 1.704139E+01
38.000000 -36.000000 1.627094E+01
38.000000 -38.000000 1.484655E+01
38.000000 -40.000000 1.635599E+01
40.000000 40.000000 -1.061030E+02
40.000000 38.000000 -9.861166E+01
40.000000 36.000000 -7.517473E+01
40.000000 34.000000 -3.645120E+01
40.000000 32.000000 -2.034697E+00
40.000000 30.000000 1.220288E+01
40.000000 28.000000 1.517040E+01
40.000000 26.000000 1.512850E+01
40.000000 24.000000 1.614257E+01
40.000000 22.000000 1.090487E+01
40.000000 20.000000 3.203213E+00
40.000000 18.000000 -2.623987E+00
40.000000 16.000000 3.587286E+00
40.000000 14.000000 2.328629E+01
40.000000 12.000000 4.939275E+01
40.000000 10.000000 6.238023E+01
40.000000 8.000000 4.444461E+01
40.000000 6.000000 1.149258E+01
40.000000 4.000000 -2.417724E+01
40.000000 2.000000 -4.990003E+01
40.000000 0.000000 -5.672384E+01
40.000000 -2.000000 -4.465008E+01
40.000000 -4.000000 -2.737965E+01
40.000000 -6.000000 -3.049730E+01
40.000000 -8.000000 -6.151814E+01
40.000000 -10.000000 -9.995343E+01
40.000000 -12.000000 -1.235179E+02
40.000000 -14.000000 -1.296101E+02
40.000000 -16.000000 -1.261822E+02
40.000000 -18.000000 -1.175870E+02
40.000000 -20.000000 -1.023376E+02
40.000000 -22.000000 -7.679126E+01
40.000000 -24.000000 -4.073998E+01
40.000000 -26.000000 -1.246811E+01
40.000000 -28.000000 -3.350725E+00
40.000000 -30.000000 1.660065E+00
40.000000 -32.000000 5.740229E+00
40.000000 -34.000000 7.564856E+00
40.000000 -36.000000 4.053158E+00
40.000000 -38.000000 2.113171E+00
40.000000 -40.000000 2.134336E+00
42.000000 40.000000 -1.034135E+02
42.000000 38.000000 -9.960909E+01
42.000000 36.000000 -8.115796E+01
42.000000 34.000000 -4.803358E+01
42.000000 32.000000 -1.594777E+01
42.000000 30.000000 -2.412991E+00
42.000000 28.000000 -1.258135E+00
42.000000 26.000000 -5.456734E+00
42.000000 24.000000 -1.039783E+01
42.000000 22.000000 -1.573657E+01
42.000000 20.000000 -2.281560E+01
42.000000 18.000000 -2.691201E+01
42.000000 16.000000 -2.124973E+01
42.000000 14.000000 -5.905857E+00
42.000000 12.000000 1.357518E+01
42.000000 10.000000 2.070912E+01
42.000000 8.000000 5.948933E+00
42.000000 6.000000 -1.735874E+01
42.000000 4.000000 -3.606336E+01
42.000000 2.000000 -4.463733E+01
42.000000 0.000000 -4.057823E+01
42.000000 -2.000000 -2.522550E+01
42.000000 -4.000000 -8.077349E+00
42.000000 -6.000000 -6.327896E+00
42.000000 -8.000000 -2.541578E+01
42.000000 -10.000000 -5.127370E+01
42.000000 -12.000000 -7.818693E+01
42.000000 -14.000000 -9.946208E+01
42.000000 -16.000000 -1.178909E+02
42.000000 -18.000000 -1.269392E+02
42.000000 -20.000000 -1.197760E+02
42.000000 -22.000000 -9.347431E+01
42.000000 -24.000000 -5.423646E+01
42.000000 -26.000000 -2.544713E+01
42.000000 -28.000000 -1.819539E+01
42.000000 -30.000000 -1.364087E+01
42.000000 -32.000000 -8.088518E+00
42.000000 -34.000000 -4.824152E+00
42.000000 -36.000000 -8.560853E+00
42.000000 -38.000000 -1.010612E+01
42.000000 -40.000000 -1.012973E+01
44.000000 40.000000 -9.985360E+01
44.000000 38.000000 -9.734162E+01
44.000000 36.000000 -8.274665E+01
44.000000 34.000000 -5.577711E+01
44.000000 32.000000 -2.670075E+01
44.000000 30.000000 -1.451582E+01
44.000000 28.000000 -1.536124E+01
44.000000 26.000000 -2.135295E+01
44.000000 24.000000 -2.850993E+01
44.000000 22.000000 -3.201272E+01
44.000000 20.000000 -3.699112E+01
44.000000 18.000000 -3.973024E+01
44.000000 16.000000 -3.531801E+01
44.000000 14.000000 -2.347872E+01
44.000000 12.000000 -9.734179E+00
44.000000 10.000000 -8.908854E+00
44.000000 8.000000 -2.309266E+01
44.000000 6.000000 -4.032839E+01
44.000000 4.000000 -4.771822E+01
44.000000 2.000000 -4.593111E+01
44.000000 0.000000 -3.792119E+01
44.000000 -2.000000 -2.367051E+01
44.000000 -4.000000 -7.961964E+00
44.000000 -6.000000 4.166336E-01
44.000000 -8.000000 -4.829206E+00
44.000000 -10.000000 -1.792928E+01
44.000000 -12.000000 -4.493207E+01
44.000000 -14.000000 -7.593523E+01
44.000000 -16.000000 -1.106403E+02
44.000000 -18.000000 -1.334084E+02
44.000000 -20.000000 -1.303193E+02
44.000000 -22.000000 -1.010012E+02
44.000000 -24.000000 -5.939807E+01
44.000000 -26.000000 -3.281636E+01
44.000000 -28.000000 -2.998866E+01
44.000000 -30.000000 -2.867882E+01
44.000000 -32.000000 -2.416688E+01
44.000000 -34.000000 -1.876733E+01
44.000000 -36.000000 -2.028699E+01
44.000000 -38.000000 -2.067601E+01
44.000000 -40.000000 -1.925081E+01
46.000000 40.000000 -9.777703E+01
46.000000 38.000000 -9.367807E+01
