-12.000000 34.000000 -4.123680E+00
-12.000000 32.000000 1.034748E+00
-12.000000 30.000000 1.747425E+00
-12.000000 28.000000 -1.281186E+01
-12.000000 26.000000 -2.068709E+01
-12.000000 24.000000 -2.834121E+01
-12.000000 22.000000 -3.773462E+01
-12.000000 20.000000 -3.214654E+01
-12.000000 18.000000 1.370786E+01
-12.000000 16.000000 3.082256E+01
-12.000000 14.000000 -1.445775E+01
-12.000000 12.000000 -9.242720E+01
-12.000000 10.000000 -1.589359E+02
-12.000000 8.000000 -1.598627E+02
-12.000000 6.000000 -1.093957E+02
-12.000000 4.000000 -3.051680E+01
-12.000000 2.000000 2.307668E+01
-12.000000 0.000000 6.250601E+01
-12.000000 -2.000000 6.922379E+01
-12.000000 -4.000000 7.254662E+01
-12.000000 -6.000000 8.132560E+01
-12.000000 -8.000000 7.173495E+01
-12.000000 -10.000000 7.038748E+01
-12.000000 -12.000000 6.468937E+01
-12.000000 -14.000000 5.757355E+01
-12.000000 -16.000000 5.663151E+01
-12.000000 -18.000000 6.305485E+01
-12.000000 -20.000000 5.443373E+01
-12.000000 -22.000000 4.143878E+01
-12.000000 -24.000000 5.036573E+01
-12.000000 -26.000000 5.038744E+01
-12.000000 -28.000000 3.366350E+01
-12.000000 -30.000000 7.646104E+00
-12.000000 -32.000000 -1.034354E+01
-12.000000 -34.000000 -3.077762E+00
-12.000000 -36.000000 1.633610E+01
-12.000000 -38.000000 3.258629E+01
-12.000000 -40.000000 1.498873E+01
-10.000000 40.000000 5.598717E-01
-10.000000 38.000000 4.192295E+00
-10.000000 36.000000 1.765332E+01
-10.000000 34.000000 2.960786E+01
-10.000000 32.000000 2.976585E+01
-10.000000 30.000000 1.109071E+01
-10.000000 28.000000 -1.683247E+01
-10.000000 26.000000 -3.084949E+01
-10.000000 24.000000 -4.695720E+01
-10.000000 22.000000 -6.415096E+01
-10.000000 20.000000 -6.515592E+01
-10.000000 18.000000 -2.019543E+01
-10.000000 16.000000 5.058199E+00
-10.000000 14.000000 -2.240550E+01
-10.000000 12.000000 -7.916161E+01
-10.000000 10.000000 -1.340698E+02
-10.000000 8.000000 -1.449602E+02
-10.000000 6.000000 -1.061221E+02
-10.000000 4.000000 -3.491158E+01
-10.000000 2.000000 1.413834E+01
-10.000000 0.000000 4.596184E+01
-10.000000 -2.000000 4.692808E+01
-10.000000 -4.000000 4.968572E+01
-10.000000 -6.000000 5.700212E+01
-10.000000 -8.000000 4.166815E+01
-10.000000 -10.000000 3.676327E+01
-10.000000 -12.000000 4.246109E+01
-10.000000 -14.000000 5.215400E+01
-10.000000 -16.000000 6.671575E+01
-10.000000 -18.000000 7.434613E+01
-10.000000 -20.000000 6.039818E+01
-10.000000 -22.000000 4.771842E+01
-10.000000 -24.000000 6.099881E+01
-10.000000 -26.000000 6.242714E+01
-10.000000 -28.000000 4.364432E+01
-10.000000 -30.000000 1.726789E+01
-10.000000 -32.000000 1.865331E+00
-10.000000 -34.000000 7.807839E+00
-10.000000 -36.000000 2.084168E+01
-10.000000 -38.000000 3.013496E+01
-10.000000 -40.000000 4.135684E+00
-8.000000 40.000000 -8.361813E+00
-8.000000 38.000000 2.605389E+00
-8.000000 36.000000 2.597055E+01
-8.000000 34.000000 5.034051E+01
-8.000000 32.000000 4.936855E+01
-8.000000 30.000000 1.062027E+01
-8.000000 28.000000 -2.309405E+01
-8.000000 26.000000 -2.261750E+01
-8.000000 24.000000 -3.196269E+01
-8.000000 22.000000 -5.912850E+01
-8.000000 20.000000 -7.450293E+01
-8.000000 18.000000 -5.937638E+01
-8.000000 16.000000 -4.276175E+01
-8.000000 14.000000 -4.508074E+01
-8.000000 12.000000 -5.023113E+01
-8.000000 10.000000 -6.024981E+01
-8.000000 8.000000 -7.767791E+01
-8.000000 6.000000 -6.593329E+01
-8.000000 4.000000 -2.304945E+01
-8.000000 2.000000 1.411382E+01
-8.000000 0.000000 1.900339E+01
-8.000000 -2.000000 -2.439477E+00
-8.000000 -4.000000 -2.904605E+00
-8.000000 -6.000000 1.035016E+01
-8.000000 -8.000000 2.735792E+00
-8.000000 -10.000000 -3.716210E+00
-8.000000 -12.000000 2.099547E+01
-8.000000 -14.000000 3.561346E+01
-8.000000 -16.000000 4.201394E+01
-8.000000 -18.000000 5.080892E+01
-8.000000 -20.000000 4.740275E+01
-8.000000 -22.000000 4.642495E+01
-8.000000 -24.000000 6.106954E+01
-8.000000 -26.000000 5.904385E+01
-8.000000 -28.000000 4.325586E+01
-8.000000 -30.000000 3.228827E+01
-8.000000 -32.000000 3.157700E+01
-8.000000 -34.000000 3.278770E+01
-8.000000 -36.000000 2.536638E+01
-8.000000 -38.000000 1.555729E+01
-8.000000 -40.000000 -1.837346E+01
-6.000000 40.000000 -7.852520E+00
-6.000000 38.000000 -4.518906E+00
-6.000000 36.000000 1.650991E+01
-6.000000 34.000000 4.486570E+01
-6.000000 32.000000 4.129738E+01
-6.000000 30.000000 -1.489763E+01
-6.000000 28.000000 -4.604627E+01
-6.000000 26.000000 -1.500621E+01
-6.000000 24.000000 -5.610493E+00
-6.000000 22.000000 -2.997540E+01
-6.000000 20.000000 -4.643801E+01
-6.000000 18.000000 -7.488449E+01
-6.000000 16.000000 -9.485265E+01
-6.000000 14.000000 -8.885582E+01
-6.000000 12.000000 -3.225671E+01
-6.000000 10.000000 1.797478E+01
-6.000000 8.000000 -1.369011E+01
-6.000000 6.000000 -4.017488E+01
-6.000000 4.000000 -6.955351E+00
-6.000000 2.000000 2.935373E+01
-6.000000 0.000000 6.320361E+00
-6.000000 -2.000000 -3.553371E+01
-6.000000 -4.000000 -3.468439E+01
-6.000000 -6.000000 -9.561626E+00
-6.000000 -8.000000 -8.620239E+00
-6.000000 -10.000000 -3.673194E+00
-6.000000 -12.000000 2.893070E+01
-6.000000 -14.000000 2.549777E+01
-6.000000 -16.000000 3.824981E+00
-6.000000 -18.000000 9.909950E+00
-6.000000 -20.000000 2.928371E+01
-6.000000 -22.000000 4.464713E+01
-6.000000 -24.000000 4.993055E+01
-6.000000 -26.000000 3.407340E+01
-6.000000 -28.000000 2.119463E+01
-6.000000 -30.000000 3.831980E+01
-6.000000 -32.000000 6.216331E+01
-6.000000 -34.000000 5.636660E+01
-6.000000 -36.000000 2.191362E+01
-6.000000 -38.000000 -8.325758E+00
-6.000000 -40.000000 -4.206991E+01
-4.000000 40.000000 -4.742332E+00
-4.000000 38.000000 -1.694327E+01
-4.000000 36.000000 4.385567E+00
-4.000000 34.000000 3.073121E+01
-4.000000 32.000000 1.873000E+01
-4.000000 30.000000 -4.411975E+01
-4.000000 28.000000 -7.489311E+01
-4.000000 26.000000 -3.705197E+01
-4.000000 24.000000 -1.332028E+01
-4.000000 22.000000 -2.204104E+01
-4.000000 20.000000 -3.157395E+01
-4.000000 18.000000 -6.771729E+01
-4.000000 16.000000 -1.025076E+02
-4.000000 14.000000 -1.019240E+02
-4.000000 12.000000 -3.156528E+01
-4.000000 10.000000 4.037219E+01
-4.000000 8.000000 1.177921E+01
-4.000000 6.000000 -2.905853E+01
-4.000000 4.000000 4.762183E+00
-4.000000 2.000000 4.367695E+01
-4.000000 0.000000 1.229177E+01
-4.000000 -2.000000 -3.178031E+01
-4.000000 -4.000000 -2.457980E+01
-4.000000 -6.000000 6.439204E+00
-4.000000 -8.000000 4.574684E+00
-4.000000 -10.000000 2.166410E+01
-4.000000 -12.000000 5.412434E+01
-4.000000 -14.000000 3.080838E+01
-4.000000 -16.000000 -1.356507E+01
-4.000000 -18.000000 -1.573785E+01
-4.000000 -20.000000 2.824324E+01
-4.000000 -22.000000 5.531414E+01
-4.000000 -24.000000 3.968531E+01
-4.000000 -26.000000 7.496871E+00
-4.000000 -28.000000 -9.061366E+00
-4.000000 -30.000000 2.883776E+01
-4.000000 -32.000000 7.239085E+01
-4.000000 -34.000000 6.141446E+01
-4.000000 -36.000000 7.272998E+00
-4.000000 -38.000000 -3.247829E+01
-4.000000 -40.000000 -5.741726E+01
-2.000000 40.000000 -1.254944E+00
-2.000000 38.000000 -3.087861E+01
-2.000000 36.000000 -1.142057E+01
-2.000000 34.000000 1.133926E+01
-2.000000 32.000000 -4.419987E+00
-2.000000 30.000000 -6.467045E+01
-2.000000 28.000000 -1.005624E+02
-2.000000 26.000000 -7.900337E+01
-2.000000 24.000000 -5.426366E+01
-2.000000 22.000000 -4.731690E+01
-2.000000 20.000000 -4.925261E+01
-2.000000 18.000000 -4.965848E+01
-2.000000 16.000000 -5.223336E+01
-2.000000 14.000000 -5.141292E+01
-2.000000 12.000000 -2.049291E+01
-2.000000 10.000000 1.638696E+01
-2.000000 8.000000 3.696636E+00
-2.000000 6.000000 -1.926400E+01
-2.000000 4.000000 -5.286738E+00
-2.000000 2.000000 2.174355E+01
-2.000000 0.000000 1.731005E+01
-2.000000 -2.000000 8.449329E-01
-2.000000 -4.000000 9.252039E+00
-2.000000 -6.000000 2.823100E+01
-2.000000 -8.000000 2.659206E+01
-2.000000 -10.000000 4.409920E+01
-2.000000 -12.000000 6.720724E+01
-2.000000 -14.000000 4.616397E+01
-2.000000 -16.000000 7.583679E+00
-2.000000 -18.000000 1.810045E+00
-2.000000 -20.000000 3.829954E+01
-2.000000 -22.000000 5.896902E+01
-2.000000 -24.000000 3.485045E+01
-2.000000 -26.000000 2.058913E+00
-2.000000 -28.000000 -1.605359E+01
-2.000000 -30.000000 1.404981E+01
-2.000000 -32.000000 5.211960E+01
-2.000000 -34.000000 4.834528E+01
-2.000000 -36.000000 -1.448635E+00
-2.000000 -38.000000 -4.153473E+01
-2.000000 -40.000000 -6.707975E+01
0.000000 40.000000 4.557178E+00
0.000000 38.000000 -4.308028E+01
0.000000 36.000000 -3.471922E+01
0.000000 34.000000 -1.324740E+01
0.000000 32.000000 -2.120988E+01
0.000000 30.000000 -7.228461E+01
0.000000 28.000000 -1.087853E+02
0.000000 26.000000 -1.038452E+02
0.000000 24.000000 -9.039237E+01
0.000000 22.000000 -7.752477E+01
0.000000 20.000000 -7.198804E+01
0.000000 18.000000 -3.766731E+01
0.000000 16.000000 -8.150654E+00
0.000000 14.000000 -3.845665E+00
0.000000 12.000000 -3.274673E+00
0.000000 10.000000 3.892845E+00
0.000000 8.000000 -9.007668E+00
0.000000 6.000000 -2.601640E+01
0.000000 4.000000 -2.677829E+01
0.000000 2.000000 -4.727958E+00
0.000000 0.000000 1.618447E+01
0.000000 -2.000000 2.542502E+01
0.000000 -4.000000 3.349065E+01
0.000000 -6.000000 4.233905E+01
0.000000 -8.000000 4.568706E+01
0.000000 -10.000000 5.767361E+01
0.000000 -12.000000 7.035750E+01
0.000000 -14.000000 5.982453E+01
0.000000 -16.000000 3.971295E+01
0.000000 -18.000000 3.838451E+01
0.000000 -20.000000 4.820846E+01
0.000000 -22.000000 5.405462E+01
0.000000 -24.000000 3.618495E+01
0.000000 -26.000000 1.568451E+01
0.000000 -28.000000 2.848383E+00
0.000000 -30.000000 7.037997E+00
0.000000 -32.000000 2.218530E+01
0.000000 -34.000000 3.553527E+01
0.000000 -36.000000 6.449889E+00
0.000000 -38.000000 -3.286489E+01
0.000000 -40.000000 -7.772681E+01
2.000000 40.000000 8.529968E+00
2.000000 38.000000 -5.338544E+01
2.000000 36.000000 -5.551524E+01
2.000000 34.000000 -3.276751E+01
2.000000 32.000000 -2.824020E+01
2.000000 30.000000 -6.071998E+01
2.000000 28.000000 -8.786790E+01
2.000000 26.000000 -8.951850E+01
2.000000 24.000000 -8.506303E+01
2.000000 22.000000 -8.233975E+01
2.000000 20.000000 -8.378827E+01
2.000000 18.000000 -4.354615E+01
2.000000 16.000000 -9.718562E+00
2.000000 14.000000 -9.109830E+00
2.000000 12.000000 -1.363938E+01
2.000000 10.000000 -1.393556E+01
2.000000 8.000000 -2.617802E+01
2.000000 6.000000 -3.536734E+01
2.000000 4.000000 -2.786883E+01
2.000000 2.000000 -2.088196E+00
2.000000 0.000000 2.596416E+01
2.000000 -2.000000 3.924944E+01
2.000000 -4.000000 3.879621E+01
2.000000 -6.000000 4.409964E+01
2.000000 -8.000000 5.523081E+01
2.000000 -10.000000 6.191895E+01
2.000000 -12.000000 6.576985E+01
2.000000 -14.000000 5.881849E+01
2.000000 -16.000000 5.109852E+01
2.000000 -18.000000 5.618816E+01
2.000000 -20.000000 5.215306E+01
2.000000 -22.000000 4.942466E+01
2.000000 -24.000000 4.128308E+01
2.000000 -26.000000 3.115197E+01
2.000000 -28.000000 1.800805E+01
2.000000 -30.000000 6.895396E+00
2.000000 -32.000000 1.125949E+01
2.000000 -34.000000 3.363014E+01
2.000000 -36.000000 1.951462E+01
2.000000 -38.000000 -1.773817E+01
2.000000 -40.000000 -8.305634E+01
4.000000 40.000000 1.046537E+01
4.000000 38.000000 -5.724901E+01
4.000000 36.000000 -6.553784E+01
4.000000 34.000000 -4.492214E+01
4.000000 32.000000 -2.984667E+01
4.000000 30.000000 -4.056751E+01
4.000000 28.000000 -5.349160E+01
4.000000 26.000000 -5.057680E+01
4.000000 24.000000 -4.428448E+01
4.000000 22.000000 -5.629644E+01
4.000000 20.000000 -7.228513E+01
4.000000 18.000000 -5.169358E+01
4.000000 16.000000 -3.180277E+01
4.000000 14.000000 -3.683661E+01
4.000000 12.000000 -3.508068E+01
4.000000 10.000000 -3.562936E+01
4.000000 8.000000 -5.010813E+01
4.000000 6.000000 -5.212942E+01
4.000000 4.000000 -2.294121E+01
4.000000 2.000000 1.725648E+01
4.000000 0.000000 4.594375E+01
4.000000 -2.000000 4.890489E+01
4.000000 -4.000000 3.421525E+01
4.000000 -6.000000 3.219168E+01
4.000000 -8.000000 4.462502E+01
4.000000 -10.000000 4.865139E+01
4.000000 -12.000000 4.698730E+01
4.000000 -14.000000 4.054774E+01
4.000000 -16.000000 3.892339E+01
4.000000 -18.000000 4.772288E+01
4.000000 -20.000000 4.109701E+01
4.000000 -22.000000 3.870372E+01
4.000000 -24.000000 4.177361E+01
4.000000 -26.000000 3.809593E+01
4.000000 -28.000000 2.265594E+01
4.000000 -30.000000 1.049236E+01
4.000000 -32.000000 1.558307E+01
4.000000 -34.000000 3.827431E+01
4.000000 -36.000000 3.375237E+01
4.000000 -38.000000 1.203683E+00
4.000000 -40.000000 -7.919758E+01
6.000000 40.000000 1.638710E+01
6.000000 38.000000 -4.978168E+01
6.000000 36.000000 -6.406394E+01
6.000000 34.000000 -5.189927E+01
6.000000 32.000000 -3.037324E+01
6.000000 30.000000 -2.760028E+01
6.000000 28.000000 -3.015136E+01
6.000000 26.000000 -1.743278E+01
6.000000 24.000000 -5.664543E+00
6.000000 22.000000 -2.640641E+01
6.000000 20.000000 -4.760776E+01
6.000000 18.000000 -4.301026E+01
6.000000 16.000000 -3.358708E+01
6.000000 14.000000 -4.073657E+01
6.000000 12.000000 -3.989121E+01
6.000000 10.000000 -4.704484E+01
6.000000 8.000000 -7.763276E+01
6.000000 6.000000 -8.969059E+01
6.000000 4.000000 -4.205505E+01
6.000000 2.000000 2.328879E+01
6.000000 0.000000 6.134801E+01
6.000000 -2.000000 5.759750E+01
6.000000 -4.000000 3.168772E+01
6.000000 -6.000000 1.511824E+01
6.000000 -8.000000 2.030128E+01
6.000000 -10.000000 2.523469E+01
6.000000 -12.000000 2.347340E+01
6.000000 -14.000000 1.866793E+01
6.000000 -16.000000 1.746297E+01
6.000000 -18.000000 2.390960E+01
6.000000 -20.000000 2.164556E+01
6.000000 -22.000000 2.362703E+01
6.000000 -24.000000 3.404490E+01
6.000000 -26.000000 3.637757E+01
6.000000 -28.000000 2.511708E+01
6.000000 -30.000000 1.688966E+01
6.000000 -32.000000 1.884230E+01
6.000000 -34.000000 4.002744E+01
6.000000 -36.000000 5.024349E+01
6.000000 -38.000000 2.246684E+01
6.000000 -40.000000 -7.061654E+01
8.000000 40.000000 2.670922E+01
8.000000 38.000000 -3.586286E+01
8.000000 36.000000 -5.470210E+01
8.000000 34.000000 -5.073630E+01
8.000000 32.000000 -2.748789E+01
8.000000 30.000000 -2.293321E+01
8.000000 28.000000 -2.516044E+01
8.000000 26.000000 -1.077605E+01
8.000000 24.000000 7.837963E-01
8.000000 22.000000 -1.724221E+01
8.000000 20.000000 -3.036757E+01
8.000000 18.000000 -2.258151E+01
8.000000 16.000000 -9.648702E+00
8.000000 14.000000 -1.491423E+01
8.000000 12.000000 -2.502792E+01
8.000000 10.000000 -5.002242E+01
8.000000 8.000000 -1.088122E+02
8.000000 6.000000 -1.473051E+02
8.000000 4.000000 -9.786703E+01
8.000000 2.000000 -5.487506E+00
8.000000 0.000000 5.998704E+01
8.000000 -2.000000 7.079397E+01
8.000000 -4.000000 4.280583E+01
8.000000 -6.000000 1.247628E+01
8.000000 -8.000000 7.092759E+00
8.000000 -10.000000 5.493885E+00
8.000000 -12.000000 3.462808E+00
8.000000 -14.000000 5.447852E+00
8.000000 -16.000000 1.080148E+01
8.000000 -18.000000 1.749567E+01
8.000000 -20.000000 1.557852E+01
8.000000 -22.000000 1.437773E+01
8.000000 -24.000000 2.629722E+01
8.000000 -26.000000 3.323426E+01
8.000000 -28.000000 2.635677E+01
8.000000 -30.000000 1.883519E+01
8.000000 -32.000000 1.456364E+01
8.000000 -34.000000 3.566112E+01
8.000000 -36.000000 6.007691E+01
8.000000 -38.000000 3.642542E+01
8.000000 -40.000000 -6.078575E+01
10.000000 40.000000 3.552799E+01
10.000000 38.000000 -2.423162E+01
10.000000 36.000000 -4.373856E+01
10.000000 34.000000 -4.248133E+01
10.000000 32.000000 -2.017606E+01
10.000000 30.000000 -2.168522E+01
10.000000 28.000000 -3.144902E+01
10.000000 26.000000 -2.953137E+01
10.000000 24.000000 -2.646677E+01
10.000000 22.000000 -3.056934E+01
10.000000 20.000000 -3.091329E+01
10.000000 18.000000 -9.175338E+00
10.000000 16.000000 1.675510E+01
10.000000 14.000000 1.328559E+01
10.000000 12.000000 -1.011017E+01
10.000000 10.000000 -5.531508E+01
10.000000 8.000000 -1.394126E+02
10.000000 6.000000 -1.976299E+02
10.000000 4.000000 -1.538223E+02
10.000000 2.000000 -4.536260E+01
10.000000 0.000000 4.696491E+01
10.000000 -2.000000 8.405802E+01
10.000000 -4.000000 6.783125E+01
10.000000 -6.000000 2.913115E+01
10.000000 -8.000000 5.794014E+00
10.000000 -10.000000 -8.481291E+00
10.000000 -12.000000 -1.119207E+01
10.000000 -14.000000 7.572244E+00
10.000000 -16.000000 3.796655E+01
10.000000 -18.000000 4.973442E+01
10.000000 -20.000000 3.462133E+01
10.000000 -22.000000 1.871129E+01
10.000000 -24.000000 2.125753E+01
10.000000 -26.000000 2.963248E+01
10.000000 -28.000000 2.392899E+01
10.000000 -30.000000 1.431045E+01
10.000000 -32.000000 7.713078E+00
10.000000 -34.000000 3.268050E+01
10.000000 -36.000000 5.867724E+01
10.000000 -38.000000 3.665422E+01
10.000000 -40.000000 -5.171656E+01
12.000000 40.000000 3.473481E+01
12.000000 38.000000 -2.057691E+01
12.000000 36.000000 -3.798332E+01
12.000000 34.000000 -3.664180E+01
12.000000 32.000000 -1.528159E+01
12.000000 30.000000 -2.065103E+01
12.000000 28.000000 -3.400394E+01
12.000000 26.000000 -4.168083E+01
12.000000 24.000000 -4.601542E+01
12.000000 22.000000 -4.840685E+01
12.000000 20.000000 -4.915662E+01
12.000000 18.000000 -1.958149E+01
12.000000 16.000000 9.452456E+00
12.000000 14.000000 2.424068E+00
12.000000 12.000000 -3.364505E+01
12.000000 10.000000 -8.812157E+01
12.000000 8.000000 -1.603379E+02
12.000000 6.000000 -2.024020E+02
12.000000 4.000000 -1.581738E+02
12.000000 2.000000 -5.621488E+01
12.000000 0.000000 4.457503E+01
12.000000 -2.000000 1.024696E+02
12.000000 -4.000000 1.073350E+02
12.000000 -6.000000 6.522559E+01
12.000000 -8.000000 9.277678E+00
12.000000 -10.000000 -2.356332E+01
12.000000 -12.000000 -1.810513E+01
12.000000 -14.000000 3.221006E+01
12.000000 -16.000000 9.647990E+01
12.000000 -18.000000 1.107551E+02
12.000000 -20.000000 6.998645E+01
12.000000 -22.000000 2.777602E+01
12.000000 -24.000000 1.509575E+01
12.000000 -26.000000 2.111235E+01
12.000000 -28.000000 1.516325E+01
12.000000 -30.000000 9.016550E+00
12.000000 -32.000000 9.048243E+00
12.000000 -34.000000 3.353331E+01
12.000000 -36.000000 5.080906E+01
12.000000 -38.000000 3.027639E+01
12.000000 -40.000000 -4.623089E+01
14.000000 40.000000 2.464183E+01
14.000000 38.000000 -2.508401E+01
14.000000 36.000000 -4.330097E+01
14.000000 34.000000 -4.469121E+01
14.000000 32.000000 -2.317659E+01
14.000000 30.000000 -2.487581E+01
14.000000 28.000000 -3.048423E+01
14.000000 26.000000 -3.264691E+01
14.000000 24.000000 -3.506959E+01
14.000000 22.000000 -4.983933E+01
14.000000 20.000000 -6.454561E+01
14.000000 18.000000 -5.141154E+01
14.000000 16.000000 -4.324556E+01
14.000000 14.000000 -5.790654E+01
14.000000 12.000000 -8.847001E+01
14.000000 10.000000 -1.272857E+02
14.000000 8.000000 -1.638569E+02
14.000000 6.000000 -1.745627E+02
14.000000 4.000000 -1.145786E+02
14.000000 2.000000 -1.911635E+01
14.000000 0.000000 6.876842E+01
14.000000 -2.000000 1.213064E+02
14.000000 -4.000000 1.378289E+02
14.000000 -6.000000 9.757519E+01
14.000000 -8.000000 1.830074E+01
14.000000 -10.000000 -3.377814E+01
14.000000 -12.000000 -1.294774E+01
14.000000 -14.000000 7.344164E+01
14.000000 -16.000000 1.615859E+02
14.000000 -18.000000 1.696546E+02
14.000000 -20.000000 1.030035E+02
14.000000 -22.000000 3.712127E+01
14.000000 -24.000000 1.291730E+01
14.000000 -26.000000 1.164285E+01
14.000000 -28.000000 5.422695E+00
14.000000 -30.000000 9.893484E+00
14.000000 -32.000000 2.387639E+01
14.000000 -34.000000 4.076514E+01
14.000000 -36.000000 4.086176E+01
14.000000 -38.000000 1.856150E+01
14.000000 -40.000000 -5.072958E+01
16.000000 40.000000 1.720025E+01
16.000000 38.000000 -3.074634E+01
16.000000 36.000000 -5.724827E+01
16.000000 34.000000 -6.762187E+01
16.000000 32.000000 -4.599422E+01
16.000000 30.000000 -4.282943E+01
16.000000 28.000000 -3.405754E+01
16.000000 26.000000 -1.343740E+01
16.000000 24.000000 -6.631996E+00
16.000000 22.000000 -3.889328E+01
16.000000 20.000000 -6.773057E+01
16.000000 18.000000 -8.736908E+01
16.000000 16.000000 -1.078790E+02
16.000000 14.000000 -1.212917E+02
16.000000 12.000000 -1.186102E+02
16.000000 10.000000 -1.176045E+02
16.000000 8.000000 -1.408663E+02
16.000000 6.000000 -1.437475E+02
16.000000 4.000000 -7.137955E+01
16.000000 2.000000 2.785012E+01
16.000000 0.000000 9.548772E+01
16.000000 -2.000000 1.238533E+02
16.000000 -4.000000 1.430974E+02
16.000000 -6.000000 1.177458E+02
16.000000 -8.000000 4.265005E+01
16.000000 -10.000000 -2.154629E+01
16.000000 -12.000000 1.650600E+01
16.000000 -14.000000 1.167022E+02
16.000000 -16.000000 1.928565E+02
16.000000 -18.000000 1.868058E+02
16.000000 -20.000000 1.139620E+02
16.000000 -22.000000 4.721491E+01
16.000000 -24.000000 1.594110E+01
16.000000 -26.000000 6.644632E+00
16.000000 -28.000000 5.629553E+00
16.000000 -30.000000 2.586219E+01
16.000000 -32.000000 5.332740E+01
16.000000 -34.000000 5.841644E+01
16.000000 -36.000000 3.240290E+01
16.000000 -38.000000 -5.753414E+00
16.000000 -40.000000 -7.232301E+01
18.000000 40.000000 1.925756E+01
18.000000 38.000000 -3.846831E+01
18.000000 36.000000 -7.725293E+01
18.000000 34.000000 -9.658192E+01
18.000000 32.000000 -7.400791E+01
18.000000 30.000000 -6.559320E+01
18.000000 28.000000 -4.578508E+01
18.000000 26.000000 -6.321790E+00
18.000000 24.000000 1.278008E+01
18.000000 22.000000 -1.952407E+01
18.000000 20.000000 -4.008982E+01
18.000000 18.000000 -8.111337E+01
18.000000 16.000000 -1.301079E+02
18.000000 14.000000 -1.358453E+02
18.000000 12.000000 -9.048598E+01
18.000000 10.000000 -4.698242E+01
18.000000 8.000000 -9.706315E+01
18.000000 6.000000 -1.439662E+02
18.000000 4.000000 -8.844998E+01
18.000000 2.000000 2.403321E+01
18.000000 0.000000 8.406115E+01
18.000000 -2.000000 8.386683E+01
18.000000 -4.000000 1.037001E+02
18.000000 -6.000000 1.124019E+02
18.000000 -8.000000 7.028035E+01
18.000000 -10.000000 2.744211E+01
18.000000 -12.000000 8.685733E+01
18.000000 -14.000000 1.688395E+02
18.000000 -16.000000 1.931835E+02
18.000000 -18.000000 1.598791E+02
18.000000 -20.000000 1.005985E+02
18.000000 -22.000000 5.560238E+01
18.000000 -24.000000 2.338733E+01
18.000000 -26.000000 7.289145E+00
18.000000 -28.000000 6.523739E+00
18.000000 -30.000000 4.426156E+01
18.000000 -32.000000 8.375038E+01
18.000000 -34.000000 7.250683E+01
18.000000 -36.000000 1.542271E+01
18.000000 -38.000000 -4.242190E+01
18.000000 -40.000000 -1.014639E+02
20.000000 40.000000 2.904367E+01
20.000000 38.000000 -5.110767E+01
20.000000 36.000000 -1.010173E+02
20.000000 34.000000 -1.229794E+02
20.000000 32.000000 -9.638089E+01
20.000000 30.000000 -7.772404E+01
20.000000 28.000000 -5.803832E+01
20.000000 26.000000 -2.597507E+01
20.000000 24.000000 6.786021E+00
20.000000 22.000000 5.466146E+00
20.000000 20.000000 4.068027E+00
20.000000 18.000000 -2.378121E+01
20.000000 16.000000 -6.294970E+01
20.000000 14.000000 -6.789520E+01
20.000000 12.000000 -3.377869E+01
20.000000 10.000000 -1.137310E+01
20.000000 8.000000 -8.940385E+01
20.000000 6.000000 -1.698712E+02
20.000000 4.000000 -1.506860E+02
20.000000 2.000000 -4.550073E+01
20.000000 0.000000 1.851493E+01
20.000000 -2.000000 1.701377E+01
20.000000 -4.000000 4.082597E+01
20.000000 -6.000000 8.034336E+01
20.000000 -8.000000 8.463465E+01
20.000000 -10.000000 9.162931E+01
20.000000 -12.000000 1.813434E+02
20.000000 -14.000000 2.424678E+02
20.000000 -16.000000 2.077143E+02
20.000000 -18.000000 1.335822E+02
20.000000 -20.000000 8.272403E+01
20.000000 -22.000000 5.796067E+01
20.000000 -24.000000 3.189367E+01
20.000000 -26.000000 8.786070E+00
20.000000 -28.000000 -2.626930E+00
20.000000 -30.000000 4.343084E+01
20.000000 -32.000000 8.705368E+01
20.000000 -34.000000 6.320702E+01
20.000000 -36.000000 -1.338123E+01
20.000000 -38.000000 -7.795640E+01
20.000000 -40.000000 -1.213817E+02
22.000000 40.000000 4.061841E+01
22.000000 38.000000 -5.422354E+01
22.000000 36.000000 -1.097471E+02
22.000000 34.000000 -1.311712E+02
22.000000 32.000000 -1.028068E+02
22.000000 30.000000 -8.104236E+01
22.000000 28.000000 -7.097729E+01
22.000000 26.000000 -5.357851E+01
22.000000 24.000000 -1.679196E+01
22.000000 22.000000 1.112044E+01
22.000000 20.000000 2.813674E+01
22.000000 18.000000 2.922131E+01
22.000000 16.000000 1.706382E+01
22.000000 14.000000 6.467619E+00
22.000000 12.000000 -2.063661E+00
22.000000 10.000000 -3.571777E+01
22.000000 8.000000 -1.210167E+02
22.000000 6.000000 -1.944034E+02
22.000000 4.000000 -2.031682E+02
22.000000 2.000000 -1.291670E+02
22.000000 0.000000 -5.571783E+01
22.000000 -2.000000 -2.239344E+01
22.000000 -4.000000 4.908926E+00
22.000000 -6.000000 4.125377E+01
22.000000 -8.000000 7.851204E+01
22.000000 -10.000000 1.426217E+02
22.000000 -12.000000 2.612601E+02
22.000000 -14.000000 3.211751E+02
22.000000 -16.000000 2.614253E+02
22.000000 -18.000000 1.457448E+02
22.000000 -20.000000 6.228084E+01
22.000000 -22.000000 3.393860E+01
22.000000 -24.000000 2.953829E+01
22.000000 -26.000000 1.504942E+01
22.000000 -28.000000 -9.801178E-01
22.000000 -30.000000 2.677497E+01
22.000000 -32.000000 4.736760E+01
22.000000 -34.000000 2.392445E+01
22.000000 -36.000000 -4.073176E+01
22.000000 -38.000000 -9.396285E+01
22.000000 -40.000000 -1.283128E+02
24.000000 40.000000 5.231569E+01
24.000000 38.000000 -3.851541E+01
24.000000 36.000000 -9.258426E+01
24.000000 34.000000 -1.136872E+02
24.000000 32.000000 -8.918884E+01
24.000000 30.000000 -7.340636E+01
24.000000 28.000000 -7.420404E+01
24.000000 26.000000 -6.894080E+01
24.000000 24.000000 -4.686384E+01
24.000000 22.000000 -2.309745E+01
24.000000 20.000000 -8.036896E+00
24.000000 18.000000 9.000616E+00
24.000000 16.000000 1.498056E+01
24.000000 14.000000 2.607800E+00
24.000000 12.000000 -2.386217E+01
24.000000 10.000000 -7.309288E+01
24.000000 8.000000 -1.408271E+02
24.000000 6.000000 -1.952577E+02
24.000000 4.000000 -2.129280E+02
24.000000 2.000000 -1.621378E+02
24.000000 0.000000 -8.715427E+01
24.000000 -2.000000 -2.999952E+01
24.000000 -4.000000 4.038485E+00
24.000000 -6.000000 3.186120E+01
24.000000 -8.000000 7.873614E+01
24.000000 -10.000000 1.725741E+02
24.000000 -12.000000 3.071740E+02
24.000000 -14.000000 3.707524E+02
24.000000 -16.000000 3.072321E+02
24.000000 -18.000000 1.675723E+02
24.000000 -20.000000 4.967782E+01
24.000000 -22.000000 1.276949E+01
24.000000 -24.000000 2.424918E+01
24.000000 -26.000000 2.522513E+01
24.000000 -28.000000 1.186535E+01
24.000000 -30.000000 8.313110E+00
24.000000 -32.000000 -7.563263E+00
24.000000 -34.000000 -2.678320E+01
24.000000 -36.000000 -6.274569E+01
24.000000 -38.000000 -9.399151E+01
24.000000 -40.000000 -1.271059E+02
26.000000 40.000000 6.696510E+01
26.000000 38.000000 -1.281591E+01
26.000000 36.000000 -6.717302E+01
26.000000 34.000000 -9.284512E+01
26.000000 32.000000 -7.142568E+01
26.000000 30.000000 -5.603018E+01
26.000000 28.000000 -5.846182E+01
26.000000 26.000000 -6.699910E+01
26.000000 24.000000 -7.162811E+01
26.000000 22.000000 -7.339223E+01
26.000000 20.000000 -7.781756E+01
26.000000 18.000000 -6.322580E+01
26.000000 16.000000 -4.730441E+01
26.000000 14.000000 -5.331414E+01
26.000000 12.000000 -7.349048E+01
26.000000 10.000000 -1.049878E+02
26.000000 8.000000 -1.363154E+02
26.000000 6.000000 -1.648983E+02
26.000000 4.000000 -1.769230E+02
26.000000 2.000000 -1.442353E+02
26.000000 0.000000 -7.977353E+01
26.000000 -2.000000 -1.289335E+01
26.000000 -4.000000 3.533528E+01
26.000000 -6.000000 6.617268E+01
26.000000 -8.000000 1.050437E+02
26.000000 -10.000000 1.906054E+02
26.000000 -12.000000 3.070718E+02
26.000000 -14.000000 3.572340E+02
26.000000 -16.000000 2.951608E+02
26.000000 -18.000000 1.556685E+02
26.000000 -20.000000 3.497331E+01
26.000000 -22.000000 -6.015167E-01
26.000000 -24.000000 2.024123E+01
26.000000 -26.000000 3.190594E+01
26.000000 -28.000000 1.773463E+01
26.000000 -30.000000 -1.018536E+00
26.000000 -32.000000 -3.278870E+01
26.000000 -34.000000 -5.238779E+01
26.000000 -36.000000 -7.382136E+01
26.000000 -38.000000 -9.044165E+01
26.000000 -40.000000 -1.228238E+02
28.000000 40.000000 8.359983E+01
28.000000 38.000000 9.863539E+00
28.000000 36.000000 -5.098402E+01
28.000000 34.000000 -8.719099E+01
28.000000 32.000000 -6.602640E+01
28.000000 30.000000 -4.356543E+01
28.000000 28.000000 -3.947730E+01
28.000000 26.000000 -5.570016E+01
28.000000 24.000000 -7.723677E+01
28.000000 22.000000 -9.877279E+01
28.000000 20.000000 -1.237866E+02
28.000000 18.000000 -1.168490E+02
28.000000 16.000000 -9.193658E+01
28.000000 14.000000 -8.558020E+01
28.000000 12.000000 -8.855019E+01
28.000000 10.000000 -9.493672E+01
28.000000 8.000000 -9.794774E+01
28.000000 6.000000 -1.046270E+02
28.000000 4.000000 -1.182628E+02
28.000000 2.000000 -1.082986E+02
28.000000 0.000000 -6.183899E+01
28.000000 -2.000000 3.984453E+00
28.000000 -4.000000 6.312636E+01
28.000000 -6.000000 1.053820E+02
28.000000 -8.000000 1.351480E+02
28.000000 -10.000000 1.902392E+02
28.000000 -12.000000 2.644028E+02
28.000000 -14.000000 2.875997E+02
28.000000 -16.000000 2.257391E+02
28.000000 -18.000000 1.050336E+02
28.000000 -20.000000 1.747574E+00
28.000000 -22.000000 -2.458585E+01
28.000000 -24.000000 7.895514E+00
28.000000 -26.000000 2.666310E+01
28.000000 -28.000000 1.693044E+01
28.000000 -30.000000 4.431496E-01
28.000000 -32.000000 -2.775409E+01
28.000000 -34.000000 -4.565716E+01
28.000000 -36.000000 -6.503414E+01
28.000000 -38.000000 -7.749887E+01
28.000000 -40.000000 -1.115233E+02
30.000000 40.000000 9.823567E+01
30.000000 38.000000 2.053044E+01
30.000000 36.000000 -5.020471E+01
30.000000 34.000000 -9.815754E+01
30.000000 32.000000 -7.487996E+01
30.000000 30.000000 -4.494738E+01
30.000000 28.000000 -3.421396E+01
30.000000 26.000000 -4.133174E+01
30.000000 24.000000 -5.073285E+01
30.000000 22.000000 -7.359889E+01
30.000000 20.000000 -1.082719E+02
30.000000 18.000000 -1.040499E+02
30.000000 16.000000 -7.553074E+01
30.000000 14.000000 -6.236187E+01
30.000000 12.000000 -5.595935E+01
30.000000 10.000000 -5.063962E+01
30.000000 8.000000 -4.856825E+01
30.000000 6.000000 -4.669453E+01
30.000000 4.000000 -6.650713E+01
30.000000 2.000000 -7.685155E+01
30.000000 0.000000 -5.092611E+01
30.000000 -2.000000 1.971481E+00
30.000000 -4.000000 6.189230E+01
30.000000 -6.000000 1.148438E+02
30.000000 -8.000000 1.386412E+02
30.000000 -10.000000 1.636550E+02
30.000000 -12.000000 2.026442E+02
30.000000 -14.000000 2.052271E+02
30.000000 -16.000000 1.456831E+02
30.000000 -18.000000 4.995886E+01
30.000000 -20.000000 -3.516520E+01
30.000000 -22.000000 -5.194076E+01
30.000000 -24.000000 -1.373339E+01
30.000000 -26.000000 1.028757E+01
30.000000 -28.000000 1.334888E+01
30.000000 -30.000000 5.212151E+00
30.000000 -32.000000 -1.364283E+01
30.000000 -34.000000 -2.456445E+01
30.000000 -36.000000 -4.028427E+01
30.000000 -38.000000 -5.146300E+01
30.000000 -40.000000 -8.888688E+01
32.000000 40.000000 1.082878E+02
32.000000 38.000000 2.157108E+01
32.000000 36.000000 -6.082737E+01
32.000000 34.000000 -1.180827E+02
32.000000 32.000000 -9.198044E+01
32.000000 30.000000 -5.539824E+01
32.000000 28.000000 -3.510028E+01
32.000000 26.000000 -1.857332E+01
32.000000 24.000000 2.732047E+00
32.000000 22.000000 -1.040537E+01
32.000000 20.000000 -3.871694E+01
32.000000 18.000000 -3.203730E+01
32.000000 16.000000 -1.103187E+01
32.000000 14.000000 -7.766492E+00
32.000000 12.000000 -1.828400E+01
32.000000 10.000000 -2.577478E+01
32.000000 8.000000 -3.103517E+01
32.000000 6.000000 -2.737982E+01
32.000000 4.000000 -4.129912E+01
32.000000 2.000000 -5.602419E+01
32.000000 0.000000 -4.749069E+01
32.000000 -2.000000 -1.852925E+01
32.000000 -4.000000 3.574154E+01
32.000000 -6.000000 9.225603E+01
32.000000 -8.000000 1.112871E+02
32.000000 -10.000000 1.207857E+02
32.000000 -12.000000 1.460983E+02
32.000000 -14.000000 1.440593E+02
32.000000 -16.000000 9.583471E+01
32.000000 -18.000000 2.076873E+01
32.000000 -20.000000 -4.716921E+01
32.000000 -22.000000 -5.955009E+01
32.000000 -24.000000 -2.762040E+01
32.000000 -26.000000 -3.367702E+00
32.000000 -28.000000 1.090310E+01
32.000000 -30.000000 1.483681E+01
32.000000 -32.000000 8.980412E+00
32.000000 -34.000000 3.579271E+00
32.000000 -36.000000 -9.868387E+00
32.000000 -38.000000 -2.334880E+01
32.000000 -40.000000 -6.506748E+01
34.000000 40.000000 1.107492E+02
34.000000 38.000000 1.728419E+01
34.000000 36.000000 -7.108280E+01
34.000000 34.000000 -1.294388E+02
34.000000 32.000000 -1.021761E+02
34.000000 30.000000 -6.317364E+01
34.000000 28.000000 -3.046123E+01
34.000000 26.000000 1.042182E+01
34.000000 24.000000 5.721229E+01
34.000000 22.000000 5.222532E+01
34.000000 20.000000 3.232780E+01
34.000000 18.000000 4.212912E+01
34.000000 16.000000 5.282945E+01
34.000000 14.000000 3.002225E+01
34.000000 12.000000 -1.078724E+01
34.000000 10.000000 -4.192132E+01
34.000000 8.000000 -5.155426E+01
34.000000 6.000000 -4.207649E+01
34.000000 4.000000 -4.186947E+01
34.000000 2.000000 -4.942027E+01
34.000000 0.000000 -5.055247E+01
34.000000 -2.000000 -3.585963E+01
34.000000 -4.000000 1.197412E+01
34.000000 -6.000000 6.363475E+01
34.000000 -8.000000 7.871045E+01
34.000000 -10.000000 8.723825E+01
34.000000 -12.000000 1.079605E+02
34.000000 -14.000000 1.100023E+02
34.000000 -16.000000 7.576135E+01
34.000000 -18.000000 1.742307E+01
34.000000 -20.000000 -2.804340E+01
34.000000 -22.000000 -3.912917E+01
34.000000 -24.000000 -1.944470E+01
34.000000 -26.000000 2.590454E+00
34.000000 -28.000000 2.420991E+01
34.000000 -30.000000 3.924966E+01
34.000000 -32.000000 4.273451E+01
34.000000 -34.000000 3.452861E+01
34.000000 -36.000000 1.527009E+01
34.000000 -38.000000 -5.682661E+00
34.000000 -40.000000 -5.163064E+01
36.000000 40.000000 1.003177E+02
36.000000 38.000000 5.564143E+00
36.000000 36.000000 -7.393897E+01
36.000000 34.000000 -1.194269E+02
36.000000 32.000000 -9.023702E+01
36.000000 30.000000 -5.262948E+01
36.000000 28.000000 -1.353483E+01
36.000000 26.000000 3.405294E+01
36.000000 24.000000 8.097525E+01
36.000000 22.000000 7.827200E+01
36.000000 20.000000 6.582969E+01
36.000000 18.000000 7.516686E+01
36.000000 16.000000 7.358905E+01
36.000000 14.000000 2.584659E+01
36.000000 12.000000 -3.345309E+01
36.000000 10.000000 -7.843248E+01
36.000000 8.000000 -8.647585E+01
36.000000 6.000000 -7.325777E+01
36.000000 4.000000 -5.562139E+01
36.000000 2.000000 -4.865136E+01
36.000000 0.000000 -5.168646E+01
36.000000 -2.000000 -3.720875E+01
36.000000 -4.000000 9.159678E+00
36.000000 -6.000000 4.933248E+01
36.000000 -8.000000 5.533741E+01
36.000000 -10.000000 6.536423E+01
36.000000 -12.000000 8.458576E+01
36.000000 -14.000000 9.410373E+01
36.000000 -16.000000 7.003764E+01
36.000000 -18.000000 2.792935E+01
36.000000 -20.000000 4.376259E+00
36.000000 -22.000000 2.968983E+00
36.000000 -24.000000 1.720703E+01
36.000000 -26.000000 3.583926E+01
36.000000 -28.000000 6.175964E+01
36.000000 -30.000000 8.071135E+01
36.000000 -32.000000 7.978463E+01
36.000000 -34.000000 5.898313E+01
36.000000 -36.000000 2.502430E+01
36.000000 -38.000000 -3.994709E+00
36.000000 -40.000000 -5.148202E+01
38.000000 40.000000 8.305813E+01
38.000000 38.000000 -3.195343E+00
38.000000 36.000000 -6.853365E+01
38.000000 34.000000 -9.610708E+01
38.000000 32.000000 -6.234921E+01
38.000000 30.000000 -3.023423E+01
38.000000 28.000000 1.318257E+00
38.000000 26.000000 3.402958E+01
38.000000 24.000000 6.030385E+01
38.000000 22.000000 5.876653E+01
38.000000 20.000000 5.779717E+01
38.000000 18.000000 6.308922E+01
38.000000 16.000000 4.817014E+01
38.000000 14.000000 -3.656549E+00
38.000000 12.000000 -5.081918E+01
38.000000 10.000000 -8.087830E+01
38.000000 8.000000 -9.454604E+01
38.000000 6.000000 -9.705793E+01
38.000000 4.000000 -7.351629E+01
38.000000 2.000000 -5.551895E+01
38.000000 0.000000 -5.097725E+01
38.000000 -2.000000 -3.092580E+01
38.000000 -4.000000 1.941931E+01
38.000000 -6.000000 4.896000E+01
38.000000 -8.000000 3.969188E+01
38.000000 -10.000000 4.341535E+01
38.000000 -12.000000 7.335625E+01
38.000000 -14.000000 9.056728E+01
38.000000 -16.000000 7.086825E+01
38.000000 -18.000000 4.690538E+01
38.000000 -20.000000 4.802807E+01
38.000000 -22.000000 5.974999E+01
38.000000 -24.000000 6.541584E+01
38.000000 -26.000000 7.053534E+01
38.000000 -28.000000 9.334038E+01
38.000000 -30.000000 1.126180E+02
38.000000 -32.000000 1.026260E+02
38.000000 -34.000000 6.702123E+01
38.000000 -36.000000 1.172372E+01
38.000000 -38.000000 -1.242115E+01
38.000000 -40.000000 -4.986915E+01
40.000000 40.000000 7.308380E+01
40.000000 38.000000 8.840619E-01
40.000000 36.000000 -6.048023E+01
40.000000 34.000000 -7.886857E+01
40.000000 32.000000 -3.889877E+01
40.000000 30.000000 -1.863510E+01
40.000000 28.000000 -3.584737E+00
40.000000 26.000000 1.354541E+01
40.000000 24.000000 1.870429E+01
40.000000 22.000000 1.567641E+01
40.000000 20.000000 2.187123E+01
40.000000 18.000000 1.605126E+01
40.000000 16.000000 -1.123736E+01
40.000000 14.000000 -4.674741E+01
40.000000 12.000000 -4.801956E+01
40.000000 10.000000 -2.090995E+01
40.000000 8.000000 -4.176732E+01
40.000000 6.000000 -7.411728E+01
40.000000 4.000000 -6.399153E+01
40.000000 2.000000 -4.982052E+01
40.000000 0.000000 -5.287227E+01
40.000000 -2.000000 -3.788819E+01
40.000000 -4.000000 1.651042E+01
40.000000 -6.000000 4.633173E+01
40.000000 -8.000000 3.237837E+01
40.000000 -10.000000 4.486350E+01
40.000000 -12.000000 9.365257E+01
40.000000 -14.000000 1.057097E+02
40.000000 -16.000000 7.689987E+01
40.000000 -18.000000 6.738186E+01
40.000000 -20.000000 9.301411E+01
40.000000 -22.000000 1.053702E+02
40.000000 -24.000000 8.726356E+01
40.000000 -26.000000 6.833224E+01
40.000000 -28.000000 7.799072E+01
40.000000 -30.000000 1.020318E+02
40.000000 -32.000000 9.981520E+01
40.000000 -34.000000 5.788905E+01
40.000000 -36.000000 -2.286421E+01
40.000000 -38.000000 -2.169409E+01
40.000000 -40.000000 -3.106810E+01
42.000000 40.000000 7.334584E+01
42.000000 38.000000 -1.236182E+00
42.000000 36.000000 -6.634146E+01
42.000000 34.000000 -8.193836E+01
42.000000 32.000000 -3.658293E+01
42.000000 30.000000 -2.188481E+01
42.000000 28.000000 -1.770016E+01
42.000000 26.000000 -6.422870E+00
42.000000 24.000000 -9.592307E+00
42.000000 22.000000 -1.068795E+01
42.000000 20.000000 -1.763567E+00
42.000000 18.000000 -2.154349E+01
42.000000 16.000000 -5.894000E+01
42.000000 14.000000 -7.725942E+01
42.000000 12.000000 -2.879716E+01
42.000000 10.000000 6.906406E+01
42.000000 8.000000 4.558804E+01
42.000000 6.000000 -1.898029E+01
42.000000 4.000000 -2.377455E+01
42.000000 2.000000 -2.188335E+01
42.000000 0.000000 -5.766832E+01
42.000000 -2.000000 -6.377575E+01
42.000000 -4.000000 -8.692724E+00
42.000000 -6.000000 3.503479E+01
42.000000 -8.000000 2.890741E+01
42.000000 -10.000000 6.411427E+01
42.000000 -12.000000 1.307633E+02
42.000000 -14.000000 1.339086E+02
42.000000 -16.000000 8.089901E+01
42.000000 -18.000000 6.867216E+01
42.000000 -20.000000 1.061218E+02
42.000000 -22.000000 1.156780E+02
42.000000 -24.000000 7.450003E+01
42.000000 -26.000000 2.898463E+01
42.000000 -28.000000 1.861162E+01
42.000000 -30.000000 5.396348E+01
42.000000 -32.000000 7.629747E+01
42.000000 -34.000000 3.811125E+01
42.000000 -36.000000 -5.154324E+01
42.000000 -38.000000 -3.027430E+01
42.000000 -40.000000 -1.530078E+01
44.000000 40.000000 7.617560E+01
44.000000 38.000000 -1.572761E+01
44.000000 36.000000 -8.195293E+01
44.000000 34.000000 -9.717396E+01
44.000000 32.000000 -5.032767E+01
44.000000 30.000000 -3.040785E+01
44.000000 28.000000 -3.105454E+01
44.000000 26.000000 -2.452748E+01
44.000000 24.000000 -2.275860E+01
44.000000 22.000000 -1.849358E+01
44.000000 20.000000 -1.068969E+01
44.000000 18.000000 -9.640285E+00
44.000000 16.000000 -2.000214E+01
44.000000 14.000000 -1.855253E+01
44.000000 12.000000 2.892662E+01
44.000000 10.000000 1.060695E+02
44.000000 8.000000 7.895044E+01
44.000000 6.000000 1.816132E+01
44.000000 4.000000 1.009688E+01
44.000000 2.000000 8.550608E+00
44.000000 0.000000 -3.084338E+01
44.000000 -2.000000 -4.940279E+01
44.000000 -4.000000 -1.847338E+01
44.000000 -6.000000 1.213727E+01
44.000000 -8.000000 7.042222E+00
44.000000 -10.000000 4.779267E+01
44.000000 -12.000000 1.230143E+02
44.000000 -14.000000 1.303682E+02
44.000000 -16.000000 6.950999E+01
44.000000 -18.000000 4.990045E+01
44.000000 -20.000000 8.080568E+01
44.000000 -22.000000 8.708545E+01
44.000000 -24.000000 3.866854E+01
44.000000 -26.000000 -1.914487E+01
44.000000 -28.000000 -4.371146E+01
44.000000 -30.000000 -2.735188E+00
44.000000 -32.000000 3.783108E+01
44.000000 -34.000000 1.091167E+01
44.000000 -36.000000 -5.299926E+01
44.000000 -38.000000 -3.228059E+01
44.000000 -40.000000 -1.719040E+01
46.000000 40.000000 7.173549E+01
46.000000 38.000000 -2.382510E+01
46.000000 36.000000 -8.042991E+01
46.000000 34.000000 -9.357026E+01
46.000000 32.000000 -5.314483E+01
46.000000 30.000000 -3.613464E+01
46.000000 28.000000 -4.220358E+01
46.000000 26.000000 -3.754115E+01
46.000000 24.000000 -2.607783E+01
46.000000 22.000000 -1.821900E+01
46.000000 20.000000 -6.511046E+00
46.000000 18.000000 2.683131E+01
46.000000 16.000000 5.012910E+01
46.000000 14.000000 6.701219E+01
46.000000 12.000000 8.769793E+01
46.000000 10.000000 1.012306E+02
46.000000 8.000000 5.982753E+01
46.000000 6.000000 1.728340E+01
46.000000 4.000000 1.508780E+01
46.000000 2.000000 2.916511E+01
46.000000 0.000000 2.112972E+01
46.000000 -2.000000 6.972395E+00
46.000000 -4.000000 -1.777855E+00
46.000000 -6.000000 -1.058414E+01
46.000000 -8.000000 -2.229503E+01
46.000000 -10.000000 -4.342871E+00
46.000000 -12.000000 5.355876E+01
46.000000 -14.000000 7.262474E+01
46.000000 -16.000000 4.630560E+01
46.000000 -18.000000 3.346263E+01
46.000000 -20.000000 3.328126E+01
46.000000 -22.000000 2.503145E+01
46.000000 -24.000000 -6.847601E+00
46.000000 -26.000000 -5.075428E+01
46.000000 -28.000000 -6.691375E+01
46.000000 -30.000000 -3.803001E+01
46.000000 -32.000000 -6.522995E+00
46.000000 -34.000000 -1.521822E+01
46.000000 -36.000000 -3.859765E+01
46.000000 -38.000000 -2.340020E+01
46.000000 -40.000000 -2.035014E+01
48.000000 40.000000 5.819760E+01
48.000000 38.000000 -2.306639E+01
48.000000 36.000000 -6.018680E+01
48.000000 34.000000 -6.483983E+01
48.000000 32.000000 -3.290966E+01
48.000000 30.000000 -2.331117E+01
48.000000 28.000000 -3.012429E+01
48.000000 26.000000 -2.467285E+01
48.000000 24.000000 -1.126214E+01
48.000000 22.000000 -1.134482E+01
48.000000 20.000000 -4.180331E+00
48.000000 18.000000 3.897477E+01
48.000000 16.000000 7.656072E+01
48.000000 14.000000 9.056727E+01
48.000000 12.000000 8.386547E+01
48.000000 10.000000 6.176669E+01
48.000000 8.000000 1.463997E+01
48.000000 6.000000 -1.523323E+01
48.000000 4.000000 -9.086666E+00
48.000000 2.000000 2.219354E+01
48.000000 0.000000 4.069833E+01
48.000000 -2.000000 3.682045E+01
48.000000 -4.000000 1.996401E+01
48.000000 -6.000000 -1.219816E+01
48.000000 -8.000000 -3.569946E+01
48.000000 -10.000000 -4.142299E+01
48.000000 -12.000000 -9.579163E+00
48.000000 -14.000000 1.191574E+01
48.000000 -16.000000 1.781130E+01
48.000000 -18.000000 1.580776E+01
48.000000 -20.000000 -2.432449E+00
48.000000 -22.000000 -1.721154E+01
48.000000 -24.000000 -3.264659E+01
48.000000 -26.000000 -5.495933E+01
48.000000 -28.000000 -5.497471E+01
48.000000 -30.000000 -4.393192E+01
48.000000 -32.000000 -3.380541E+01
48.000000 -34.000000 -2.956676E+01
48.000000 -36.000000 -2.311470E+01
48.000000 -38.000000 -1.143842E+01
48.000000 -40.000000 -1.994192E+01
50.000000 40.000000 4.293522E+01
50.000000 38.000000 -1.820657E+01
50.000000 36.000000 -3.590523E+01
50.000000 34.000000 -2.816826E+01
50.000000 32.000000 6.348407E-02
50.000000 30.000000 1.152272E+01
50.000000 28.000000 1.380637E+01
50.000000 26.000000 1.572283E+01
50.000000 24.000000 1.265448E+01
50.000000 22.000000 -1.076304E+01
50.000000 20.000000 -2.244224E+01
50.000000 18.000000 9.223146E+00
50.000000 16.000000 4.578518E+01
50.000000 14.000000 4.958126E+01
50.000000 12.000000 2.302174E+01
50.000000 10.000000 -1.017429E+01
50.000000 8.000000 -4.255204E+01
50.000000 6.000000 -6.139918E+01
50.000000 4.000000 -5.004865E+01
50.000000 2.000000 -1.366885E+01
50.000000 0.000000 1.765101E+01
50.000000 -2.000000 2.570442E+01
50.000000 -4.000000 2.395621E+01
50.000000 -6.000000 -9.339581E-01
50.000000 -8.000000 -2.166221E+01
50.000000 -10.000000 -3.734758E+01
50.000000 -12.000000 -2.850462E+01
50.000000 -14.000000 -1.199140E+01
50.000000 -16.000000 3.369802E+00
50.000000 -18.000000 8.106436E+00
50.000000 -20.000000 -7.575968E+00
50.000000 -22.000000 -1.933640E+01
50.000000 -24.000000 -2.458522E+01
50.000000 -26.000000 -2.574190E+01
50.000000 -28.000000 -1.841536E+01
50.000000 -30.000000 -2.466751E+01
50.000000 -32.000000 -3.580465E+01
50.000000 -34.000000 -2.941039E+01
50.000000 -36.000000 -1.159147E+01
50.000000 -38.000000 -2.265305E+00
50.000000 -40.000000 -1.928651E+01
52.000000 40.000000 3.814471E+01
52.000000 38.000000 -5.002159E+00
52.000000 36.000000 -7.950980E+00
52.000000 34.000000 5.617789E+00
52.000000 32.000000 2.114919E+01
52.000000 30.000000 2.752487E+01
52.000000 28.000000 3.880509E+01
52.000000 26.000000 4.548989E+01
52.000000 24.000000 3.383729E+01
52.000000 22.000000 -9.102513E+00
52.000000 20.000000 -4.228347E+01
52.000000 18.000000 -3.069599E+01
52.000000 16.000000 -8.200121E-01
52.000000 14.000000 -7.081177E+00
52.000000 12.000000 -4.129055E+01
52.000000 10.000000 -7.034041E+01
52.000000 8.000000 -8.567777E+01
52.000000 6.000000 -9.995040E+01
52.000000 4.000000 -8.311256E+01
52.000000 2.000000 -4.840813E+01
52.000000 0.000000 -1.975740E+01
52.000000 -2.000000 -6.237731E+00
52.000000 -4.000000 2.635491E+00
52.000000 -6.000000 3.165061E+00
52.000000 -8.000000 -2.588864E+00
52.000000 -10.000000 -1.566908E+01
52.000000 -12.000000 -9.677381E+00
52.000000 -14.000000 5.456340E+00
52.000000 -16.000000 1.671121E+01
52.000000 -18.000000 2.222826E+01
52.000000 -20.000000 1.130123E+01
52.000000 -22.000000 4.487345E+00
52.000000 -24.000000 6.291368E+00
52.000000 -26.000000 1.808945E+01
52.000000 -28.000000 2.902564E+01
52.000000 -30.000000 9.661283E+00
52.000000 -32.000000 -1.718476E+01
52.000000 -34.000000 -1.253809E+01
52.000000 -36.000000 1.341845E+00
52.000000 -38.000000 3.449619E+00
52.000000 -40.000000 -2.035682E+01
54.000000 40.000000 4.448827E+01
54.000000 38.000000 1.253950E+01
54.000000 36.000000 1.704641E+01
54.000000 34.000000 2.424107E+01
54.000000 32.000000 1.195483E+01
54.000000 30.000000 -4.763350E-01
54.000000 28.000000 1.766397E+01
54.000000 26.000000 4.435592E+01
54.000000 24.000000 4.449804E+01
54.000000 22.000000 -6.075411E-01
54.000000 20.000000 -4.120407E+01
54.000000 18.000000 -3.580736E+01
54.000000 16.000000 -1.023935E+01
54.000000 14.000000 -2.116968E+01
54.000000 12.000000 -5.390355E+01
54.000000 10.000000 -7.714670E+01
54.000000 8.000000 -8.924372E+01
54.000000 6.000000 -1.056972E+02
54.000000 4.000000 -9.426424E+01
54.000000 2.000000 -6.698650E+01
54.000000 0.000000 -4.710939E+01
54.000000 -2.000000 -3.760728E+01
54.000000 -4.000000 -2.696937E+01
54.000000 -6.000000 -5.641234E+00
54.000000 -8.000000 2.193451E+00
54.000000 -10.000000 -3.009105E+00
54.000000 -12.000000 1.163165E+01
54.000000 -14.000000 3.214619E+01
54.000000 -16.000000 4.208909E+01
54.000000 -18.000000 4.503298E+01
54.000000 -20.000000 3.747699E+01
54.000000 -22.000000 3.385015E+01
54.000000 -24.000000 3.819404E+01
54.000000 -26.000000 5.348505E+01
54.000000 -28.000000 6.564111E+01
54.000000 -30.000000 4.151339E+01
54.000000 -32.000000 1.303266E+01
54.000000 -34.000000 1.750963E+01
54.000000 -36.000000 1.951157E+01
54.000000 -38.000000 8.700556E+00
54.000000 -40.000000 -2.095150E+01
56.000000 40.000000 4.705287E+01
56.000000 38.000000 1.883120E+01
56.000000 36.000000 2.308445E+01
56.000000 34.000000 1.626877E+01
56.000000 32.000000 -1.233132E+01
56.000000 30.000000 -3.073094E+01
56.000000 28.000000 -4.609201E+00
56.000000 26.000000 3.654398E+01
56.000000 24.000000 5.374738E+01
56.000000 22.000000 7.894579E+00
56.000000 20.000000 -3.287493E+01
56.000000 18.000000 -1.803609E+01
56.000000 16.000000 1.370189E+01
56.000000 14.000000 1.153841E+01
56.000000 12.000000 -1.427349E+01
56.000000 10.000000 -3.394921E+01
56.000000 8.000000 -5.181218E+01
56.000000 6.000000 -7.508336E+01
56.000000 4.000000 -8.202453E+01
56.000000 2.000000 -6.592331E+01
56.000000 0.000000 -4.986575E+01
56.000000 -2.000000 -4.263290E+01
56.000000 -4.000000 -3.456174E+01
56.000000 -6.000000 -1.300524E+01
56.000000 -8.000000 -5.871264E+00
56.000000 -10.000000 -6.137773E+00
56.000000 -12.000000 1.562195E+01
56.000000 -14.000000 4.082499E+01
56.000000 -16.000000 5.242345E+01
56.000000 -18.000000 5.476574E+01
56.000000 -20.000000 5.235438E+01
56.000000 -22.000000 5.155893E+01
56.000000 -24.000000 6.080739E+01
56.000000 -26.000000 7.242069E+01
