-30.000000 -34.000000 1.322131E+01
-30.000000 -36.000000 2.005799E+01
-30.000000 -38.000000 2.529419E+01
-30.000000 -40.000000 3.010932E+01
-28.000000 40.000000 1.912721E+01
-28.000000 38.000000 2.330211E+01
-28.000000 36.000000 2.863206E+01
-28.000000 34.000000 3.830339E+01
-28.000000 32.000000 4.383946E+01
-28.000000 30.000000 4.387940E+01
-28.000000 28.000000 4.306549E+01
-28.000000 26.000000 4.371666E+01
-28.000000 24.000000 4.769993E+01
-28.000000 22.000000 4.647959E+01
-28.000000 20.000000 3.775841E+01
-28.000000 18.000000 1.957600E+01
-28.000000 16.000000 -8.321171E-01
-28.000000 14.000000 -1.636326E+01
-28.000000 12.000000 -2.130814E+01
-28.000000 10.000000 -1.716606E+01
-28.000000 8.000000 -1.252516E+01
-28.000000 6.000000 -1.243395E+01
-28.000000 4.000000 -1.757083E+01
-28.000000 2.000000 -2.291640E+01
-28.000000 0.000000 -2.920167E+01
-28.000000 -2.000000 -3.750041E+01
-28.000000 -4.000000 -4.881088E+01
-28.000000 -6.000000 -6.173622E+01
-28.000000 -8.000000 -7.073977E+01
-28.000000 -10.000000 -7.541791E+01
-28.000000 -12.000000 -6.864453E+01
-28.000000 -14.000000 -5.337688E+01
-28.000000 -16.000000 -3.352683E+01
-28.000000 -18.000000 -1.580400E+01
-28.000000 -20.000000 -3.732260E+00
-28.000000 -22.000000 1.761255E+00
-28.000000 -24.000000 2.193758E+00
-28.000000 -26.000000 1.167282E+00
-28.000000 -28.000000 1.671920E+00
-28.000000 -30.000000 4.215358E+00
-28.000000 -32.000000 8.320917E+00
-28.000000 -34.000000 1.329293E+01
-28.000000 -36.000000 2.023172E+01
-28.000000 -38.000000 2.591173E+01
-28.000000 -40.000000 3.121665E+01
-26.000000 40.000000 1.807518E+01
-26.000000 38.000000 2.232097E+01
-26.000000 36.000000 2.791011E+01
-26.000000 34.000000 3.772478E+01
-26.000000 32.000000 4.259934E+01
-26.000000 30.000000 4.210955E+01
-26.000000 28.000000 4.155904E+01
-26.000000 26.000000 4.252235E+01
-26.000000 24.000000 4.808701E+01
-26.000000 22.000000 4.889126E+01
-26.000000 20.000000 4.179772E+01
-26.000000 18.000000 2.483433E+01
-26.000000 16.000000 4.913232E+00
-26.000000 14.000000 -1.136814E+01
-26.000000 12.000000 -1.799664E+01
-26.000000 10.000000 -1.607680E+01
-26.000000 8.000000 -1.271389E+01
-26.000000 6.000000 -1.382059E+01
-26.000000 4.000000 -1.620440E+01
-26.000000 2.000000 -1.669892E+01
-26.000000 0.000000 -1.805747E+01
-26.000000 -2.000000 -2.427646E+01
-26.000000 -4.000000 -3.495085E+01
-26.000000 -6.000000 -4.903172E+01
-26.000000 -8.000000 -6.199552E+01
-26.000000 -10.000000 -7.070240E+01
-26.000000 -12.000000 -6.745119E+01
-26.000000 -14.000000 -5.447343E+01
-26.000000 -16.000000 -3.632460E+01
-26.000000 -18.000000 -1.966122E+01
-26.000000 -20.000000 -6.967633E+00
-26.000000 -22.000000 -6.007605E-01
-26.000000 -24.000000 2.836246E-01
-26.000000 -26.000000 9.460163E-02
-26.000000 -28.000000 1.826309E+00
-26.000000 -30.000000 4.292395E+00
-26.000000 -32.000000 7.975251E+00
-26.000000 -34.000000 1.235481E+01
-26.000000 -36.000000 1.948408E+01
-26.000000 -38.000000 2.601094E+01
-26.000000 -40.000000 3.198208E+01
-24.000000 40.000000 1.644368E+01
-24.000000 38.000000 1.989966E+01
-24.000000 36.000000 2.631363E+01
-24.000000 34.000000 3.434514E+01
-24.000000 32.000000 3.737413E+01
-24.000000 30.000000 3.562984E+01
-24.000000 28.000000 3.549324E+01
-24.000000 26.000000 3.813442E+01
-24.000000 24.000000 4.351215E+01
-24.000000 22.000000 4.697414E+01
-24.000000 20.000000 4.368441E+01
-24.000000 18.000000 3.145275E+01
-24.000000 16.000000 1.571860E+01
-24.000000 14.000000 -2.256379E-01
-24.000000 12.000000 -9.606369E+00
-24.000000 10.000000 -1.234756E+01
-24.000000 8.000000 -1.237761E+01
-24.000000 6.000000 -1.587437E+01
-24.000000 4.000000 -1.709702E+01
-24.000000 2.000000 -1.441597E+01
-24.000000 0.000000 -1.128337E+01
-24.000000 -2.000000 -1.259992E+01
-24.000000 -4.000000 -1.882449E+01
-24.000000 -6.000000 -3.157026E+01
-24.000000 -8.000000 -4.670524E+01
-24.000000 -10.000000 -5.893252E+01
-24.000000 -12.000000 -6.100476E+01
-24.000000 -14.000000 -5.289560E+01
-24.000000 -16.000000 -3.936992E+01
-24.000000 -18.000000 -2.634066E+01
-24.000000 -20.000000 -1.513300E+01
-24.000000 -22.000000 -8.230287E+00
-24.000000 -24.000000 -5.867379E+00
-24.000000 -26.000000 -3.861298E+00
-24.000000 -28.000000 -1.094380E+00
-24.000000 -30.000000 1.614902E+00
-24.000000 -32.000000 4.834803E+00
-24.000000 -34.000000 9.473022E+00
-24.000000 -36.000000 1.739015E+01
-24.000000 -38.000000 2.546946E+01
-24.000000 -40.000000 3.203374E+01
-22.000000 40.000000 1.515998E+01
-22.000000 38.000000 1.753494E+01
-22.000000 36.000000 2.318927E+01
-22.000000 34.000000 2.900150E+01
-22.000000 32.000000 2.946472E+01
-22.000000 30.000000 2.591332E+01
-22.000000 28.000000 2.573524E+01
-22.000000 26.000000 2.945786E+01
-22.000000 24.000000 3.412575E+01
-22.000000 22.000000 4.075356E+01
-22.000000 20.000000 4.327309E+01
-22.000000 18.000000 3.869921E+01
-22.000000 16.000000 2.907975E+01
-22.000000 14.000000 1.534508E+01
-22.000000 12.000000 4.935278E+00
-22.000000 10.000000 3.463681E-01
-22.000000 8.000000 -2.434297E+00
-22.000000 6.000000 -9.456265E+00
-22.000000 4.000000 -1.481511E+01
-22.000000 2.000000 -1.411023E+01
-22.000000 0.000000 -9.107840E+00
-22.000000 -2.000000 -5.677984E+00
-22.000000 -4.000000 -7.741101E+00
-22.000000 -6.000000 -1.827717E+01
-22.000000 -8.000000 -3.284417E+01
-22.000000 -10.000000 -4.635106E+01
-22.000000 -12.000000 -5.210497E+01
-22.000000 -14.000000 -4.817196E+01
-22.000000 -16.000000 -3.906840E+01
-22.000000 -18.000000 -3.016939E+01
-22.000000 -20.000000 -2.194510E+01
-22.000000 -22.000000 -1.587809E+01
-22.000000 -24.000000 -1.238830E+01
-22.000000 -26.000000 -9.235176E+00
-22.000000 -28.000000 -5.876000E+00
-22.000000 -30.000000 -2.960358E+00
-22.000000 -32.000000 -9.320860E-02
-22.000000 -34.000000 4.560101E+00
-22.000000 -36.000000 1.316401E+01
-22.000000 -38.000000 2.229198E+01
-22.000000 -40.000000 3.015129E+01
-20.000000 40.000000 1.441222E+01
-20.000000 38.000000 1.569367E+01
-20.000000 36.000000 1.944591E+01
-20.000000 34.000000 2.238208E+01
-20.000000 32.000000 2.055684E+01
-20.000000 30.000000 1.584536E+01
-20.000000 28.000000 1.457110E+01
-20.000000 26.000000 1.726617E+01
-20.000000 24.000000 2.136266E+01
-20.000000 22.000000 3.027000E+01
-20.000000 20.000000 3.887523E+01
-20.000000 18.000000 4.354807E+01
-20.000000 16.000000 4.109385E+01
-20.000000 14.000000 3.435634E+01
-20.000000 12.000000 2.733506E+01
-20.000000 10.000000 2.263763E+01
-20.000000 8.000000 1.517160E+01
-20.000000 6.000000 2.271651E+00
-20.000000 4.000000 -1.126489E+01
-20.000000 2.000000 -1.515310E+01
-20.000000 0.000000 -8.996863E+00
-20.000000 -2.000000 -6.504211E-01
-20.000000 -4.000000 5.229692E-01
-20.000000 -6.000000 -8.297976E+00
-20.000000 -8.000000 -2.144351E+01
-20.000000 -10.000000 -3.511855E+01
-20.000000 -12.000000 -4.276490E+01
-20.000000 -14.000000 -4.097059E+01
-20.000000 -16.000000 -3.485276E+01
-20.000000 -18.000000 -3.046696E+01
-20.000000 -20.000000 -2.571643E+01
-20.000000 -22.000000 -2.114185E+01
-20.000000 -24.000000 -1.781715E+01
-20.000000 -26.000000 -1.444521E+01
-20.000000 -28.000000 -1.107508E+01
-20.000000 -30.000000 -8.402066E+00
-20.000000 -32.000000 -6.244711E+00
-20.000000 -34.000000 -1.638955E+00
-20.000000 -36.000000 7.911794E+00
-20.000000 -38.000000 1.851276E+01
-20.000000 -40.000000 2.775603E+01
-18.000000 40.000000 1.410773E+01
-18.000000 38.000000 1.415601E+01
-18.000000 36.000000 1.587709E+01
-18.000000 34.000000 1.669268E+01
-18.000000 32.000000 1.331513E+01
-18.000000 30.000000 7.744711E+00
-18.000000 28.000000 4.873838E+00
-18.000000 26.000000 6.014897E+00
-18.000000 24.000000 9.485840E+00
-18.000000 22.000000 1.865267E+01
-18.000000 20.000000 2.967397E+01
-18.000000 18.000000 3.975881E+01
-18.000000 16.000000 4.520250E+01
-18.000000 14.000000 5.088424E+01
-18.000000 12.000000 5.296989E+01
-18.000000 10.000000 4.785794E+01
-18.000000 8.000000 3.142695E+01
-18.000000 6.000000 9.122006E+00
-18.000000 4.000000 -1.265499E+01
-18.000000 2.000000 -1.917278E+01
-18.000000 0.000000 -1.065210E+01
-18.000000 -2.000000 4.304617E+00
-18.000000 -4.000000 1.067231E+01
-18.000000 -6.000000 3.522720E+00
-18.000000 -8.000000 -9.904458E+00
-18.000000 -10.000000 -2.369181E+01
-18.000000 -12.000000 -3.180969E+01
-18.000000 -14.000000 -3.055820E+01
-18.000000 -16.000000 -2.595441E+01
-18.000000 -18.000000 -2.533991E+01
-18.000000 -20.000000 -2.468045E+01
-18.000000 -22.000000 -2.244927E+01
-18.000000 -24.000000 -2.044095E+01
-18.000000 -26.000000 -1.790770E+01
-18.000000 -28.000000 -1.556025E+01
-18.000000 -30.000000 -1.461093E+01
-18.000000 -32.000000 -1.381591E+01
-18.000000 -34.000000 -8.806514E+00
-18.000000 -36.000000 2.643531E+00
-18.000000 -38.000000 1.500872E+01
-18.000000 -40.000000 2.478498E+01
-16.000000 40.000000 1.380101E+01
-16.000000 38.000000 1.313309E+01
-16.000000 36.000000 1.408778E+01
-16.000000 34.000000 1.426643E+01
-16.000000 32.000000 1.030002E+01
-16.000000 30.000000 4.125198E+00
-16.000000 28.000000 9.097099E-02
-16.000000 26.000000 -4.255867E-02
-16.000000 24.000000 8.067265E-01
-16.000000 22.000000 5.950345E+00
-16.000000 20.000000 1.372789E+01
-16.000000 18.000000 2.454811E+01
-16.000000 16.000000 3.768465E+01
-16.000000 14.000000 5.760996E+01
-16.000000 12.000000 7.116163E+01
-16.000000 10.000000 6.704435E+01
-16.000000 8.000000 4.270319E+01
-16.000000 6.000000 1.137140E+01
-16.000000 4.000000 -1.634455E+01
-16.000000 2.000000 -2.298780E+01
-16.000000 0.000000 -1.136186E+01
-16.000000 -2.000000 7.767260E+00
-16.000000 -4.000000 1.867530E+01
-16.000000 -6.000000 1.421982E+01
-16.000000 -8.000000 9.624519E-01
-16.000000 -10.000000 -1.249108E+01
-16.000000 -12.000000 -2.012975E+01
-16.000000 -14.000000 -1.805914E+01
-16.000000 -16.000000 -1.417952E+01
-16.000000 -18.000000 -1.572718E+01
-16.000000 -20.000000 -1.771360E+01
-16.000000 -22.000000 -1.816208E+01
-16.000000 -24.000000 -1.842986E+01
-16.000000 -26.000000 -1.811880E+01
-16.000000 -28.000000 -1.857135E+01
-16.000000 -30.000000 -2.080249E+01
-16.000000 -32.000000 -2.194603E+01
-16.000000 -34.000000 -1.635181E+01
-16.000000 -36.000000 -2.370061E+00
-16.000000 -38.000000 1.178380E+01
-16.000000 -40.000000 2.146896E+01
-14.000000 40.000000 1.303054E+01
-14.000000 38.000000 1.296589E+01
-14.000000 36.000000 1.445571E+01
-14.000000 34.000000 1.531849E+01
-14.000000 32.000000 1.209716E+01
-14.000000 30.000000 6.452890E+00
-14.000000 28.000000 1.772005E+00
-14.000000 26.000000 -1.898174E-01
-14.000000 24.000000 -3.729095E+00
-14.000000 22.000000 -6.622593E+00
-14.000000 20.000000 -6.808470E+00
-14.000000 18.000000 1.687575E+00
-14.000000 16.000000 2.222081E+01
-14.000000 14.000000 5.351762E+01
-14.000000 12.000000 7.754988E+01
-14.000000 10.000000 7.822263E+01
-14.000000 8.000000 5.104724E+01
-14.000000 6.000000 1.384389E+01
-14.000000 4.000000 -1.741759E+01
-14.000000 2.000000 -2.487563E+01
-14.000000 0.000000 -1.331505E+01
-14.000000 -2.000000 4.810108E+00
-14.000000 -4.000000 1.670860E+01
-14.000000 -6.000000 1.557513E+01
-14.000000 -8.000000 5.885703E+00
-14.000000 -10.000000 -4.693708E+00
-14.000000 -12.000000 -1.053948E+01
-14.000000 -14.000000 -5.421661E+00
-14.000000 -16.000000 -9.405032E-01
-14.000000 -18.000000 -4.351416E+00
-14.000000 -20.000000 -7.341024E+00
-14.000000 -22.000000 -9.639995E+00
-14.000000 -24.000000 -1.275586E+01
-14.000000 -26.000000 -1.535333E+01
-14.000000 -28.000000 -1.930659E+01
-14.000000 -30.000000 -2.497143E+01
-14.000000 -32.000000 -2.864765E+01
-14.000000 -34.000000 -2.323167E+01
-14.000000 -36.000000 -6.900815E+00
-14.000000 -38.000000 9.095567E+00
-14.000000 -40.000000 1.857766E+01
-12.000000 40.000000 1.199519E+01
-12.000000 38.000000 1.322961E+01
-12.000000 36.000000 1.580186E+01
-12.000000 34.000000 1.822149E+01
-12.000000 32.000000 1.645767E+01
-12.000000 30.000000 1.173953E+01
-12.000000 28.000000 6.704847E+00
-12.000000 26.000000 3.166565E+00
-12.000000 24.000000 -4.387989E+00
-12.000000 22.000000 -1.622954E+01
-12.000000 20.000000 -2.403108E+01
-12.000000 18.000000 -1.752334E+01
-12.000000 16.000000 8.010409E+00
-12.000000 14.000000 4.588008E+01
-12.000000 12.000000 7.824479E+01
-12.000000 10.000000 8.662700E+01
-12.000000 8.000000 6.127300E+01
-12.000000 6.000000 2.143812E+01
-12.000000 4.000000 -1.318431E+01
-12.000000 2.000000 -2.515141E+01
-12.000000 0.000000 -2.072455E+01
-12.000000 -2.000000 -9.519310E+00
-12.000000 -4.000000 -7.909169E-01
-12.000000 -6.000000 2.130934E+00
-12.000000 -8.000000 3.388772E-01
-12.000000 -10.000000 -3.245942E+00
-12.000000 -12.000000 -4.005065E+00
-12.000000 -14.000000 3.999341E+00
-12.000000 -16.000000 8.947054E+00
-12.000000 -18.000000 5.268678E+00
-12.000000 -20.000000 1.748984E+00
-12.000000 -22.000000 -1.294998E+00
-12.000000 -24.000000 -6.212021E+00
-12.000000 -26.000000 -1.123709E+01
-12.000000 -28.000000 -1.819401E+01
-12.000000 -30.000000 -2.655990E+01
-12.000000 -32.000000 -3.186832E+01
-12.000000 -34.000000 -2.663079E+01
-12.000000 -36.000000 -9.463166E+00
-12.000000 -38.000000 7.084246E+00
-12.000000 -40.000000 1.614298E+01
-10.000000 40.000000 1.119569E+01
-10.000000 38.000000 1.346655E+01
-10.000000 36.000000 1.676750E+01
-10.000000 34.000000 2.010577E+01
-10.000000 32.000000 1.913209E+01
-10.000000 30.000000 1.516481E+01
-10.000000 28.000000 1.057915E+01
-10.000000 26.000000 6.952801E+00
-10.000000 24.000000 -2.339115E+00
-10.000000 22.000000 -1.994932E+01
-10.000000 20.000000 -3.160149E+01
-10.000000 18.000000 -2.497631E+01
-10.000000 16.000000 2.795835E+00
-10.000000 14.000000 4.340617E+01
-10.000000 12.000000 8.059940E+01
-10.000000 10.000000 9.637735E+01
-10.000000 8.000000 7.673284E+01
-10.000000 6.000000 3.770776E+01
-10.000000 4.000000 -3.276175E+00
-10.000000 2.000000 -2.640461E+01
-10.000000 0.000000 -3.427445E+01
-10.000000 -2.000000 -3.180394E+01
-10.000000 -4.000000 -2.624419E+01
-10.000000 -6.000000 -1.895846E+01
-10.000000 -8.000000 -1.248031E+01
-10.000000 -10.000000 -8.167329E+00
-10.000000 -12.000000 -2.633392E+00
-10.000000 -14.000000 6.470675E+00
-10.000000 -16.000000 1.096490E+01
-10.000000 -18.000000 8.196348E+00
-10.000000 -20.000000 5.225125E+00
-10.000000 -22.000000 3.189733E+00
-10.000000 -24.000000 -1.512564E+00
-10.000000 -26.000000 -7.993409E+00
-10.000000 -28.000000 -1.659204E+01
-10.000000 -30.000000 -2.584390E+01
-10.000000 -32.000000 -3.068142E+01
-10.000000 -34.000000 -2.506290E+01
-10.000000 -36.000000 -9.219669E+00
-10.000000 -38.000000 5.753066E+00
-10.000000 -40.000000 1.402992E+01
-8.000000 40.000000 1.060851E+01
-8.000000 38.000000 1.346583E+01
-8.000000 36.000000 1.664337E+01
-8.000000 34.000000 1.901801E+01
-8.000000 32.000000 1.719209E+01
-8.000000 30.000000 1.379657E+01
-8.000000 28.000000 1.067711E+01
-8.000000 26.000000 7.958818E+00
-8.000000 24.000000 -6.567669E-01
-8.000000 22.000000 -1.714176E+01
-8.000000 20.000000 -2.733215E+01
-8.000000 18.000000 -1.920899E+01
-8.000000 16.000000 8.975614E+00
-8.000000 14.000000 4.860520E+01
-8.000000 12.000000 8.642006E+01
-8.000000 10.000000 1.072626E+02
-8.000000 8.000000 9.437334E+01
-8.000000 6.000000 5.798124E+01
-8.000000 4.000000 9.537234E+00
-8.000000 2.000000 -2.693044E+01
-8.000000 0.000000 -4.649811E+01
-8.000000 -2.000000 -5.044582E+01
-8.000000 -4.000000 -4.621228E+01
-8.000000 -6.000000 -3.607449E+01
-8.000000 -8.000000 -2.506593E+01
-8.000000 -10.000000 -1.681357E+01
-8.000000 -12.000000 -8.203914E+00
-8.000000 -14.000000 1.358232E+00
-8.000000 -16.000000 5.453423E+00
-8.000000 -18.000000 2.989383E+00
-8.000000 -20.000000 1.985000E+00
-8.000000 -22.000000 2.559673E+00
-8.000000 -24.000000 -4.790831E-01
-8.000000 -26.000000 -6.534330E+00
-8.000000 -28.000000 -1.456078E+01
-8.000000 -30.000000 -2.273157E+01
-8.000000 -32.000000 -2.619504E+01
-8.000000 -34.000000 -2.069928E+01
-8.000000 -36.000000 -7.064631E+00
-8.000000 -38.000000 5.533100E+00
-8.000000 -40.000000 1.237486E+01
-6.000000 40.000000 9.854116E+00
-6.000000 38.000000 1.279700E+01
-6.000000 36.000000 1.538576E+01
-6.000000 34.000000 1.544261E+01
-6.000000 32.000000 1.124852E+01
-6.000000 30.000000 7.659271E+00
-6.000000 28.000000 6.024078E+00
-6.000000 26.000000 5.328596E+00
-6.000000 24.000000 -1.232510E-01
-6.000000 22.000000 -1.090567E+01
-6.000000 20.000000 -1.579580E+01
-6.000000 18.000000 -5.855757E+00
-6.000000 16.000000 2.080280E+01
-6.000000 14.000000 5.754305E+01
-6.000000 12.000000 9.396590E+01
-6.000000 10.000000 1.172942E+02
-6.000000 8.000000 1.086146E+02
-6.000000 6.000000 7.454748E+01
-6.000000 4.000000 2.184736E+01
-6.000000 2.000000 -2.281380E+01
-6.000000 0.000000 -4.896197E+01
-6.000000 -2.000000 -5.543048E+01
-6.000000 -4.000000 -5.079678E+01
-6.000000 -6.000000 -4.068535E+01
-6.000000 -8.000000 -3.123910E+01
-6.000000 -10.000000 -2.484661E+01
-6.000000 -12.000000 -1.773408E+01
-6.000000 -14.000000 -9.381032E+00
-6.000000 -16.000000 -5.180868E+00
-6.000000 -18.000000 -5.987867E+00
-6.000000 -20.000000 -4.836205E+00
-6.000000 -22.000000 -2.133906E+00
-6.000000 -24.000000 -2.902811E+00
-6.000000 -26.000000 -6.743206E+00
-6.000000 -28.000000 -1.227488E+01
-6.000000 -30.000000 -1.805307E+01
-6.000000 -32.000000 -2.002050E+01
-6.000000 -34.000000 -1.522514E+01
-6.000000 -36.000000 -4.274687E+00
-6.000000 -38.000000 5.805119E+00
-6.000000 -40.000000 1.109067E+01
-4.000000 40.000000 9.298176E+00
-4.000000 38.000000 1.115408E+01
-4.000000 36.000000 1.254760E+01
-4.000000 34.000000 1.022235E+01
-4.000000 32.000000 3.718899E+00
-4.000000 30.000000 -5.334759E-01
-4.000000 28.000000 -1.558744E+00
-4.000000 26.000000 -1.241302E-01
-4.000000 24.000000 -1.960617E+00
-4.000000 22.000000 -5.777845E+00
-4.000000 20.000000 -3.891182E+00
-4.000000 18.000000 9.140979E+00
-4.000000 16.000000 3.331361E+01
-4.000000 14.000000 6.555978E+01
-4.000000 12.000000 9.886590E+01
-4.000000 10.000000 1.232182E+02
-4.000000 8.000000 1.179613E+02
-4.000000 6.000000 8.630869E+01
-4.000000 4.000000 3.208914E+01
-4.000000 2.000000 -1.551584E+01
-4.000000 0.000000 -4.217468E+01
-4.000000 -2.000000 -4.677518E+01
-4.000000 -4.000000 -4.013362E+01
-4.000000 -6.000000 -3.198532E+01
-4.000000 -8.000000 -2.859018E+01
-4.000000 -10.000000 -2.874167E+01
-4.000000 -12.000000 -2.608952E+01
-4.000000 -14.000000 -2.013391E+01
-4.000000 -16.000000 -1.534705E+01
-4.000000 -18.000000 -1.374694E+01
-4.000000 -20.000000 -1.120516E+01
-4.000000 -22.000000 -7.271585E+00
-4.000000 -24.000000 -6.160799E+00
-4.000000 -26.000000 -7.992736E+00
-4.000000 -28.000000 -1.060335E+01
-4.000000 -30.000000 -1.335073E+01
-4.000000 -32.000000 -1.369989E+01
-4.000000 -34.000000 -9.599919E+00
-4.000000 -36.000000 -1.703529E+00
-4.000000 -38.000000 5.842818E+00
-4.000000 -40.000000 1.027792E+01
-2.000000 40.000000 9.777792E+00
-2.000000 38.000000 8.791119E+00
-2.000000 36.000000 8.202065E+00
-2.000000 34.000000 4.530996E+00
-2.000000 32.000000 -2.198801E+00
-2.000000 30.000000 -6.652864E+00
-2.000000 28.000000 -8.715197E+00
-2.000000 26.000000 -7.799944E+00
-2.000000 24.000000 -7.621002E+00
-2.000000 22.000000 -4.172609E+00
-2.000000 20.000000 4.443913E+00
-2.000000 18.000000 2.063265E+01
-2.000000 16.000000 4.160516E+01
-2.000000 14.000000 6.780989E+01
-2.000000 12.000000 9.664474E+01
-2.000000 10.000000 1.209677E+02
-2.000000 8.000000 1.193623E+02
-2.000000 6.000000 9.157547E+01
-2.000000 4.000000 4.020162E+01
-2.000000 2.000000 -5.025747E+00
-2.000000 0.000000 -2.801169E+01
-2.000000 -2.000000 -2.813759E+01
-2.000000 -4.000000 -1.826741E+01
-2.000000 -6.000000 -1.288537E+01
-2.000000 -8.000000 -1.739982E+01
-2.000000 -10.000000 -2.613817E+01
-2.000000 -12.000000 -2.940743E+01
-2.000000 -14.000000 -2.524781E+01
-2.000000 -16.000000 -1.964616E+01
-2.000000 -18.000000 -1.714604E+01
-2.000000 -20.000000 -1.457359E+01
-2.000000 -22.000000 -1.011753E+01
-2.000000 -24.000000 -8.795241E+00
-2.000000 -26.000000 -1.007018E+01
-2.000000 -28.000000 -1.024963E+01
-2.000000 -30.000000 -9.920366E+00
-2.000000 -32.000000 -8.856050E+00
-2.000000 -34.000000 -5.281312E+00
-2.000000 -36.000000 4.090600E-01
-2.000000 -38.000000 6.406103E+00
-2.000000 -40.000000 1.082953E+01
0.000000 40.000000 1.157174E+01
0.000000 38.000000 6.914179E+00
0.000000 36.000000 4.549051E+00
0.000000 34.000000 4.813595E-01
0.000000 32.000000 -5.282915E+00
0.000000 30.000000 -9.149153E+00
0.000000 28.000000 -1.325863E+01
0.000000 26.000000 -1.488301E+01
0.000000 24.000000 -1.412320E+01
0.000000 22.000000 -5.231901E+00
0.000000 20.000000 7.952097E+00
0.000000 18.000000 2.490680E+01
0.000000 16.000000 4.071412E+01
0.000000 14.000000 5.932104E+01
0.000000 12.000000 8.401968E+01
0.000000 10.000000 1.089888E+02
0.000000 8.000000 1.128324E+02
0.000000 6.000000 9.110419E+01
0.000000 4.000000 4.708038E+01
0.000000 2.000000 8.709236E+00
0.000000 0.000000 -9.134743E+00
0.000000 -2.000000 -4.795943E+00
0.000000 -4.000000 8.249965E+00
0.000000 -6.000000 1.071587E+01
0.000000 -8.000000 -1.013642E+00
0.000000 -10.000000 -1.704514E+01
0.000000 -12.000000 -2.540103E+01
0.000000 -14.000000 -2.260523E+01
0.000000 -16.000000 -1.682609E+01
0.000000 -18.000000 -1.486616E+01
0.000000 -20.000000 -1.371777E+01
0.000000 -22.000000 -1.090969E+01
0.000000 -24.000000 -1.119284E+01
0.000000 -26.000000 -1.252111E+01
0.000000 -28.000000 -1.098888E+01
0.000000 -30.000000 -8.423726E+00
0.000000 -32.000000 -6.299517E+00
0.000000 -34.000000 -2.796758E+00
0.000000 -36.000000 2.442462E+00
0.000000 -38.000000 8.776345E+00
0.000000 -40.000000 1.388561E+01
2.000000 40.000000 1.438227E+01
2.000000 38.000000 7.584690E+00
2.000000 36.000000 4.133127E+00
2.000000 34.000000 -4.489117E-01
2.000000 32.000000 -5.936281E+00
2.000000 30.000000 -9.129087E+00
2.000000 28.000000 -1.401111E+01
2.000000 26.000000 -1.681668E+01
2.000000 24.000000 -1.569373E+01
2.000000 22.000000 -5.319805E+00
2.000000 20.000000 7.527288E+00
2.000000 18.000000 1.992323E+01
2.000000 16.000000 2.727648E+01
2.000000 14.000000 3.808092E+01
2.000000 12.000000 6.164780E+01
2.000000 10.000000 9.156707E+01
2.000000 8.000000 1.051328E+02
2.000000 6.000000 9.137041E+01
2.000000 4.000000 5.395220E+01
2.000000 2.000000 2.146840E+01
2.000000 0.000000 9.007034E+00
2.000000 -2.000000 1.629097E+01
2.000000 -4.000000 2.983860E+01
2.000000 -6.000000 2.966817E+01
2.000000 -8.000000 1.368620E+01
2.000000 -10.000000 -5.036030E+00
2.000000 -12.000000 -1.509046E+01
2.000000 -14.000000 -1.343626E+01
2.000000 -16.000000 -9.131053E+00
2.000000 -18.000000 -9.062656E+00
2.000000 -20.000000 -1.007433E+01
2.000000 -22.000000 -1.104839E+01
2.000000 -24.000000 -1.326644E+01
2.000000 -26.000000 -1.416212E+01
2.000000 -28.000000 -1.140308E+01
2.000000 -30.000000 -7.491630E+00
2.000000 -32.000000 -4.500314E+00
2.000000 -34.000000 -9.522920E-01
2.000000 -36.000000 5.315527E+00
2.000000 -38.000000 1.374464E+01
2.000000 -40.000000 1.980646E+01
4.000000 40.000000 1.725093E+01
4.000000 38.000000 1.213436E+01
4.000000 36.000000 8.334383E+00
4.000000 34.000000 2.679474E+00
4.000000 32.000000 -3.989918E+00
4.000000 30.000000 -7.777399E+00
4.000000 28.000000 -1.080181E+01
4.000000 26.000000 -1.152997E+01
4.000000 24.000000 -9.220346E+00
4.000000 22.000000 -1.312557E+00
4.000000 20.000000 5.835426E+00
4.000000 18.000000 7.060507E+00
4.000000 16.000000 2.727701E+00
4.000000 14.000000 6.993554E+00
4.000000 12.000000 3.338248E+01
4.000000 10.000000 7.409958E+01
4.000000 8.000000 1.022715E+02
4.000000 6.000000 9.857154E+01
4.000000 4.000000 6.339387E+01
4.000000 2.000000 2.931014E+01
4.000000 0.000000 1.707248E+01
4.000000 -2.000000 2.505208E+01
4.000000 -4.000000 3.863793E+01
4.000000 -6.000000 3.821527E+01
4.000000 -8.000000 2.197768E+01
4.000000 -10.000000 4.776050E+00
4.000000 -12.000000 -4.585900E+00
4.000000 -14.000000 -2.471366E+00
4.000000 -16.000000 3.304410E-01
4.000000 -18.000000 -2.662756E+00
4.000000 -20.000000 -5.800363E+00
4.000000 -22.000000 -9.950248E+00
4.000000 -24.000000 -1.352070E+01
4.000000 -26.000000 -1.388907E+01
4.000000 -28.000000 -9.944421E+00
4.000000 -30.000000 -4.748791E+00
4.000000 -32.000000 -9.767950E-01
4.000000 -34.000000 2.344613E+00
4.000000 -36.000000 1.019811E+01
4.000000 -38.000000 2.110224E+01
4.000000 -40.000000 2.772427E+01
6.000000 40.000000 1.956118E+01
6.000000 38.000000 1.878614E+01
6.000000 36.000000 1.598423E+01
6.000000 34.000000 9.570443E+00
6.000000 32.000000 6.072941E-01
6.000000 30.000000 -4.684683E+00
6.000000 28.000000 -4.919268E+00
6.000000 26.000000 -2.304588E+00
6.000000 24.000000 1.804218E+00
6.000000 22.000000 5.289307E+00
6.000000 20.000000 5.347310E+00
6.000000 18.000000 -5.444626E+00
6.000000 16.000000 -2.177598E+01
6.000000 14.000000 -2.340684E+01
6.000000 12.000000 7.778965E+00
6.000000 10.000000 6.211552E+01
6.000000 8.000000 1.064071E+02
6.000000 6.000000 1.129225E+02
6.000000 4.000000 7.454625E+01
6.000000 2.000000 2.879774E+01
6.000000 0.000000 7.118948E+00
6.000000 -2.000000 1.231937E+01
6.000000 -4.000000 2.740605E+01
6.000000 -6.000000 3.215156E+01
6.000000 -8.000000 2.167239E+01
6.000000 -10.000000 9.809691E+00
6.000000 -12.000000 2.501512E+00
6.000000 -14.000000 5.413534E+00
6.000000 -16.000000 7.496645E+00
6.000000 -18.000000 2.914208E+00
6.000000 -20.000000 -2.020905E+00
6.000000 -22.000000 -7.745693E+00
6.000000 -24.000000 -1.097442E+01
6.000000 -26.000000 -9.841614E+00
6.000000 -28.000000 -4.928219E+00
6.000000 -30.000000 7.484330E-01
6.000000 -32.000000 4.922884E+00
6.000000 -34.000000 9.229178E+00
6.000000 -36.000000 1.880655E+01
6.000000 -38.000000 2.985999E+01
6.000000 -40.000000 3.580061E+01
8.000000 40.000000 2.107107E+01
8.000000 38.000000 2.431455E+01
8.000000 36.000000 2.366313E+01
8.000000 34.000000 1.794942E+01
8.000000 32.000000 7.270329E+00
8.000000 30.000000 3.286152E-01
8.000000 28.000000 1.383720E+00
8.000000 26.000000 5.952164E+00
8.000000 24.000000 1.164280E+01
8.000000 22.000000 1.102786E+01
8.000000 20.000000 5.564819E+00
8.000000 18.000000 -1.140019E+01
8.000000 16.000000 -3.280677E+01
8.000000 14.000000 -3.551419E+01
8.000000 12.000000 -6.338539E-01
8.000000 10.000000 6.120241E+01
8.000000 8.000000 1.138010E+02
8.000000 6.000000 1.250915E+02
8.000000 4.000000 8.148036E+01
8.000000 2.000000 2.033533E+01
8.000000 0.000000 -1.851324E+01
8.000000 -2.000000 -2.326907E+01
8.000000 -4.000000 -8.074487E+00
8.000000 -6.000000 8.373070E+00
8.000000 -8.000000 1.148957E+01
8.000000 -10.000000 8.391738E+00
8.000000 -12.000000 4.563570E+00
8.000000 -14.000000 8.596325E+00
8.000000 -16.000000 1.119086E+01
8.000000 -18.000000 7.045071E+00
8.000000 -20.000000 1.252717E+00
8.000000 -22.000000 -4.501539E+00
8.000000 -24.000000 -5.824259E+00
8.000000 -26.000000 -1.617226E+00
8.000000 -28.000000 4.645355E+00
8.000000 -30.000000 9.127417E+00
8.000000 -32.000000 1.247064E+01
8.000000 -34.000000 1.889863E+01
8.000000 -36.000000 3.039556E+01
8.000000 -38.000000 3.900016E+01
8.000000 -40.000000 4.259938E+01
10.000000 40.000000 2.143096E+01
10.000000 38.000000 2.683438E+01
10.000000 36.000000 2.886970E+01
10.000000 34.000000 2.567767E+01
10.000000 32.000000 1.517999E+01
10.000000 30.000000 6.247528E+00
10.000000 28.000000 5.469088E+00
10.000000 26.000000 9.893924E+00
10.000000 24.000000 1.670833E+01
10.000000 22.000000 1.376973E+01
10.000000 20.000000 4.397269E+00
10.000000 18.000000 -1.297942E+01
10.000000 16.000000 -2.923828E+01
10.000000 14.000000 -2.691397E+01
10.000000 12.000000 7.757854E+00
10.000000 10.000000 6.724495E+01
10.000000 8.000000 1.195952E+02
10.000000 6.000000 1.334855E+02
10.000000 4.000000 8.834845E+01
10.000000 2.000000 1.423979E+01
10.000000 0.000000 -4.536404E+01
10.000000 -2.000000 -6.601624E+01
10.000000 -4.000000 -5.485844E+01
10.000000 -6.000000 -2.775215E+01
10.000000 -8.000000 -1.035831E+01
10.000000 -10.000000 -3.749536E+00
10.000000 -12.000000 -2.575456E+00
10.000000 -14.000000 5.205473E+00
10.000000 -16.000000 1.092209E+01
10.000000 -18.000000 9.224235E+00
10.000000 -20.000000 5.515231E+00
10.000000 -22.000000 1.620495E+00
10.000000 -24.000000 2.381344E+00
10.000000 -26.000000 9.181143E+00
10.000000 -28.000000 1.684686E+01
10.000000 -30.000000 1.912018E+01
10.000000 -32.000000 2.019626E+01
10.000000 -34.000000 2.758394E+01
10.000000 -36.000000 4.067675E+01
10.000000 -38.000000 4.688418E+01
10.000000 -40.000000 4.765049E+01
12.000000 40.000000 2.070594E+01
12.000000 38.000000 2.711396E+01
12.000000 36.000000 3.183702E+01
12.000000 34.000000 3.189887E+01
12.000000 32.000000 2.202369E+01
12.000000 30.000000 1.008623E+01
12.000000 28.000000 5.175272E+00
12.000000 26.000000 8.247138E+00
12.000000 24.000000 1.526342E+01
12.000000 22.000000 1.091878E+01
12.000000 20.000000 -2.847452E-01
12.000000 18.000000 -1.431370E+01
12.000000 16.000000 -2.126400E+01
12.000000 14.000000 -1.268981E+01
12.000000 12.000000 1.974220E+01
12.000000 10.000000 7.333624E+01
12.000000 8.000000 1.240361E+02
12.000000 6.000000 1.431871E+02
12.000000 4.000000 1.027131E+02
12.000000 2.000000 2.311590E+01
12.000000 0.000000 -5.348246E+01
12.000000 -2.000000 -9.206996E+01
12.000000 -4.000000 -9.220169E+01
12.000000 -6.000000 -6.572388E+01
12.000000 -8.000000 -4.211481E+01
12.000000 -10.000000 -2.846414E+01
12.000000 -12.000000 -2.071635E+01
12.000000 -14.000000 -7.552441E+00
12.000000 -16.000000 4.747812E+00
12.000000 -18.000000 1.033582E+01
12.000000 -20.000000 1.197229E+01
12.000000 -22.000000 1.177648E+01
12.000000 -24.000000 1.421401E+01
12.000000 -26.000000 2.060597E+01
12.000000 -28.000000 2.689900E+01
12.000000 -30.000000 2.714976E+01
12.000000 -32.000000 2.648550E+01
12.000000 -34.000000 3.301256E+01
12.000000 -36.000000 4.538150E+01
12.000000 -38.000000 5.050088E+01
12.000000 -40.000000 5.007678E+01
14.000000 40.000000 2.015168E+01
14.000000 38.000000 2.684898E+01
14.000000 36.000000 3.343933E+01
14.000000 34.000000 3.557232E+01
14.000000 32.000000 2.576958E+01
14.000000 30.000000 1.052913E+01
14.000000 28.000000 4.269447E-01
14.000000 26.000000 1.426954E-01
14.000000 24.000000 4.601900E+00
14.000000 22.000000 1.197643E-01
14.000000 20.000000 -9.654250E+00
14.000000 18.000000 -1.718719E+01
14.000000 16.000000 -1.555832E+01
14.000000 14.000000 -2.511918E+00
14.000000 12.000000 2.746326E+01
14.000000 10.000000 7.628912E+01
14.000000 8.000000 1.272368E+02
14.000000 6.000000 1.526449E+02
14.000000 4.000000 1.227307E+02
14.000000 2.000000 4.958639E+01
14.000000 0.000000 -3.063952E+01
14.000000 -2.000000 -8.495500E+01
14.000000 -4.000000 -1.052931E+02
14.000000 -6.000000 -9.408202E+01
14.000000 -8.000000 -7.512594E+01
14.000000 -10.000000 -6.142650E+01
14.000000 -12.000000 -4.814284E+01
14.000000 -14.000000 -2.804779E+01
14.000000 -16.000000 -5.108139E+00
14.000000 -18.000000 1.164405E+01
14.000000 -20.000000 2.025152E+01
14.000000 -22.000000 2.333845E+01
14.000000 -24.000000 2.580980E+01
14.000000 -26.000000 2.924828E+01
14.000000 -28.000000 3.112976E+01
14.000000 -30.000000 2.967071E+01
14.000000 -32.000000 2.854842E+01
14.000000 -34.000000 3.326881E+01
14.000000 -36.000000 4.287976E+01
14.000000 -38.000000 4.823690E+01
14.000000 -40.000000 4.893169E+01
16.000000 40.000000 2.080846E+01
16.000000 38.000000 2.662007E+01
16.000000 36.000000 3.401811E+01
16.000000 34.000000 3.705926E+01
16.000000 32.000000 2.762148E+01
16.000000 30.000000 1.017552E+01
16.000000 28.000000 -5.652580E+00
16.000000 26.000000 -1.197516E+01
16.000000 24.000000 -1.394389E+01
16.000000 22.000000 -1.703785E+01
16.000000 20.000000 -2.213479E+01
16.000000 18.000000 -2.307441E+01
16.000000 16.000000 -1.639310E+01
16.000000 14.000000 -8.957090E-01
16.000000 12.000000 2.936658E+01
16.000000 10.000000 7.763992E+01
16.000000 8.000000 1.316569E+02
16.000000 6.000000 1.646496E+02
16.000000 4.000000 1.495632E+02
16.000000 2.000000 9.039331E+01
16.000000 0.000000 1.606554E+01
16.000000 -2.000000 -4.877513E+01
16.000000 -4.000000 -9.102356E+01
16.000000 -6.000000 -1.036695E+02
16.000000 -8.000000 -9.902532E+01
16.000000 -10.000000 -9.235369E+01
16.000000 -12.000000 -7.695486E+01
16.000000 -14.000000 -4.929951E+01
16.000000 -16.000000 -1.500928E+01
16.000000 -18.000000 1.170695E+01
16.000000 -20.000000 2.570704E+01
16.000000 -22.000000 2.969502E+01
16.000000 -24.000000 2.972729E+01
16.000000 -26.000000 2.947702E+01
16.000000 -28.000000 2.709340E+01
16.000000 -30.000000 2.359791E+01
16.000000 -32.000000 2.184860E+01
16.000000 -34.000000 2.585578E+01
16.000000 -36.000000 3.458483E+01
16.000000 -38.000000 4.197426E+01
16.000000 -40.000000 4.528218E+01
18.000000 40.000000 2.085453E+01
18.000000 38.000000 2.564269E+01
18.000000 36.000000 3.437654E+01
18.000000 34.000000 3.961385E+01
18.000000 32.000000 3.165245E+01
18.000000 30.000000 1.244133E+01
18.000000 28.000000 -9.087177E+00
18.000000 26.000000 -2.165217E+01
18.000000 24.000000 -3.030364E+01
18.000000 22.000000 -3.272887E+01
18.000000 20.000000 -3.402137E+01
18.000000 18.000000 -3.089142E+01
18.000000 16.000000 -2.165611E+01
18.000000 14.000000 -4.281085E+00
18.000000 12.000000 2.916283E+01
18.000000 10.000000 8.152434E+01
18.000000 8.000000 1.416253E+02
18.000000 6.000000 1.837043E+02
18.000000 4.000000 1.823270E+02
18.000000 2.000000 1.358947E+02
18.000000 0.000000 6.928472E+01
18.000000 -2.000000 -4.156340E-01
18.000000 -4.000000 -5.941382E+01
18.000000 -6.000000 -9.629149E+01
18.000000 -8.000000 -1.110243E+02
18.000000 -10.000000 -1.144747E+02
18.000000 -12.000000 -9.859770E+01
18.000000 -14.000000 -6.490128E+01
18.000000 -16.000000 -2.360136E+01
18.000000 -18.000000 7.822259E+00
18.000000 -20.000000 2.295155E+01
18.000000 -22.000000 2.519593E+01
18.000000 -24.000000 2.140988E+01
18.000000 -26.000000 1.688262E+01
18.000000 -28.000000 1.172830E+01
18.000000 -30.000000 6.772917E+00
18.000000 -32.000000 5.103434E+00
18.000000 -34.000000 1.103292E+01
18.000000 -36.000000 2.280598E+01
18.000000 -38.000000 3.433937E+01
18.000000 -40.000000 4.164062E+01
20.000000 40.000000 1.677551E+01
20.000000 38.000000 2.312772E+01
20.000000 36.000000 3.568772E+01
20.000000 34.000000 4.565087E+01
20.000000 32.000000 4.057231E+01
20.000000 30.000000 2.059061E+01
20.000000 28.000000 -4.456661E+00
20.000000 26.000000 -2.091906E+01
20.000000 24.000000 -3.366138E+01
20.000000 22.000000 -3.653142E+01
20.000000 20.000000 -3.730186E+01
20.000000 18.000000 -3.401871E+01
20.000000 16.000000 -2.485894E+01
20.000000 14.000000 -5.782698E+00
20.000000 12.000000 3.247098E+01
20.000000 10.000000 9.088863E+01
20.000000 8.000000 1.567459E+02
20.000000 6.000000 2.056083E+02
20.000000 4.000000 2.130361E+02
20.000000 2.000000 1.754026E+02
20.000000 0.000000 1.135199E+02
20.000000 -2.000000 3.990581E+01
20.000000 -4.000000 -2.993013E+01
20.000000 -6.000000 -8.474162E+01
20.000000 -8.000000 -1.168568E+02
20.000000 -10.000000 -1.291054E+02
20.000000 -12.000000 -1.122107E+02
20.000000 -14.000000 -7.444097E+01
20.000000 -16.000000 -3.109173E+01
20.000000 -18.000000 -8.848028E-01
20.000000 -20.000000 1.072539E+01
20.000000 -22.000000 9.211680E+00
20.000000 -24.000000 1.087065E+00
20.000000 -26.000000 -7.416353E+00
20.000000 -28.000000 -1.348108E+01
20.000000 -30.000000 -1.792817E+01
20.000000 -32.000000 -1.756166E+01
20.000000 -34.000000 -7.657353E+00
20.000000 -36.000000 9.902529E+00
20.000000 -38.000000 2.727744E+01
20.000000 -40.000000 3.973390E+01
22.000000 40.000000 6.763886E+00
22.000000 38.000000 1.816544E+01
22.000000 36.000000 3.769460E+01
22.000000 34.000000 5.506782E+01
22.000000 32.000000 5.437204E+01
22.000000 30.000000 3.591491E+01
22.000000 28.000000 1.150198E+01
22.000000 26.000000 -5.387899E+00
22.000000 24.000000 -1.832177E+01
22.000000 22.000000 -2.208593E+01
22.000000 20.000000 -2.512013E+01
22.000000 18.000000 -2.627455E+01
22.000000 16.000000 -2.067889E+01
22.000000 14.000000 -1.911371E+00
22.000000 12.000000 3.955686E+01
22.000000 10.000000 1.025175E+02
22.000000 8.000000 1.716924E+02
22.000000 6.000000 2.243235E+02
22.000000 4.000000 2.345327E+02
22.000000 2.000000 1.984471E+02
22.000000 0.000000 1.360129E+02
22.000000 -2.000000 5.874248E+01
22.000000 -4.000000 -1.712228E+01
22.000000 -6.000000 -8.214790E+01
22.000000 -8.000000 -1.252435E+02
22.000000 -10.000000 -1.433170E+02
22.000000 -12.000000 -1.251719E+02
22.000000 -14.000000 -8.342341E+01
22.000000 -16.000000 -3.934574E+01
22.000000 -18.000000 -1.301771E+01
22.000000 -20.000000 -7.452798E+00
22.000000 -22.000000 -1.386751E+01
22.000000 -24.000000 -2.610103E+01
22.000000 -26.000000 -3.652978E+01
22.000000 -28.000000 -4.122964E+01
22.000000 -30.000000 -4.301334E+01
22.000000 -32.000000 -3.890604E+01
22.000000 -34.000000 -2.419009E+01
22.000000 -36.000000 -4.093304E-01
22.000000 -38.000000 2.245800E+01
22.000000 -40.000000 3.941246E+01
24.000000 40.000000 -7.340070E+00
24.000000 38.000000 9.860542E+00
24.000000 36.000000 3.818700E+01
24.000000 34.000000 6.529824E+01
24.000000 32.000000 7.026056E+01
24.000000 30.000000 5.494076E+01
24.000000 28.000000 3.416607E+01
24.000000 26.000000 2.054937E+01
24.000000 24.000000 1.243239E+01
24.000000 22.000000 7.953153E+00
24.000000 20.000000 2.427279E+00
24.000000 18.000000 -6.048689E+00
24.000000 16.000000 -7.623560E+00
24.000000 14.000000 6.647842E+00
24.000000 12.000000 4.634814E+01
24.000000 10.000000 1.096891E+02
24.000000 8.000000 1.791113E+02
24.000000 6.000000 2.325523E+02
24.000000 4.000000 2.404690E+02
24.000000 2.000000 1.996876E+02
24.000000 0.000000 1.329601E+02
24.000000 -2.000000 5.323018E+01
24.000000 -4.000000 -2.458757E+01
24.000000 -6.000000 -9.322601E+01
24.000000 -8.000000 -1.405677E+02
24.000000 -10.000000 -1.612871E+02
24.000000 -12.000000 -1.411770E+02
24.000000 -14.000000 -9.605546E+01
24.000000 -16.000000 -5.107968E+01
24.000000 -18.000000 -2.727096E+01
24.000000 -20.000000 -2.588628E+01
24.000000 -22.000000 -3.642540E+01
24.000000 -24.000000 -5.155917E+01
24.000000 -26.000000 -6.182385E+01
24.000000 -28.000000 -6.370819E+01
24.000000 -30.000000 -6.116026E+01
24.000000 -32.000000 -5.172289E+01
24.000000 -34.000000 -3.199278E+01
24.000000 -36.000000 -4.166730E+00
24.000000 -38.000000 2.058611E+01
24.000000 -40.000000 3.929381E+01
26.000000 40.000000 -2.193350E+01
26.000000 38.000000 -5.675969E-01
26.000000 36.000000 3.433550E+01
26.000000 34.000000 7.030451E+01
26.000000 32.000000 8.193738E+01
26.000000 30.000000 7.150970E+01
26.000000 28.000000 5.628199E+01
26.000000 26.000000 4.799164E+01
26.000000 24.000000 4.804825E+01
26.000000 22.000000 4.428967E+01
26.000000 20.000000 3.736641E+01
26.000000 18.000000 2.175385E+01
26.000000 16.000000 1.006687E+01
26.000000 14.000000 1.619518E+01
26.000000 12.000000 4.958471E+01
26.000000 10.000000 1.078188E+02
26.000000 8.000000 1.722760E+02
26.000000 6.000000 2.207702E+02
26.000000 4.000000 2.233682E+02
26.000000 2.000000 1.779472E+02
26.000000 0.000000 1.084145E+02
26.000000 -2.000000 2.946308E+01
26.000000 -4.000000 -4.555856E+01
26.000000 -6.000000 -1.119543E+02
26.000000 -8.000000 -1.590234E+02
26.000000 -10.000000 -1.803650E+02
26.000000 -12.000000 -1.583370E+02
26.000000 -14.000000 -1.111849E+02
26.000000 -16.000000 -6.489274E+01
26.000000 -18.000000 -4.091247E+01
26.000000 -20.000000 -3.921173E+01
26.000000 -22.000000 -5.063712E+01
26.000000 -24.000000 -6.605588E+01
26.000000 -26.000000 -7.563702E+01
26.000000 -28.000000 -7.454568E+01
26.000000 -30.000000 -6.693392E+01
26.000000 -32.000000 -5.224196E+01
26.000000 -34.000000 -2.940093E+01
26.000000 -36.000000 -1.547522E+00
26.000000 -38.000000 2.105828E+01
26.000000 -40.000000 3.865776E+01
28.000000 40.000000 -3.489913E+01
28.000000 38.000000 -1.173615E+01
28.000000 36.000000 2.483419E+01
28.000000 34.000000 6.573217E+01
28.000000 32.000000 8.414272E+01
28.000000 30.000000 7.998353E+01
28.000000 28.000000 7.127412E+01
28.000000 26.000000 6.847400E+01
28.000000 24.000000 7.672747E+01
28.000000 22.000000 7.534868E+01
28.000000 20.000000 6.703106E+01
28.000000 18.000000 4.559143E+01
28.000000 16.000000 2.488086E+01
28.000000 14.000000 2.266391E+01
28.000000 12.000000 4.786060E+01
28.000000 10.000000 9.586599E+01
28.000000 8.000000 1.484615E+02
28.000000 6.000000 1.857480E+02
28.000000 4.000000 1.830888E+02
28.000000 2.000000 1.369700E+02
28.000000 0.000000 6.914046E+01
28.000000 -2.000000 -3.872583E+00
28.000000 -4.000000 -7.042989E+01
28.000000 -6.000000 -1.281726E+02
28.000000 -8.000000 -1.713545E+02
28.000000 -10.000000 -1.935295E+02
28.000000 -12.000000 -1.724021E+02
28.000000 -14.000000 -1.238828E+02
28.000000 -16.000000 -7.536007E+01
28.000000 -18.000000 -4.889239E+01
28.000000 -20.000000 -4.338697E+01
28.000000 -22.000000 -5.149292E+01
28.000000 -24.000000 -6.374987E+01
28.000000 -26.000000 -7.232309E+01
28.000000 -28.000000 -6.905735E+01
28.000000 -30.000000 -5.815905E+01
28.000000 -32.000000 -4.154148E+01
28.000000 -34.000000 -1.964667E+01
28.000000 -36.000000 4.361103E+00
28.000000 -38.000000 2.251417E+01
28.000000 -40.000000 3.670324E+01
30.000000 40.000000 -4.667205E+01
30.000000 38.000000 -2.437482E+01
30.000000 36.000000 1.093461E+01
30.000000 34.000000 5.338856E+01
30.000000 32.000000 7.590853E+01
30.000000 30.000000 7.572756E+01
30.000000 28.000000 7.197947E+01
30.000000 26.000000 7.425260E+01
30.000000 24.000000 8.883711E+01
30.000000 22.000000 9.063774E+01
30.000000 20.000000 8.247479E+01
30.000000 18.000000 5.841011E+01
30.000000 16.000000 3.288782E+01
30.000000 14.000000 2.531968E+01
30.000000 12.000000 4.337197E+01
30.000000 10.000000 7.871673E+01
30.000000 8.000000 1.136984E+02
30.000000 6.000000 1.343342E+02
30.000000 4.000000 1.256141E+02
30.000000 2.000000 8.330008E+01
30.000000 0.000000 2.366009E+01
30.000000 -2.000000 -3.653636E+01
30.000000 -4.000000 -8.927581E+01
30.000000 -6.000000 -1.342427E+02
30.000000 -8.000000 -1.713308E+02
30.000000 -10.000000 -1.950409E+02
30.000000 -12.000000 -1.786071E+02
30.000000 -14.000000 -1.325718E+02
30.000000 -16.000000 -8.225786E+01
30.000000 -18.000000 -5.038069E+01
30.000000 -20.000000 -3.783935E+01
30.000000 -22.000000 -3.832599E+01
30.000000 -24.000000 -4.431921E+01
30.000000 -26.000000 -4.976807E+01
30.000000 -28.000000 -4.637274E+01
30.000000 -30.000000 -3.720550E+01
30.000000 -32.000000 -2.357165E+01
30.000000 -34.000000 -6.385672E+00
30.000000 -36.000000 1.126490E+01
30.000000 -38.000000 2.295079E+01
30.000000 -40.000000 3.128467E+01
32.000000 40.000000 -5.680926E+01
32.000000 38.000000 -3.793140E+01
32.000000 36.000000 -5.847625E+00
32.000000 34.000000 3.448730E+01
32.000000 32.000000 5.740774E+01
32.000000 30.000000 5.816767E+01
32.000000 28.000000 5.611306E+01
32.000000 26.000000 6.080623E+01
32.000000 24.000000 7.785663E+01
32.000000 22.000000 8.426211E+01
32.000000 20.000000 8.003027E+01
32.000000 18.000000 6.013427E+01
32.000000 16.000000 3.640845E+01
32.000000 14.000000 2.791192E+01
32.000000 12.000000 4.074010E+01
32.000000 10.000000 6.409013E+01
32.000000 8.000000 7.899857E+01
32.000000 6.000000 7.814643E+01
32.000000 4.000000 5.923433E+01
32.000000 2.000000 2.532503E+01
32.000000 0.000000 -1.715057E+01
32.000000 -2.000000 -5.737046E+01
32.000000 -4.000000 -9.294752E+01
32.000000 -6.000000 -1.266193E+02
32.000000 -8.000000 -1.592163E+02
32.000000 -10.000000 -1.851489E+02
32.000000 -12.000000 -1.761287E+02
32.000000 -14.000000 -1.364889E+02
32.000000 -16.000000 -8.608825E+01
32.000000 -18.000000 -4.866602E+01
32.000000 -20.000000 -2.673297E+01
32.000000 -22.000000 -1.615566E+01
32.000000 -24.000000 -1.406797E+01
32.000000 -26.000000 -1.527079E+01
32.000000 -28.000000 -1.358429E+01
32.000000 -30.000000 -1.027528E+01
32.000000 -32.000000 -3.622992E+00
32.000000 -34.000000 6.581659E+00
32.000000 -36.000000 1.674563E+01
32.000000 -38.000000 2.053706E+01
32.000000 -40.000000 2.173856E+01
34.000000 40.000000 -6.448456E+01
34.000000 38.000000 -5.122990E+01
34.000000 36.000000 -2.428228E+01
34.000000 34.000000 1.070281E+01
34.000000 32.000000 3.191852E+01
34.000000 30.000000 3.216214E+01
34.000000 28.000000 2.823708E+01
34.000000 26.000000 3.136282E+01
34.000000 24.000000 4.667325E+01
34.000000 22.000000 5.908916E+01
34.000000 20.000000 6.158098E+01
34.000000 18.000000 5.057535E+01
34.000000 16.000000 3.467130E+01
34.000000 14.000000 2.938029E+01
34.000000 12.000000 3.797800E+01
34.000000 10.000000 4.940077E+01
34.000000 8.000000 4.494795E+01
34.000000 6.000000 2.551232E+01
34.000000 4.000000 2.504234E-01
34.000000 2.000000 -2.125799E+01
34.000000 0.000000 -4.306725E+01
34.000000 -2.000000 -6.251821E+01
34.000000 -4.000000 -8.173898E+01
34.000000 -6.000000 -1.053245E+02
34.000000 -8.000000 -1.349584E+02
34.000000 -10.000000 -1.639938E+02
34.000000 -12.000000 -1.643158E+02
34.000000 -14.000000 -1.322027E+02
34.000000 -16.000000 -8.384454E+01
34.000000 -18.000000 -4.401708E+01
34.000000 -20.000000 -1.468055E+01
34.000000 -22.000000 5.909407E+00
34.000000 -24.000000 1.528893E+01
34.000000 -26.000000 1.662737E+01
34.000000 -28.000000 1.612554E+01
34.000000 -30.000000 1.315663E+01
34.000000 -32.000000 1.165122E+01
34.000000 -34.000000 1.428078E+01
34.000000 -36.000000 1.740313E+01
34.000000 -38.000000 1.478477E+01
34.000000 -40.000000 1.021927E+01
36.000000 40.000000 -7.076160E+01
36.000000 38.000000 -6.431197E+01
36.000000 36.000000 -4.291986E+01
36.000000 34.000000 -1.296052E+01
36.000000 32.000000 6.441466E+00
36.000000 30.000000 5.000710E+00
36.000000 28.000000 -3.080342E+00
36.000000 26.000000 -2.544515E+00
36.000000 24.000000 9.661302E+00
36.000000 22.000000 2.565122E+01
36.000000 20.000000 3.315763E+01
36.000000 18.000000 2.996702E+01
36.000000 16.000000 2.137685E+01
36.000000 14.000000 1.990907E+01
36.000000 12.000000 2.679483E+01
36.000000 10.000000 3.141376E+01
36.000000 8.000000 1.609984E+01
36.000000 6.000000 -1.071409E+01
36.000000 4.000000 -3.429434E+01
36.000000 2.000000 -4.409552E+01
36.000000 0.000000 -5.007405E+01
36.000000 -2.000000 -5.509090E+01
36.000000 -4.000000 -6.268784E+01
36.000000 -6.000000 -7.786849E+01
36.000000 -8.000000 -1.041481E+02
36.000000 -10.000000 -1.332462E+02
36.000000 -12.000000 -1.408067E+02
36.000000 -14.000000 -1.179514E+02
36.000000 -16.000000 -7.661256E+01
36.000000 -18.000000 -3.817908E+01
36.000000 -20.000000 -6.515514E+00
36.000000 -22.000000 1.784836E+01
36.000000 -24.000000 3.170081E+01
36.000000 -26.000000 3.446967E+01
36.000000 -28.000000 3.171227E+01
36.000000 -30.000000 2.481837E+01
36.000000 -32.000000 1.737727E+01
36.000000 -34.000000 1.350174E+01
36.000000 -36.000000 1.117048E+01
36.000000 -38.000000 6.049911E+00
36.000000 -40.000000 -8.170967E-01
38.000000 40.000000 -7.718165E+01
38.000000 38.000000 -7.597270E+01
38.000000 36.000000 -5.934956E+01
38.000000 34.000000 -3.335055E+01
38.000000 32.000000 -1.468869E+01
38.000000 30.000000 -1.579182E+01
38.000000 28.000000 -2.507570E+01
38.000000 26.000000 -2.599130E+01
38.000000 24.000000 -1.816917E+01
38.000000 22.000000 -4.250700E+00
38.000000 20.000000 2.017628E+00
38.000000 18.000000 3.961535E-01
38.000000 16.000000 -5.742309E+00
38.000000 14.000000 -5.856389E+00
38.000000 12.000000 1.864893E+00
38.000000 10.000000 8.964260E+00
38.000000 8.000000 -1.856298E-01
38.000000 6.000000 -1.897042E+01
38.000000 4.000000 -3.607018E+01
38.000000 2.000000 -4.139125E+01
38.000000 0.000000 -4.177042E+01
38.000000 -2.000000 -4.173057E+01
38.000000 -4.000000 -4.377715E+01
38.000000 -6.000000 -5.356287E+01
38.000000 -8.000000 -7.468492E+01
38.000000 -10.000000 -9.974616E+01
38.000000 -12.000000 -1.106684E+02
38.000000 -14.000000 -9.721559E+01
38.000000 -16.000000 -6.756428E+01
38.000000 -18.000000 -3.641811E+01
38.000000 -20.000000 -8.416933E+00
38.000000 -22.000000 1.358458E+01
38.000000 -24.000000 2.933572E+01
38.000000 -26.000000 3.461485E+01
38.000000 -28.000000 3.134581E+01
38.000000 -30.000000 2.312445E+01
38.000000 -32.000000 1.261482E+01
38.000000 -34.000000 4.764374E+00
38.000000 -36.000000 -1.968784E-01
38.000000 -38.000000 -4.862614E+00
38.000000 -40.000000 -1.142824E+01
40.000000 40.000000 -8.412794E+01
40.000000 38.000000 -8.473668E+01
40.000000 36.000000 -7.165297E+01
40.000000 34.000000 -4.876833E+01
40.000000 32.000000 -2.904264E+01
40.000000 30.000000 -2.533386E+01
40.000000 28.000000 -3.009991E+01
40.000000 26.000000 -3.175231E+01
40.000000 24.000000 -2.971344E+01
40.000000 22.000000 -2.263775E+01
40.000000 20.000000 -2.291163E+01
40.000000 18.000000 -2.981206E+01
40.000000 16.000000 -3.847322E+01
40.000000 14.000000 -4.067556E+01
40.000000 12.000000 -3.193258E+01
40.000000 10.000000 -1.798220E+01
40.000000 8.000000 -1.047344E+01
40.000000 6.000000 -1.276461E+01
