-30.000000 -22.000000 2.215158E+01
-30.000000 -24.000000 2.383625E+01
-30.000000 -26.000000 3.495472E+01
-30.000000 -28.000000 4.350957E+01
-30.000000 -30.000000 4.525050E+01
-30.000000 -32.000000 3.098797E+01
-30.000000 -34.000000 8.973933E+00
-30.000000 -36.000000 -1.258461E+01
-30.000000 -38.000000 -2.553575E+01
-30.000000 -40.000000 -3.229852E+01
-28.000000 40.000000 -1.081872E+02
-28.000000 38.000000 -1.003692E+02
-28.000000 36.000000 -9.048057E+01
-28.000000 34.000000 -7.911294E+01
-28.000000 32.000000 -7.885536E+01
-28.000000 30.000000 -7.958055E+01
-28.000000 28.000000 -7.389643E+01
-28.000000 26.000000 -6.069843E+01
-28.000000 24.000000 -5.455322E+01
-28.000000 22.000000 -6.562781E+01
-28.000000 20.000000 -7.960157E+01
-28.000000 18.000000 -7.699630E+01
-28.000000 16.000000 -5.916092E+01
-28.000000 14.000000 -4.363397E+01
-28.000000 12.000000 -3.973495E+01
-28.000000 10.000000 -5.131841E+01
-28.000000 8.000000 -6.013575E+01
-28.000000 6.000000 -6.017327E+01
-28.000000 4.000000 -4.155307E+01
-28.000000 2.000000 -2.405070E+01
-28.000000 0.000000 -1.617427E+01
-28.000000 -2.000000 -7.954042E+00
-28.000000 -4.000000 1.131071E+01
-28.000000 -6.000000 4.296486E+01
-28.000000 -8.000000 7.052346E+01
-28.000000 -10.000000 8.495077E+01
-28.000000 -12.000000 7.889987E+01
-28.000000 -14.000000 6.698359E+01
-28.000000 -16.000000 5.257327E+01
-28.000000 -18.000000 4.006765E+01
-28.000000 -20.000000 2.719149E+01
-28.000000 -22.000000 1.504055E+01
-28.000000 -24.000000 1.469855E+01
-28.000000 -26.000000 2.877533E+01
-28.000000 -28.000000 4.113390E+01
-28.000000 -30.000000 4.333017E+01
-28.000000 -32.000000 2.922504E+01
-28.000000 -34.000000 7.347432E+00
-28.000000 -36.000000 -1.502814E+01
-28.000000 -38.000000 -2.830827E+01
-28.000000 -40.000000 -3.552344E+01
-26.000000 40.000000 -1.087755E+02
-26.000000 38.000000 -1.006750E+02
-26.000000 36.000000 -9.010820E+01
-26.000000 34.000000 -7.911458E+01
-26.000000 32.000000 -8.340813E+01
-26.000000 30.000000 -8.781324E+01
-26.000000 28.000000 -8.395506E+01
-26.000000 26.000000 -7.077619E+01
-26.000000 24.000000 -6.302707E+01
-26.000000 22.000000 -7.430971E+01
-26.000000 20.000000 -8.744286E+01
-26.000000 18.000000 -7.914147E+01
-26.000000 16.000000 -5.510283E+01
-26.000000 14.000000 -3.610253E+01
-26.000000 12.000000 -2.866893E+01
-26.000000 10.000000 -3.396655E+01
-26.000000 8.000000 -4.103499E+01
-26.000000 6.000000 -3.865353E+01
-26.000000 4.000000 -2.229298E+01
-26.000000 2.000000 -1.252296E+01
-26.000000 0.000000 -1.597718E+01
-26.000000 -2.000000 -1.890944E+01
-26.000000 -4.000000 -7.810457E+00
-26.000000 -6.000000 1.873097E+01
-26.000000 -8.000000 4.697882E+01
-26.000000 -10.000000 6.159448E+01
-26.000000 -12.000000 5.888702E+01
-26.000000 -14.000000 5.141232E+01
-26.000000 -16.000000 4.267088E+01
-26.000000 -18.000000 3.433815E+01
-26.000000 -20.000000 2.226459E+01
-26.000000 -22.000000 9.241723E+00
-26.000000 -24.000000 8.753552E+00
-26.000000 -26.000000 2.377132E+01
-26.000000 -28.000000 3.621127E+01
-26.000000 -30.000000 3.901363E+01
-26.000000 -32.000000 2.610041E+01
-26.000000 -34.000000 4.764894E+00
-26.000000 -36.000000 -1.723883E+01
-26.000000 -38.000000 -2.977204E+01
-26.000000 -40.000000 -3.702730E+01
-24.000000 40.000000 -1.098626E+02
-24.000000 38.000000 -1.023073E+02
-24.000000 36.000000 -9.006750E+01
-24.000000 34.000000 -7.837445E+01
-24.000000 32.000000 -8.304090E+01
-24.000000 30.000000 -9.010792E+01
-24.000000 28.000000 -9.056824E+01
-24.000000 26.000000 -7.979349E+01
-24.000000 24.000000 -7.485194E+01
-24.000000 22.000000 -8.277010E+01
-24.000000 20.000000 -9.201606E+01
-24.000000 18.000000 -7.579358E+01
-24.000000 16.000000 -4.498322E+01
-24.000000 14.000000 -2.312322E+01
-24.000000 12.000000 -1.235592E+01
-24.000000 10.000000 -9.427601E+00
-24.000000 8.000000 -1.233998E+01
-24.000000 6.000000 -7.138082E+00
-24.000000 4.000000 3.557681E+00
-24.000000 2.000000 1.471657E+00
-24.000000 0.000000 -1.291518E+01
-24.000000 -2.000000 -2.482761E+01
-24.000000 -4.000000 -2.414276E+01
-24.000000 -6.000000 -5.991491E+00
-24.000000 -8.000000 1.800152E+01
-24.000000 -10.000000 2.953045E+01
-24.000000 -12.000000 2.939781E+01
-24.000000 -14.000000 2.745054E+01
-24.000000 -16.000000 2.784803E+01
-24.000000 -18.000000 2.652284E+01
-24.000000 -20.000000 1.688204E+01
-24.000000 -22.000000 4.685408E+00
-24.000000 -24.000000 5.376262E+00
-24.000000 -26.000000 1.770732E+01
-24.000000 -28.000000 2.878387E+01
-24.000000 -30.000000 3.193631E+01
-24.000000 -32.000000 2.027382E+01
-24.000000 -34.000000 -6.525049E-01
-24.000000 -36.000000 -2.044694E+01
-24.000000 -38.000000 -3.095529E+01
-24.000000 -40.000000 -3.494742E+01
-22.000000 40.000000 -1.086226E+02
-22.000000 38.000000 -1.005095E+02
-22.000000 36.000000 -8.938589E+01
-22.000000 34.000000 -7.759378E+01
-22.000000 32.000000 -7.974087E+01
-22.000000 30.000000 -8.696745E+01
-22.000000 28.000000 -9.083400E+01
-22.000000 26.000000 -8.208497E+01
-22.000000 24.000000 -7.742770E+01
-22.000000 22.000000 -8.282921E+01
-22.000000 20.000000 -8.802227E+01
-22.000000 18.000000 -6.447852E+01
-22.000000 16.000000 -2.719277E+01
-22.000000 14.000000 -2.505398E+00
-22.000000 12.000000 4.549715E+00
-22.000000 10.000000 3.088030E+00
-22.000000 8.000000 -2.579450E+00
-22.000000 6.000000 1.540810E+00
-22.000000 4.000000 9.606547E+00
-22.000000 2.000000 2.865913E+00
-22.000000 0.000000 -1.457542E+01
-22.000000 -2.000000 -2.647791E+01
-22.000000 -4.000000 -2.897461E+01
-22.000000 -6.000000 -1.714974E+01
-22.000000 -8.000000 1.770806E+00
-22.000000 -10.000000 8.873313E+00
-22.000000 -12.000000 6.813482E+00
-22.000000 -14.000000 6.188857E+00
-22.000000 -16.000000 1.129254E+01
-22.000000 -18.000000 1.411228E+01
-22.000000 -20.000000 6.424794E+00
-22.000000 -22.000000 -3.644265E+00
-22.000000 -24.000000 -3.514957E-02
-22.000000 -26.000000 1.191712E+01
-22.000000 -28.000000 2.278535E+01
-22.000000 -30.000000 2.544319E+01
-22.000000 -32.000000 1.511032E+01
-22.000000 -34.000000 -2.795339E+00
-22.000000 -36.000000 -2.071499E+01
-22.000000 -38.000000 -2.956736E+01
-22.000000 -40.000000 -3.019780E+01
-20.000000 40.000000 -1.046446E+02
-20.000000 38.000000 -9.584750E+01
-20.000000 36.000000 -8.661060E+01
-20.000000 34.000000 -7.642185E+01
-20.000000 32.000000 -7.787127E+01
-20.000000 30.000000 -8.357936E+01
-20.000000 28.000000 -8.734939E+01
-20.000000 26.000000 -7.699270E+01
-20.000000 24.000000 -6.975250E+01
-20.000000 22.000000 -7.166562E+01
-20.000000 20.000000 -6.982943E+01
-20.000000 18.000000 -4.015498E+01
-20.000000 16.000000 -2.085255E+00
-20.000000 14.000000 1.847948E+01
-20.000000 12.000000 1.307314E+01
-20.000000 10.000000 -3.737675E+00
-20.000000 8.000000 -1.691873E+01
-20.000000 6.000000 -1.566500E+01
-20.000000 4.000000 -4.604504E+00
-20.000000 2.000000 -6.224522E+00
-20.000000 0.000000 -1.933865E+01
-20.000000 -2.000000 -2.634583E+01
-20.000000 -4.000000 -2.683040E+01
-20.000000 -6.000000 -1.842033E+01
-20.000000 -8.000000 -3.921578E+00
-20.000000 -10.000000 3.187430E-01
-20.000000 -12.000000 -4.349471E+00
-20.000000 -14.000000 -6.147106E+00
-20.000000 -16.000000 -8.102942E-01
-20.000000 -18.000000 2.964131E+00
-20.000000 -20.000000 -3.290586E+00
-20.000000 -22.000000 -1.089870E+01
-20.000000 -24.000000 -5.205754E+00
-20.000000 -26.000000 8.142182E+00
-20.000000 -28.000000 1.942321E+01
-20.000000 -30.000000 2.227812E+01
-20.000000 -32.000000 1.345301E+01
-20.000000 -34.000000 -1.878783E+00
-20.000000 -36.000000 -1.885545E+01
-20.000000 -38.000000 -2.846715E+01
-20.000000 -40.000000 -2.737600E+01
-18.000000 40.000000 -9.890464E+01
-18.000000 38.000000 -8.939901E+01
-18.000000 36.000000 -8.029453E+01
-18.000000 34.000000 -7.159149E+01
-18.000000 32.000000 -7.455638E+01
-18.000000 30.000000 -7.862235E+01
-18.000000 28.000000 -7.853460E+01
-18.000000 26.000000 -6.347770E+01
-18.000000 24.000000 -5.148932E+01
-18.000000 22.000000 -5.072541E+01
-18.000000 20.000000 -4.561105E+01
-18.000000 18.000000 -1.532377E+01
-18.000000 16.000000 1.741267E+01
-18.000000 14.000000 2.651810E+01
-18.000000 12.000000 4.612226E+00
-18.000000 10.000000 -2.722224E+01
-18.000000 8.000000 -4.434984E+01
-18.000000 6.000000 -4.243260E+01
-18.000000 4.000000 -2.590598E+01
-18.000000 2.000000 -1.757906E+01
-18.000000 0.000000 -2.290322E+01
-18.000000 -2.000000 -2.777452E+01
-18.000000 -4.000000 -2.710067E+01
-18.000000 -6.000000 -1.776768E+01
-18.000000 -8.000000 -4.204826E+00
-18.000000 -10.000000 1.263456E+00
-18.000000 -12.000000 -2.372598E+00
-18.000000 -14.000000 -5.242188E+00
-18.000000 -16.000000 -2.190330E+00
-18.000000 -18.000000 7.873201E-02
-18.000000 -20.000000 -5.912786E+00
-18.000000 -22.000000 -1.381611E+01
-18.000000 -24.000000 -1.039840E+01
-18.000000 -26.000000 2.469069E+00
-18.000000 -28.000000 1.428647E+01
-18.000000 -30.000000 1.937460E+01
-18.000000 -32.000000 1.238516E+01
-18.000000 -34.000000 -1.694716E+00
-18.000000 -36.000000 -1.701389E+01
-18.000000 -38.000000 -2.565352E+01
-18.000000 -40.000000 -2.329241E+01
-16.000000 40.000000 -9.391740E+01
-16.000000 38.000000 -8.230951E+01
-16.000000 36.000000 -7.107712E+01
-16.000000 34.000000 -6.152695E+01
-16.000000 32.000000 -6.370133E+01
-16.000000 30.000000 -6.605101E+01
-16.000000 28.000000 -6.130440E+01
-16.000000 26.000000 -4.255183E+01
-16.000000 24.000000 -2.767994E+01
-16.000000 22.000000 -2.734656E+01
-16.000000 20.000000 -2.450706E+01
-16.000000 18.000000 -9.859962E-01
-16.000000 16.000000 2.080547E+01
-16.000000 14.000000 1.479729E+01
-16.000000 12.000000 -2.163254E+01
-16.000000 10.000000 -6.128413E+01
-16.000000 8.000000 -7.320574E+01
-16.000000 6.000000 -6.211346E+01
-16.000000 4.000000 -3.602902E+01
-16.000000 2.000000 -1.985077E+01
-16.000000 0.000000 -2.211103E+01
-16.000000 -2.000000 -2.939521E+01
-16.000000 -4.000000 -3.085328E+01
-16.000000 -6.000000 -2.055316E+01
-16.000000 -8.000000 -4.686132E+00
-16.000000 -10.000000 5.081233E+00
-16.000000 -12.000000 5.364168E+00
-16.000000 -14.000000 3.016889E+00
-16.000000 -16.000000 3.372206E+00
-16.000000 -18.000000 3.127462E+00
-16.000000 -20.000000 -4.618579E+00
-16.000000 -22.000000 -1.582368E+01
-16.000000 -24.000000 -1.718335E+01
-16.000000 -26.000000 -6.074491E+00
-16.000000 -28.000000 7.782305E+00
-16.000000 -30.000000 1.607611E+01
-16.000000 -32.000000 1.107494E+01
-16.000000 -34.000000 -2.377910E+00
-16.000000 -36.000000 -1.548907E+01
-16.000000 -38.000000 -2.106379E+01
-16.000000 -40.000000 -1.719199E+01
-14.000000 40.000000 -9.006784E+01
-14.000000 38.000000 -7.578976E+01
-14.000000 36.000000 -6.143022E+01
-14.000000 34.000000 -4.792206E+01
-14.000000 32.000000 -4.462270E+01
-14.000000 30.000000 -4.366945E+01
-14.000000 28.000000 -3.641667E+01
-14.000000 26.000000 -1.859342E+01
-14.000000 24.000000 -4.240749E+00
-14.000000 22.000000 -7.520508E+00
-14.000000 20.000000 -1.177695E+01
-14.000000 18.000000 -4.941406E-01
-14.000000 16.000000 7.285370E+00
-14.000000 14.000000 -1.238433E+01
-14.000000 12.000000 -5.682430E+01
-14.000000 10.000000 -9.700887E+01
-14.000000 8.000000 -9.735629E+01
-14.000000 6.000000 -7.001117E+01
-14.000000 4.000000 -2.876985E+01
-14.000000 2.000000 -7.830925E+00
-14.000000 0.000000 -1.314180E+01
-14.000000 -2.000000 -2.630452E+01
-14.000000 -4.000000 -3.257370E+01
-14.000000 -6.000000 -2.422714E+01
-14.000000 -8.000000 -6.964423E+00
-14.000000 -10.000000 4.884135E+00
-14.000000 -12.000000 7.390370E+00
-14.000000 -14.000000 6.364777E+00
-14.000000 -16.000000 6.163754E+00
-14.000000 -18.000000 4.348386E+00
-14.000000 -20.000000 -7.010562E+00
-14.000000 -22.000000 -2.182435E+01
-14.000000 -24.000000 -2.567807E+01
-14.000000 -26.000000 -1.402288E+01
-14.000000 -28.000000 2.757648E+00
-14.000000 -30.000000 1.397144E+01
-14.000000 -32.000000 1.107636E+01
-14.000000 -34.000000 -1.262895E+00
-14.000000 -36.000000 -1.280649E+01
-14.000000 -38.000000 -1.655098E+01
-14.000000 -40.000000 -1.181773E+01
-12.000000 40.000000 -8.433206E+01
-12.000000 38.000000 -6.906258E+01
-12.000000 36.000000 -5.337139E+01
-12.000000 34.000000 -3.448355E+01
-12.000000 32.000000 -2.456155E+01
-12.000000 30.000000 -1.976767E+01
-12.000000 28.000000 -1.249792E+01
-12.000000 26.000000 1.123535E+00
-12.000000 24.000000 1.358955E+01
-12.000000 22.000000 6.603176E+00
-12.000000 20.000000 -4.684532E+00
-12.000000 18.000000 -7.365337E+00
-12.000000 16.000000 -1.363209E+01
-12.000000 14.000000 -4.260722E+01
-12.000000 12.000000 -8.823163E+01
-12.000000 10.000000 -1.222468E+02
-12.000000 8.000000 -1.092269E+02
-12.000000 6.000000 -6.579633E+01
-12.000000 4.000000 -1.088357E+01
-12.000000 2.000000 1.216171E+01
-12.000000 0.000000 2.750317E+00
-12.000000 -2.000000 -1.734930E+01
-12.000000 -4.000000 -2.940971E+01
-12.000000 -6.000000 -2.562328E+01
-12.000000 -8.000000 -1.162390E+01
-12.000000 -10.000000 -2.726205E+00
-12.000000 -12.000000 -7.697525E-01
-12.000000 -14.000000 -5.947552E-01
-12.000000 -16.000000 1.762677E+00
-12.000000 -18.000000 7.161474E-02
-12.000000 -20.000000 -1.470480E+01
-12.000000 -22.000000 -3.254937E+01
-12.000000 -24.000000 -3.558029E+01
-12.000000 -26.000000 -1.980285E+01
-12.000000 -28.000000 -7.331475E-01
-12.000000 -30.000000 1.236756E+01
-12.000000 -32.000000 1.148078E+01
-12.000000 -34.000000 5.370333E-01
-12.000000 -36.000000 -9.518957E+00
-12.000000 -38.000000 -1.197252E+01
-12.000000 -40.000000 -6.078327E+00
-10.000000 40.000000 -7.438137E+01
-10.000000 38.000000 -6.115277E+01
-10.000000 36.000000 -4.890476E+01
-10.000000 34.000000 -2.542791E+01
-10.000000 32.000000 -1.095003E+01
-10.000000 30.000000 -4.283730E+00
-10.000000 28.000000 1.504784E+00
-10.000000 26.000000 1.235736E+01
-10.000000 24.000000 2.490797E+01
-10.000000 22.000000 1.540666E+01
-10.000000 20.000000 -9.299774E-01
-10.000000 18.000000 -1.485544E+01
-10.000000 16.000000 -3.089474E+01
-10.000000 14.000000 -6.304885E+01
-10.000000 12.000000 -1.042755E+02
-10.000000 10.000000 -1.289081E+02
-10.000000 8.000000 -1.061761E+02
-10.000000 6.000000 -5.452990E+01
-10.000000 4.000000 5.029650E+00
-10.000000 2.000000 2.617194E+01
-10.000000 0.000000 1.424496E+01
-10.000000 -2.000000 -1.013460E+01
-10.000000 -4.000000 -2.505994E+01
-10.000000 -6.000000 -2.402644E+01
-10.000000 -8.000000 -1.532952E+01
-10.000000 -10.000000 -1.338467E+01
-10.000000 -12.000000 -1.451432E+01
-10.000000 -14.000000 -1.250642E+01
-10.000000 -16.000000 -6.309603E+00
-10.000000 -18.000000 -6.004497E+00
-10.000000 -20.000000 -2.145669E+01
-10.000000 -22.000000 -4.175780E+01
-10.000000 -24.000000 -4.447223E+01
-10.000000 -26.000000 -2.521978E+01
-10.000000 -28.000000 -4.266803E+00
-10.000000 -30.000000 1.011161E+01
-10.000000 -32.000000 1.109238E+01
-10.000000 -34.000000 1.508736E+00
-10.000000 -36.000000 -6.366610E+00
-10.000000 -38.000000 -6.999569E+00
-10.000000 -40.000000 1.655998E-01
-8.000000 40.000000 -6.204093E+01
-8.000000 38.000000 -5.205461E+01
-8.000000 36.000000 -4.552861E+01
-8.000000 34.000000 -2.042683E+01
-8.000000 32.000000 -5.692760E+00
-8.000000 30.000000 -6.203117E-01
-8.000000 28.000000 3.283504E+00
-8.000000 26.000000 1.323376E+01
-8.000000 24.000000 2.578688E+01
-8.000000 22.000000 1.457426E+01
-8.000000 20.000000 -5.558323E+00
-8.000000 18.000000 -2.387221E+01
-8.000000 16.000000 -4.109459E+01
-8.000000 14.000000 -6.775492E+01
-8.000000 12.000000 -9.795212E+01
-8.000000 10.000000 -1.131324E+02
-8.000000 8.000000 -8.796870E+01
-8.000000 6.000000 -4.034135E+01
-8.000000 4.000000 9.074177E+00
-8.000000 2.000000 2.211216E+01
-8.000000 0.000000 7.866325E+00
-8.000000 -2.000000 -1.511142E+01
-8.000000 -4.000000 -2.634589E+01
-8.000000 -6.000000 -2.210639E+01
-8.000000 -8.000000 -1.532401E+01
-8.000000 -10.000000 -1.791364E+01
-8.000000 -12.000000 -2.320185E+01
-8.000000 -14.000000 -2.125643E+01
-8.000000 -16.000000 -1.203257E+01
-8.000000 -18.000000 -8.302745E+00
-8.000000 -20.000000 -2.188404E+01
-8.000000 -22.000000 -4.302380E+01
-8.000000 -24.000000 -4.742729E+01
-8.000000 -26.000000 -2.969468E+01
-8.000000 -28.000000 -6.895671E+00
-8.000000 -30.000000 9.155082E+00
-8.000000 -32.000000 1.115488E+01
-8.000000 -34.000000 2.606020E+00
-8.000000 -36.000000 -3.595139E+00
-8.000000 -38.000000 -3.045640E+00
-8.000000 -40.000000 4.297782E+00
-6.000000 40.000000 -5.038685E+01
-6.000000 38.000000 -4.121694E+01
-6.000000 36.000000 -3.651989E+01
-6.000000 34.000000 -1.607319E+01
-6.000000 32.000000 -7.204735E+00
-6.000000 30.000000 -7.841812E+00
-6.000000 28.000000 -7.810993E+00
-6.000000 26.000000 -3.694611E-01
-6.000000 24.000000 8.282925E+00
-6.000000 22.000000 -3.961304E+00
-6.000000 20.000000 -2.446974E+01
-6.000000 18.000000 -3.755870E+01
-6.000000 16.000000 -4.497229E+01
-6.000000 14.000000 -5.698105E+01
-6.000000 12.000000 -7.180050E+01
-6.000000 10.000000 -7.866233E+01
-6.000000 8.000000 -5.699030E+01
-6.000000 6.000000 -2.303052E+01
-6.000000 4.000000 2.819349E+00
-6.000000 2.000000 1.562588E+00
-6.000000 0.000000 -1.601900E+01
-6.000000 -2.000000 -3.269578E+01
-6.000000 -4.000000 -3.387514E+01
-6.000000 -6.000000 -2.011297E+01
-6.000000 -8.000000 -1.060473E+01
-6.000000 -10.000000 -1.326521E+01
-6.000000 -12.000000 -2.217622E+01
-6.000000 -14.000000 -2.272169E+01
-6.000000 -16.000000 -1.166672E+01
-6.000000 -18.000000 -4.239813E+00
-6.000000 -20.000000 -1.477785E+01
-6.000000 -22.000000 -3.578800E+01
-6.000000 -24.000000 -4.224670E+01
-6.000000 -26.000000 -2.746820E+01
-6.000000 -28.000000 -5.447016E+00
-6.000000 -30.000000 1.007717E+01
-6.000000 -32.000000 1.189708E+01
-6.000000 -34.000000 3.426332E+00
-6.000000 -36.000000 -2.932731E+00
-6.000000 -38.000000 -1.646010E+00
-6.000000 -40.000000 6.040640E+00
-4.000000 40.000000 -4.004898E+01
-4.000000 38.000000 -2.845387E+01
-4.000000 36.000000 -2.244221E+01
-4.000000 34.000000 -1.227405E+01
-4.000000 32.000000 -1.483959E+01
-4.000000 30.000000 -2.453085E+01
-4.000000 28.000000 -3.047408E+01
-4.000000 26.000000 -2.619443E+01
-4.000000 24.000000 -2.258236E+01
-4.000000 22.000000 -3.690874E+01
-4.000000 20.000000 -5.713136E+01
-4.000000 18.000000 -5.874045E+01
-4.000000 16.000000 -4.697598E+01
-4.000000 14.000000 -3.955073E+01
-4.000000 12.000000 -3.923744E+01
-4.000000 10.000000 -3.614765E+01
-4.000000 8.000000 -1.785482E+01
-4.000000 6.000000 1.534142E+00
-4.000000 4.000000 7.294846E-02
-4.000000 2.000000 -1.997850E+01
-4.000000 0.000000 -4.340432E+01
-4.000000 -2.000000 -5.409184E+01
-4.000000 -4.000000 -4.352474E+01
-4.000000 -6.000000 -1.869805E+01
-4.000000 -8.000000 -3.955797E+00
-4.000000 -10.000000 -3.356634E+00
-4.000000 -12.000000 -1.379207E+01
-4.000000 -14.000000 -1.655528E+01
-4.000000 -16.000000 -5.141046E+00
-4.000000 -18.000000 4.466331E+00
-4.000000 -20.000000 -2.427164E+00
-4.000000 -22.000000 -2.189309E+01
-4.000000 -24.000000 -2.924573E+01
-4.000000 -26.000000 -1.685487E+01
-4.000000 -28.000000 1.315851E-01
-4.000000 -30.000000 1.181652E+01
-4.000000 -32.000000 1.265961E+01
-4.000000 -34.000000 3.542021E+00
-4.000000 -36.000000 -4.268354E+00
-4.000000 -38.000000 -2.935532E+00
-4.000000 -40.000000 5.238635E+00
-2.000000 40.000000 -3.113693E+01
-2.000000 38.000000 -1.702262E+01
-2.000000 36.000000 -1.108872E+01
-2.000000 34.000000 -1.176036E+01
-2.000000 32.000000 -2.722928E+01
-2.000000 30.000000 -4.651135E+01
-2.000000 28.000000 -5.687076E+01
-2.000000 26.000000 -5.325247E+01
-2.000000 24.000000 -5.349369E+01
-2.000000 22.000000 -7.106487E+01
-2.000000 20.000000 -9.208604E+01
-2.000000 18.000000 -8.166439E+01
-2.000000 16.000000 -5.010373E+01
-2.000000 14.000000 -2.564947E+01
-2.000000 12.000000 -1.177081E+01
-2.000000 10.000000 3.141354E+00
-2.000000 8.000000 2.040692E+01
-2.000000 6.000000 2.888102E+01
-2.000000 4.000000 6.551893E+00
-2.000000 2.000000 -2.942501E+01
-2.000000 0.000000 -5.960566E+01
-2.000000 -2.000000 -6.724459E+01
-2.000000 -4.000000 -4.926119E+01
-2.000000 -6.000000 -1.794468E+01
-2.000000 -8.000000 1.547085E+00
-2.000000 -10.000000 6.843130E+00
-2.000000 -12.000000 -2.738504E+00
-2.000000 -14.000000 -6.212955E+00
-2.000000 -16.000000 4.378494E+00
-2.000000 -18.000000 1.514588E+01
-2.000000 -20.000000 1.181837E+01
-2.000000 -22.000000 -4.538181E+00
-2.000000 -24.000000 -1.283729E+01
-2.000000 -26.000000 -4.484999E+00
-2.000000 -28.000000 6.141663E+00
-2.000000 -30.000000 1.299900E+01
-2.000000 -32.000000 1.242902E+01
-2.000000 -34.000000 2.664979E+00
-2.000000 -36.000000 -5.799564E+00
-2.000000 -38.000000 -5.632886E+00
-2.000000 -40.000000 2.090855E+00
0.000000 40.000000 -2.601994E+01
0.000000 38.000000 -1.265973E+01
0.000000 36.000000 -8.543785E+00
0.000000 34.000000 -1.602980E+01
0.000000 32.000000 -3.986446E+01
0.000000 30.000000 -6.513595E+01
0.000000 28.000000 -7.681600E+01
0.000000 26.000000 -7.067284E+01
0.000000 24.000000 -7.125082E+01
0.000000 22.000000 -8.962403E+01
0.000000 20.000000 -1.105520E+02
0.000000 18.000000 -9.484781E+01
0.000000 16.000000 -5.355269E+01
0.000000 14.000000 -1.944099E+01
0.000000 12.000000 3.322155E+00
0.000000 10.000000 2.534900E+01
0.000000 8.000000 4.149005E+01
0.000000 6.000000 4.505453E+01
0.000000 4.000000 1.647865E+01
0.000000 2.000000 -2.484345E+01
0.000000 0.000000 -5.715231E+01
0.000000 -2.000000 -6.416229E+01
0.000000 -4.000000 -4.621128E+01
0.000000 -6.000000 -1.563537E+01
0.000000 -8.000000 5.622902E+00
0.000000 -10.000000 1.403823E+01
0.000000 -12.000000 5.971165E+00
0.000000 -14.000000 2.048779E+00
0.000000 -16.000000 1.164015E+01
0.000000 -18.000000 2.374472E+01
0.000000 -20.000000 2.156635E+01
0.000000 -22.000000 7.014677E+00
0.000000 -24.000000 -1.589690E+00
0.000000 -26.000000 3.359064E+00
0.000000 -28.000000 1.034604E+01
0.000000 -30.000000 1.376204E+01
0.000000 -32.000000 1.168419E+01
0.000000 -34.000000 2.318677E+00
0.000000 -36.000000 -5.838871E+00
0.000000 -38.000000 -7.610664E+00
0.000000 -40.000000 -1.795001E+00
2.000000 40.000000 -2.737165E+01
2.000000 38.000000 -1.730549E+01
2.000000 36.000000 -1.525490E+01
2.000000 34.000000 -2.382177E+01
2.000000 32.000000 -4.830338E+01
2.000000 30.000000 -7.267911E+01
2.000000 28.000000 -8.273050E+01
2.000000 26.000000 -7.247898E+01
2.000000 24.000000 -6.944735E+01
2.000000 22.000000 -8.600976E+01
2.000000 20.000000 -1.063511E+02
2.000000 18.000000 -9.301728E+01
2.000000 16.000000 -5.375395E+01
2.000000 14.000000 -1.930046E+01
2.000000 12.000000 4.353191E+00
2.000000 10.000000 2.315223E+01
2.000000 8.000000 3.437873E+01
2.000000 6.000000 3.894267E+01
2.000000 4.000000 2.116547E+01
2.000000 2.000000 -1.201999E+01
2.000000 0.000000 -3.995461E+01
2.000000 -2.000000 -4.726264E+01
2.000000 -4.000000 -3.381014E+01
2.000000 -6.000000 -1.016010E+01
2.000000 -8.000000 7.252598E+00
2.000000 -10.000000 1.418211E+01
2.000000 -12.000000 6.428255E+00
2.000000 -14.000000 2.376007E+00
2.000000 -16.000000 1.166764E+01
2.000000 -18.000000 2.364804E+01
2.000000 -20.000000 2.004404E+01
2.000000 -22.000000 7.396769E+00
2.000000 -24.000000 2.197213E+00
2.000000 -26.000000 8.287435E+00
2.000000 -28.000000 1.563833E+01
2.000000 -30.000000 1.783248E+01
2.000000 -32.000000 1.429739E+01
2.000000 -34.000000 4.996990E+00
2.000000 -36.000000 -4.474051E+00
2.000000 -38.000000 -9.282508E+00
2.000000 -40.000000 -6.673707E+00
4.000000 40.000000 -3.480356E+01
4.000000 38.000000 -2.789400E+01
4.000000 36.000000 -2.710584E+01
4.000000 34.000000 -3.305194E+01
4.000000 32.000000 -5.232419E+01
4.000000 30.000000 -7.020197E+01
4.000000 28.000000 -7.485168E+01
4.000000 26.000000 -5.947020E+01
4.000000 24.000000 -5.102068E+01
4.000000 22.000000 -6.573749E+01
4.000000 20.000000 -8.619438E+01
4.000000 18.000000 -7.846719E+01
4.000000 16.000000 -4.680594E+01
4.000000 14.000000 -1.968158E+01
4.000000 12.000000 -5.431534E+00
4.000000 10.000000 -7.291851E-01
4.000000 8.000000 8.167496E-01
4.000000 6.000000 7.690975E+00
4.000000 4.000000 1.066070E+01
4.000000 2.000000 -2.902271E+00
4.000000 0.000000 -2.054619E+01
4.000000 -2.000000 -2.566793E+01
4.000000 -4.000000 -1.720167E+01
4.000000 -6.000000 -2.875527E+00
4.000000 -8.000000 6.862902E+00
4.000000 -10.000000 7.028435E+00
4.000000 -12.000000 -3.025256E+00
4.000000 -14.000000 -6.712103E+00
4.000000 -16.000000 4.015030E+00
4.000000 -18.000000 1.533381E+01
4.000000 -20.000000 1.127998E+01
4.000000 -22.000000 1.760753E+00
4.000000 -24.000000 3.420248E+00
4.000000 -26.000000 1.510462E+01
4.000000 -28.000000 2.482188E+01
4.000000 -30.000000 2.772096E+01
4.000000 -32.000000 2.211478E+01
4.000000 -34.000000 9.354206E+00
4.000000 -36.000000 -4.778807E+00
4.000000 -38.000000 -1.301807E+01
4.000000 -40.000000 -1.330048E+01
6.000000 40.000000 -4.523634E+01
6.000000 38.000000 -4.056555E+01
6.000000 36.000000 -4.007920E+01
6.000000 34.000000 -4.203586E+01
6.000000 32.000000 -5.444585E+01
6.000000 30.000000 -6.380634E+01
6.000000 28.000000 -6.070848E+01
6.000000 26.000000 -3.955306E+01
6.000000 24.000000 -2.622943E+01
6.000000 22.000000 -3.933365E+01
6.000000 20.000000 -5.957469E+01
6.000000 18.000000 -5.891976E+01
6.000000 16.000000 -3.637681E+01
6.000000 14.000000 -1.954985E+01
6.000000 12.000000 -2.110354E+01
6.000000 10.000000 -3.549024E+01
6.000000 8.000000 -4.472375E+01
6.000000 6.000000 -3.618656E+01
6.000000 4.000000 -1.290101E+01
6.000000 2.000000 -4.673672E+00
6.000000 0.000000 -9.221463E+00
6.000000 -2.000000 -9.457592E+00
6.000000 -4.000000 -2.384655E+00
6.000000 -6.000000 5.443754E+00
6.000000 -8.000000 5.226414E+00
6.000000 -10.000000 -5.279894E+00
6.000000 -12.000000 -1.781681E+01
6.000000 -14.000000 -1.864236E+01
6.000000 -16.000000 -3.673862E+00
6.000000 -18.000000 8.329320E+00
6.000000 -20.000000 4.523817E+00
6.000000 -22.000000 -3.407221E+00
6.000000 -24.000000 4.157942E+00
6.000000 -26.000000 2.339435E+01
6.000000 -28.000000 3.641463E+01
6.000000 -30.000000 4.139875E+01
6.000000 -32.000000 3.192195E+01
6.000000 -34.000000 1.235493E+01
6.000000 -36.000000 -8.565990E+00
6.000000 -38.000000 -1.944386E+01
6.000000 -40.000000 -2.090547E+01
8.000000 40.000000 -5.513207E+01
8.000000 38.000000 -5.263815E+01
8.000000 36.000000 -5.199191E+01
8.000000 34.000000 -5.097306E+01
8.000000 32.000000 -5.759430E+01
8.000000 30.000000 -5.867719E+01
8.000000 28.000000 -4.743425E+01
8.000000 26.000000 -2.249866E+01
8.000000 24.000000 -5.319847E+00
8.000000 22.000000 -1.670153E+01
8.000000 20.000000 -3.787610E+01
8.000000 18.000000 -4.454006E+01
8.000000 16.000000 -2.945296E+01
8.000000 14.000000 -2.130612E+01
8.000000 12.000000 -3.662731E+01
8.000000 10.000000 -6.741815E+01
8.000000 8.000000 -8.551362E+01
8.000000 6.000000 -7.611211E+01
8.000000 4.000000 -4.042924E+01
8.000000 2.000000 -1.721852E+01
8.000000 0.000000 -8.746964E+00
8.000000 -2.000000 -1.656246E-01
8.000000 -4.000000 9.916970E+00
8.000000 -6.000000 1.245477E+01
8.000000 -8.000000 2.789502E+00
8.000000 -10.000000 -1.622423E+01
8.000000 -12.000000 -2.728446E+01
8.000000 -14.000000 -2.101928E+01
8.000000 -16.000000 -3.477119E-01
8.000000 -18.000000 1.220115E+01
8.000000 -20.000000 5.260839E+00
8.000000 -22.000000 -4.405878E+00
8.000000 -24.000000 4.570585E+00
8.000000 -26.000000 2.765440E+01
8.000000 -28.000000 4.421752E+01
8.000000 -30.000000 5.210720E+01
8.000000 -32.000000 3.905985E+01
8.000000 -34.000000 1.314279E+01
8.000000 -36.000000 -1.432338E+01
8.000000 -38.000000 -2.742367E+01
8.000000 -40.000000 -2.906526E+01
10.000000 40.000000 -6.129523E+01
10.000000 38.000000 -6.121331E+01
10.000000 36.000000 -6.120496E+01
10.000000 34.000000 -6.004580E+01
10.000000 32.000000 -6.312266E+01
10.000000 30.000000 -5.901270E+01
10.000000 28.000000 -4.215454E+01
10.000000 26.000000 -1.495476E+01
10.000000 24.000000 4.153610E+00
10.000000 22.000000 -4.426193E+00
10.000000 20.000000 -2.542872E+01
10.000000 18.000000 -3.510342E+01
10.000000 16.000000 -2.258638E+01
10.000000 14.000000 -1.894664E+01
10.000000 12.000000 -4.353087E+01
10.000000 10.000000 -8.674586E+01
10.000000 8.000000 -1.140498E+02
10.000000 6.000000 -1.099106E+02
10.000000 4.000000 -7.350305E+01
10.000000 2.000000 -4.195279E+01
10.000000 0.000000 -2.144773E+01
10.000000 -2.000000 -4.016619E-01
10.000000 -4.000000 1.754481E+01
10.000000 -6.000000 1.740665E+01
10.000000 -8.000000 2.816619E+00
10.000000 -10.000000 -1.720590E+01
10.000000 -12.000000 -1.909646E+01
10.000000 -14.000000 4.521292E-01
10.000000 -16.000000 2.811917E+01
10.000000 -18.000000 3.751761E+01
10.000000 -20.000000 2.033930E+01
10.000000 -22.000000 1.639413E+00
10.000000 -24.000000 3.369092E+00
10.000000 -26.000000 2.262318E+01
10.000000 -28.000000 3.993081E+01
10.000000 -30.000000 5.002448E+01
10.000000 -32.000000 3.765531E+01
10.000000 -34.000000 1.010228E+01
10.000000 -36.000000 -2.070707E+01
10.000000 -38.000000 -3.488296E+01
10.000000 -40.000000 -3.634758E+01
12.000000 40.000000 -6.125951E+01
12.000000 38.000000 -6.475392E+01
12.000000 36.000000 -6.803294E+01
12.000000 34.000000 -6.903263E+01
12.000000 32.000000 -7.079151E+01
12.000000 30.000000 -6.481828E+01
12.000000 28.000000 -4.573490E+01
12.000000 26.000000 -1.682388E+01
12.000000 24.000000 3.611208E+00
12.000000 22.000000 -4.628220E-01
12.000000 20.000000 -1.618806E+01
12.000000 18.000000 -2.108798E+01
12.000000 16.000000 -9.557668E+00
12.000000 14.000000 -1.002058E+01
12.000000 12.000000 -4.184665E+01
12.000000 10.000000 -9.425026E+01
12.000000 8.000000 -1.332950E+02
12.000000 6.000000 -1.421257E+02
12.000000 4.000000 -1.150423E+02
12.000000 2.000000 -8.109491E+01
12.000000 0.000000 -4.937790E+01
12.000000 -2.000000 -1.423258E+01
12.000000 -4.000000 1.551837E+01
12.000000 -6.000000 1.922892E+01
12.000000 -8.000000 7.390184E+00
12.000000 -10.000000 -3.294170E+00
12.000000 -12.000000 1.412564E+01
12.000000 -14.000000 5.390847E+01
12.000000 -16.000000 8.932893E+01
12.000000 -18.000000 8.929803E+01
12.000000 -20.000000 5.363695E+01
12.000000 -22.000000 1.555477E+01
12.000000 -24.000000 -3.298512E-01
12.000000 -26.000000 7.866544E+00
12.000000 -28.000000 2.157635E+01
12.000000 -30.000000 3.137319E+01
12.000000 -32.000000 2.329164E+01
12.000000 -34.000000 2.856903E-01
12.000000 -36.000000 -2.730153E+01
12.000000 -38.000000 -4.017619E+01
12.000000 -40.000000 -4.130251E+01
14.000000 40.000000 -5.600019E+01
14.000000 38.000000 -6.430632E+01
14.000000 36.000000 -7.293499E+01
14.000000 34.000000 -7.611716E+01
14.000000 32.000000 -7.664936E+01
14.000000 30.000000 -6.885368E+01
14.000000 28.000000 -4.850943E+01
14.000000 26.000000 -1.864596E+01
14.000000 24.000000 2.643698E+00
14.000000 22.000000 1.213290E+00
14.000000 20.000000 -9.203206E+00
14.000000 18.000000 -6.697008E+00
14.000000 16.000000 5.833050E+00
14.000000 14.000000 1.699333E+00
14.000000 12.000000 -3.632553E+01
14.000000 10.000000 -9.548596E+01
14.000000 8.000000 -1.464395E+02
14.000000 6.000000 -1.712314E+02
14.000000 4.000000 -1.599085E+02
14.000000 2.000000 -1.302669E+02
14.000000 0.000000 -9.196155E+01
14.000000 -2.000000 -4.394749E+01
14.000000 -4.000000 -1.367096E+00
14.000000 -6.000000 1.275243E+01
14.000000 -8.000000 1.453806E+01
14.000000 -10.000000 2.648343E+01
14.000000 -12.000000 7.278428E+01
14.000000 -14.000000 1.357896E+02
14.000000 -16.000000 1.751032E+02
14.000000 -18.000000 1.593619E+02
14.000000 -20.000000 9.862557E+01
14.000000 -22.000000 3.321923E+01
14.000000 -24.000000 -6.676206E+00
14.000000 -26.000000 -1.337631E+01
14.000000 -28.000000 -4.420068E+00
14.000000 -30.000000 3.889461E+00
14.000000 -32.000000 8.540468E-01
14.000000 -34.000000 -1.502449E+01
14.000000 -36.000000 -3.429927E+01
14.000000 -38.000000 -4.437108E+01
14.000000 -40.000000 -4.576418E+01
16.000000 40.000000 -4.993694E+01
16.000000 38.000000 -6.057965E+01
16.000000 36.000000 -7.208611E+01
16.000000 34.000000 -7.544247E+01
16.000000 32.000000 -7.271476E+01
16.000000 30.000000 -6.230025E+01
16.000000 28.000000 -4.199074E+01
16.000000 26.000000 -1.382122E+01
16.000000 24.000000 4.937200E+00
16.000000 22.000000 2.489651E+00
16.000000 20.000000 -6.297572E+00
16.000000 18.000000 1.179274E+00
16.000000 16.000000 1.613682E+01
16.000000 14.000000 1.008976E+01
16.000000 12.000000 -3.189857E+01
16.000000 10.000000 -9.686352E+01
16.000000 8.000000 -1.572566E+02
16.000000 6.000000 -1.958484E+02
16.000000 4.000000 -2.006291E+02
16.000000 2.000000 -1.783363E+02
16.000000 0.000000 -1.398416E+02
16.000000 -2.000000 -8.465541E+01
16.000000 -4.000000 -3.121838E+01
16.000000 -6.000000 -1.030040E+00
16.000000 -8.000000 2.207149E+01
16.000000 -10.000000 6.458616E+01
16.000000 -12.000000 1.434526E+02
16.000000 -14.000000 2.270831E+02
16.000000 -16.000000 2.652967E+02
16.000000 -18.000000 2.304401E+02
16.000000 -20.000000 1.419404E+02
16.000000 -22.000000 4.882942E+01
16.000000 -24.000000 -1.354856E+01
16.000000 -26.000000 -3.357428E+01
16.000000 -28.000000 -2.780090E+01
16.000000 -30.000000 -2.095731E+01
16.000000 -32.000000 -2.104048E+01
16.000000 -34.000000 -3.219080E+01
16.000000 -36.000000 -4.336798E+01
16.000000 -38.000000 -5.013393E+01
16.000000 -40.000000 -5.195192E+01
18.000000 40.000000 -4.561833E+01
18.000000 38.000000 -5.300331E+01
18.000000 36.000000 -6.237201E+01
18.000000 34.000000 -6.383113E+01
18.000000 32.000000 -5.667549E+01
18.000000 30.000000 -4.343541E+01
18.000000 28.000000 -2.580175E+01
18.000000 26.000000 -4.580715E+00
18.000000 24.000000 7.140341E+00
18.000000 22.000000 1.785264E+00
18.000000 20.000000 -6.275205E+00
18.000000 18.000000 5.726604E+00
18.000000 16.000000 2.248624E+01
18.000000 14.000000 1.503529E+01
18.000000 12.000000 -3.093172E+01
18.000000 10.000000 -1.037332E+02
18.000000 8.000000 -1.705587E+02
18.000000 6.000000 -2.157633E+02
18.000000 4.000000 -2.265810E+02
18.000000 2.000000 -2.080970E+02
18.000000 0.000000 -1.723650E+02
18.000000 -2.000000 -1.164947E+02
18.000000 -4.000000 -5.855546E+01
18.000000 -6.000000 -1.572223E+01
18.000000 -8.000000 2.750425E+01
18.000000 -10.000000 9.702555E+01
18.000000 -12.000000 2.015768E+02
18.000000 -14.000000 2.991260E+02
18.000000 -16.000000 3.318572E+02
18.000000 -18.000000 2.772029E+02
18.000000 -20.000000 1.655167E+02
18.000000 -22.000000 5.393501E+01
18.000000 -24.000000 -2.066107E+01
18.000000 -26.000000 -4.437185E+01
18.000000 -28.000000 -3.838184E+01
18.000000 -30.000000 -3.352390E+01
18.000000 -32.000000 -3.605892E+01
18.000000 -34.000000 -4.802744E+01
18.000000 -36.000000 -5.538302E+01
18.000000 -38.000000 -5.849618E+01
18.000000 -40.000000 -5.970192E+01
20.000000 40.000000 -4.341294E+01
20.000000 38.000000 -4.294409E+01
20.000000 36.000000 -4.668633E+01
20.000000 34.000000 -4.506732E+01
20.000000 32.000000 -3.405853E+01
20.000000 30.000000 -1.846164E+01
20.000000 28.000000 -5.750624E+00
20.000000 26.000000 5.972702E+00
20.000000 24.000000 9.118764E+00
20.000000 22.000000 9.026821E-01
20.000000 20.000000 -4.334217E+00
20.000000 18.000000 1.299727E+01
20.000000 16.000000 3.017434E+01
20.000000 14.000000 1.989961E+01
20.000000 12.000000 -3.271962E+01
20.000000 10.000000 -1.138866E+02
20.000000 8.000000 -1.829969E+02
20.000000 6.000000 -2.255762E+02
20.000000 4.000000 -2.298944E+02
20.000000 2.000000 -2.083850E+02
20.000000 0.000000 -1.750915E+02
20.000000 -2.000000 -1.252553E+02
20.000000 -4.000000 -7.116824E+01
20.000000 -6.000000 -2.565994E+01
20.000000 -8.000000 2.960703E+01
20.000000 -10.000000 1.154739E+02
20.000000 -12.000000 2.301653E+02
20.000000 -14.000000 3.290810E+02
20.000000 -16.000000 3.513166E+02
20.000000 -18.000000 2.796382E+02
20.000000 -20.000000 1.557286E+02
20.000000 -22.000000 4.028231E+01
20.000000 -24.000000 -2.943190E+01
20.000000 -26.000000 -4.175396E+01
20.000000 -28.000000 -3.155489E+01
20.000000 -30.000000 -2.955429E+01
20.000000 -32.000000 -4.080112E+01
20.000000 -34.000000 -6.028958E+01
20.000000 -36.000000 -6.909441E+01
20.000000 -38.000000 -6.899888E+01
20.000000 -40.000000 -6.817116E+01
22.000000 40.000000 -3.954231E+01
22.000000 38.000000 -3.416599E+01
22.000000 36.000000 -3.388333E+01
22.000000 34.000000 -2.747079E+01
22.000000 32.000000 -1.405291E+01
22.000000 30.000000 2.288771E+00
22.000000 28.000000 1.057756E+01
22.000000 26.000000 1.450461E+01
22.000000 24.000000 1.017564E+01
22.000000 22.000000 1.829969E+00
22.000000 20.000000 4.228658E+00
22.000000 18.000000 2.343234E+01
22.000000 16.000000 3.787073E+01
22.000000 14.000000 2.325259E+01
22.000000 12.000000 -3.549301E+01
22.000000 10.000000 -1.192571E+02
22.000000 8.000000 -1.822595E+02
22.000000 6.000000 -2.109820E+02
22.000000 4.000000 -2.019275E+02
22.000000 2.000000 -1.767935E+02
22.000000 0.000000 -1.482920E+02
22.000000 -2.000000 -1.108312E+02
22.000000 -4.000000 -6.867416E+01
22.000000 -6.000000 -2.780365E+01
22.000000 -8.000000 3.017780E+01
22.000000 -10.000000 1.174541E+02
22.000000 -12.000000 2.260855E+02
22.000000 -14.000000 3.128848E+02
22.000000 -16.000000 3.212136E+02
22.000000 -18.000000 2.376711E+02
22.000000 -20.000000 1.111146E+02
22.000000 -22.000000 5.476999E+00
22.000000 -24.000000 -4.168194E+01
22.000000 -26.000000 -3.126691E+01
22.000000 -28.000000 -1.291735E+01
22.000000 -30.000000 -1.237970E+01
22.000000 -32.000000 -3.502205E+01
22.000000 -34.000000 -6.624591E+01
22.000000 -36.000000 -8.105503E+01
22.000000 -38.000000 -7.938953E+01
22.000000 -40.000000 -7.535004E+01
24.000000 40.000000 -2.899851E+01
24.000000 38.000000 -2.659355E+01
24.000000 36.000000 -2.780063E+01
24.000000 34.000000 -1.853308E+01
24.000000 32.000000 -7.555462E+00
24.000000 30.000000 5.912141E+00
24.000000 28.000000 1.331247E+01
24.000000 26.000000 1.574129E+01
24.000000 24.000000 8.468315E+00
24.000000 22.000000 3.812565E+00
24.000000 20.000000 1.434617E+01
24.000000 18.000000 3.219382E+01
24.000000 16.000000 4.321940E+01
24.000000 14.000000 2.530239E+01
24.000000 12.000000 -3.515064E+01
24.000000 10.000000 -1.157083E+02
24.000000 8.000000 -1.647276E+02
24.000000 6.000000 -1.712471E+02
24.000000 4.000000 -1.476180E+02
24.000000 2.000000 -1.240023E+02
24.000000 0.000000 -1.037486E+02
24.000000 -2.000000 -7.952783E+01
24.000000 -4.000000 -5.126963E+01
24.000000 -6.000000 -1.857829E+01
24.000000 -8.000000 3.291977E+01
24.000000 -10.000000 1.074908E+02
24.000000 -12.000000 1.996736E+02
24.000000 -14.000000 2.671727E+02
24.000000 -16.000000 2.614601E+02
24.000000 -18.000000 1.709206E+02
24.000000 -20.000000 4.720014E+01
24.000000 -22.000000 -4.135732E+01
24.000000 -24.000000 -5.787421E+01
24.000000 -26.000000 -2.199762E+01
24.000000 -28.000000 7.360102E+00
24.000000 -30.000000 9.822065E+00
24.000000 -32.000000 -2.207162E+01
24.000000 -34.000000 -6.464615E+01
24.000000 -36.000000 -8.749427E+01
24.000000 -38.000000 -8.641496E+01
24.000000 -40.000000 -7.917355E+01
26.000000 40.000000 -1.235726E+01
26.000000 38.000000 -1.580722E+01
26.000000 36.000000 -2.336400E+01
26.000000 34.000000 -2.171283E+01
26.000000 32.000000 -1.966874E+01
26.000000 30.000000 -1.153828E+01
26.000000 28.000000 -2.461090E+00
26.000000 26.000000 5.741582E+00
26.000000 24.000000 4.641202E+00
26.000000 22.000000 4.242638E+00
26.000000 20.000000 1.584636E+01
26.000000 18.000000 3.477776E+01
26.000000 16.000000 4.583642E+01
26.000000 14.000000 2.679153E+01
26.000000 12.000000 -3.277626E+01
26.000000 10.000000 -1.082505E+02
26.000000 8.000000 -1.414460E+02
26.000000 6.000000 -1.230771E+02
26.000000 4.000000 -8.758359E+01
26.000000 2.000000 -7.192709E+01
26.000000 0.000000 -6.028602E+01
26.000000 -2.000000 -4.227429E+01
26.000000 -4.000000 -2.016700E+01
26.000000 -6.000000 4.818348E+00
26.000000 -8.000000 4.383572E+01
26.000000 -10.000000 9.814691E+01
26.000000 -12.000000 1.678895E+02
26.000000 -14.000000 2.140177E+02
26.000000 -16.000000 1.960358E+02
26.000000 -18.000000 1.042974E+02
26.000000 -20.000000 -1.063568E+01
26.000000 -22.000000 -7.997582E+01
26.000000 -24.000000 -6.826555E+01
26.000000 -26.000000 -1.150382E+01
26.000000 -28.000000 2.482753E+01
26.000000 -30.000000 2.823771E+01
26.000000 -32.000000 -8.724447E+00
26.000000 -34.000000 -5.738251E+01
26.000000 -36.000000 -8.635154E+01
26.000000 -38.000000 -8.801041E+01
26.000000 -40.000000 -8.007089E+01
28.000000 40.000000 5.652655E+00
28.000000 38.000000 -1.666200E+00
28.000000 36.000000 -1.676140E+01
28.000000 34.000000 -3.231373E+01
28.000000 32.000000 -4.221134E+01
28.000000 30.000000 -3.917158E+01
28.000000 28.000000 -2.997472E+01
28.000000 26.000000 -1.502632E+01
28.000000 24.000000 -7.450300E+00
28.000000 22.000000 -3.840155E+00
28.000000 20.000000 8.030027E+00
28.000000 18.000000 3.175305E+01
28.000000 16.000000 4.694839E+01
28.000000 14.000000 2.954087E+01
28.000000 12.000000 -2.867246E+01
28.000000 10.000000 -1.002937E+02
28.000000 8.000000 -1.255731E+02
28.000000 6.000000 -9.591221E+01
28.000000 4.000000 -5.399172E+01
28.000000 2.000000 -3.916866E+01
28.000000 0.000000 -2.752064E+01
28.000000 -2.000000 -6.844618E+00
28.000000 -4.000000 1.750242E+01
28.000000 -6.000000 3.967586E+01
28.000000 -8.000000 6.874758E+01
28.000000 -10.000000 1.026491E+02
28.000000 -12.000000 1.442334E+02
28.000000 -14.000000 1.677864E+02
28.000000 -16.000000 1.412094E+02
28.000000 -18.000000 5.718770E+01
28.000000 -20.000000 -4.010281E+01
28.000000 -22.000000 -9.100838E+01
28.000000 -24.000000 -6.275958E+01
28.000000 -26.000000 1.785769E+00
28.000000 -28.000000 3.678893E+01
28.000000 -30.000000 3.941434E+01
28.000000 -32.000000 2.207994E+00
28.000000 -34.000000 -4.646805E+01
28.000000 -36.000000 -7.878999E+01
28.000000 -38.000000 -8.450702E+01
28.000000 -40.000000 -7.869801E+01
30.000000 40.000000 2.102142E+01
30.000000 38.000000 1.086383E+01
30.000000 36.000000 -1.100206E+01
30.000000 34.000000 -4.328248E+01
30.000000 32.000000 -6.513938E+01
30.000000 30.000000 -6.688377E+01
30.000000 28.000000 -5.808992E+01
30.000000 26.000000 -3.853130E+01
30.000000 24.000000 -2.484631E+01
30.000000 22.000000 -1.711393E+01
30.000000 20.000000 -2.777193E+00
30.000000 18.000000 2.723983E+01
30.000000 16.000000 4.757128E+01
30.000000 14.000000 3.333558E+01
30.000000 12.000000 -2.217781E+01
30.000000 10.000000 -9.143730E+01
30.000000 8.000000 -1.181912E+02
30.000000 6.000000 -9.616771E+01
30.000000 4.000000 -5.330932E+01
30.000000 2.000000 -2.789833E+01
30.000000 0.000000 -9.436743E+00
30.000000 -2.000000 1.767944E+01
30.000000 -4.000000 4.869603E+01
30.000000 -6.000000 7.460420E+01
30.000000 -8.000000 9.979816E+01
30.000000 -10.000000 1.202010E+02
30.000000 -12.000000 1.339353E+02
30.000000 -14.000000 1.360618E+02
30.000000 -16.000000 1.061854E+02
30.000000 -18.000000 3.604360E+01
30.000000 -20.000000 -4.025291E+01
30.000000 -22.000000 -7.640726E+01
30.000000 -24.000000 -4.447512E+01
30.000000 -26.000000 1.391664E+01
30.000000 -28.000000 4.408455E+01
30.000000 -30.000000 4.808478E+01
30.000000 -32.000000 1.460272E+01
30.000000 -34.000000 -3.133477E+01
30.000000 -36.000000 -6.696245E+01
30.000000 -38.000000 -7.782165E+01
30.000000 -40.000000 -7.634490E+01
32.000000 40.000000 3.201199E+01
32.000000 38.000000 1.883666E+01
32.000000 36.000000 -1.211047E+01
32.000000 34.000000 -5.529988E+01
32.000000 32.000000 -8.312947E+01
32.000000 30.000000 -8.743428E+01
32.000000 28.000000 -7.694091E+01
32.000000 26.000000 -5.304185E+01
32.000000 24.000000 -3.678715E+01
32.000000 22.000000 -2.776472E+01
32.000000 20.000000 -1.234798E+01
32.000000 18.000000 2.147368E+01
32.000000 16.000000 4.437780E+01
32.000000 14.000000 3.430379E+01
32.000000 12.000000 -1.429186E+01
32.000000 10.000000 -7.780883E+01
32.000000 8.000000 -1.036017E+02
32.000000 6.000000 -8.859531E+01
32.000000 4.000000 -4.877912E+01
32.000000 2.000000 -2.098132E+01
32.000000 0.000000 -2.748131E+00
32.000000 -2.000000 2.538518E+01
32.000000 -4.000000 5.965195E+01
32.000000 -6.000000 9.166711E+01
32.000000 -8.000000 1.189714E+02
32.000000 -10.000000 1.332589E+02
32.000000 -12.000000 1.280552E+02
32.000000 -14.000000 1.142610E+02
32.000000 -16.000000 8.382799E+01
32.000000 -18.000000 3.093893E+01
32.000000 -20.000000 -2.490626E+01
32.000000 -22.000000 -5.159124E+01
32.000000 -24.000000 -2.433738E+01
32.000000 -26.000000 2.385421E+01
32.000000 -28.000000 4.961999E+01
32.000000 -30.000000 5.611904E+01
32.000000 -32.000000 2.901260E+01
32.000000 -34.000000 -1.240379E+01
32.000000 -36.000000 -5.127325E+01
32.000000 -38.000000 -6.807955E+01
32.000000 -40.000000 -7.290742E+01
34.000000 40.000000 3.817173E+01
34.000000 38.000000 2.060155E+01
34.000000 36.000000 -2.038276E+01
34.000000 34.000000 -6.830674E+01
34.000000 32.000000 -9.390795E+01
34.000000 30.000000 -9.609135E+01
34.000000 28.000000 -8.261559E+01
34.000000 26.000000 -5.539213E+01
34.000000 24.000000 -3.869076E+01
34.000000 22.000000 -3.198676E+01
34.000000 20.000000 -2.038812E+01
34.000000 18.000000 1.078426E+01
34.000000 16.000000 3.460593E+01
34.000000 14.000000 3.104440E+01
34.000000 12.000000 -4.999912E+00
34.000000 10.000000 -5.278349E+01
34.000000 8.000000 -6.861922E+01
34.000000 6.000000 -5.261831E+01
34.000000 4.000000 -1.868882E+01
34.000000 2.000000 -2.468594E+00
34.000000 0.000000 3.184383E+00
34.000000 -2.000000 2.153886E+01
34.000000 -4.000000 5.243162E+01
34.000000 -6.000000 8.757420E+01
34.000000 -8.000000 1.181621E+02
34.000000 -10.000000 1.293432E+02
34.000000 -12.000000 1.141608E+02
34.000000 -14.000000 9.255605E+01
34.000000 -16.000000 6.595315E+01
34.000000 -18.000000 3.116478E+01
34.000000 -20.000000 -6.813358E+00
34.000000 -22.000000 -2.945506E+01
34.000000 -24.000000 -1.042785E+01
34.000000 -26.000000 2.932360E+01
34.000000 -28.000000 5.051968E+01
34.000000 -30.000000 5.745591E+01
34.000000 -32.000000 3.861840E+01
34.000000 -34.000000 4.913824E+00
34.000000 -36.000000 -3.314890E+01
34.000000 -38.000000 -5.398137E+01
34.000000 -40.000000 -6.478731E+01
36.000000 40.000000 3.878081E+01
36.000000 38.000000 1.580142E+01
36.000000 36.000000 -3.005864E+01
36.000000 34.000000 -7.628481E+01
36.000000 32.000000 -9.549576E+01
36.000000 30.000000 -9.246179E+01
36.000000 28.000000 -7.493875E+01
36.000000 26.000000 -4.775369E+01
36.000000 24.000000 -3.195956E+01
36.000000 22.000000 -3.022445E+01
36.000000 20.000000 -2.765645E+01
36.000000 18.000000 -4.737068E+00
36.000000 16.000000 1.990125E+01
36.000000 14.000000 2.463757E+01
36.000000 12.000000 4.688433E+00
36.000000 10.000000 -1.993079E+01
36.000000 8.000000 -2.050405E+01
36.000000 6.000000 1.147078E+00
36.000000 4.000000 2.534457E+01
36.000000 2.000000 2.369955E+01
36.000000 0.000000 1.135467E+01
36.000000 -2.000000 1.336981E+01
36.000000 -4.000000 3.798501E+01
36.000000 -6.000000 7.498764E+01
36.000000 -8.000000 1.041698E+02
36.000000 -10.000000 1.104358E+02
36.000000 -12.000000 9.029628E+01
36.000000 -14.000000 6.880118E+01
36.000000 -16.000000 5.187240E+01
36.000000 -18.000000 3.405816E+01
36.000000 -20.000000 9.363699E+00
36.000000 -22.000000 -1.320478E+01
36.000000 -24.000000 -4.060787E+00
36.000000 -26.000000 2.620775E+01
36.000000 -28.000000 4.419738E+01
36.000000 -30.000000 5.123404E+01
36.000000 -32.000000 4.051157E+01
36.000000 -34.000000 1.640119E+01
36.000000 -36.000000 -1.592636E+01
36.000000 -38.000000 -3.722739E+01
36.000000 -40.000000 -5.186909E+01
38.000000 40.000000 3.458301E+01
38.000000 38.000000 7.419781E+00
38.000000 36.000000 -3.658578E+01
38.000000 34.000000 -7.599124E+01
38.000000 32.000000 -8.847053E+01
38.000000 30.000000 -8.094738E+01
38.000000 28.000000 -5.977572E+01
38.000000 26.000000 -3.366646E+01
38.000000 24.000000 -1.806569E+01
38.000000 22.000000 -2.014340E+01
38.000000 20.000000 -2.602287E+01
38.000000 18.000000 -1.318450E+01
38.000000 16.000000 8.828859E+00
38.000000 14.000000 1.994253E+01
38.000000 12.000000 1.575599E+01
38.000000 10.000000 1.031786E+01
38.000000 8.000000 1.983271E+01
38.000000 6.000000 4.261137E+01
38.000000 4.000000 5.547712E+01
38.000000 2.000000 3.866222E+01
38.000000 0.000000 1.176028E+01
38.000000 -2.000000 2.215855E+00
38.000000 -4.000000 2.157003E+01
38.000000 -6.000000 5.834499E+01
38.000000 -8.000000 8.330815E+01
38.000000 -10.000000 8.490343E+01
38.000000 -12.000000 6.486075E+01
38.000000 -14.000000 4.887686E+01
38.000000 -16.000000 4.387269E+01
38.000000 -18.000000 4.006777E+01
38.000000 -20.000000 2.359400E+01
38.000000 -22.000000 2.574463E-01
38.000000 -24.000000 5.676346E-01
38.000000 -26.000000 2.048882E+01
38.000000 -28.000000 3.579372E+01
38.000000 -30.000000 4.352537E+01
38.000000 -32.000000 3.843947E+01
38.000000 -34.000000 2.232979E+01
38.000000 -36.000000 -2.535961E+00
38.000000 -38.000000 -2.294520E+01
38.000000 -40.000000 -4.006568E+01
40.000000 40.000000 2.811113E+01
40.000000 38.000000 -8.365822E-02
40.000000 36.000000 -3.803890E+01
40.000000 34.000000 -6.933592E+01
