-16.000000 -4.000000 4.487240E+00
-16.000000 -6.000000 5.212210E+00
-16.000000 -8.000000 1.557389E+01
-16.000000 -10.000000 2.221924E+01
-16.000000 -12.000000 1.438337E+01
-16.000000 -14.000000 3.365360E+00
-16.000000 -16.000000 5.541711E-01
-16.000000 -18.000000 8.651502E+00
-16.000000 -20.000000 2.415601E+01
-16.000000 -22.000000 4.364789E+01
-16.000000 -24.000000 5.234524E+01
-16.000000 -26.000000 4.109340E+01
-16.000000 -28.000000 1.451710E+01
-16.000000 -30.000000 -6.668436E+00
-16.000000 -32.000000 -1.707579E+01
-16.000000 -34.000000 -1.880904E+01
-16.000000 -36.000000 -1.828262E+01
-16.000000 -38.000000 -9.651118E+00
-16.000000 -40.000000 5.494389E+00
-14.000000 40.000000 1.988677E+01
-14.000000 38.000000 3.121020E+01
-14.000000 36.000000 3.141346E+01
-14.000000 34.000000 2.783527E+01
-14.000000 32.000000 2.334410E+01
-14.000000 30.000000 1.927588E+01
-14.000000 28.000000 2.252255E+01
-14.000000 26.000000 3.089137E+01
-14.000000 24.000000 2.977406E+01
-14.000000 22.000000 2.183838E+01
-14.000000 20.000000 1.478453E+01
-14.000000 18.000000 3.067782E+01
-14.000000 16.000000 6.993340E+01
-14.000000 14.000000 1.158980E+02
-14.000000 12.000000 1.465178E+02
-14.000000 10.000000 1.426857E+02
-14.000000 8.000000 1.040375E+02
-14.000000 6.000000 6.351006E+01
-14.000000 4.000000 3.728397E+01
-14.000000 2.000000 2.304053E+01
-14.000000 0.000000 9.856014E+00
-14.000000 -2.000000 -6.068718E+00
-14.000000 -4.000000 -1.770844E+01
-14.000000 -6.000000 -1.373143E+01
-14.000000 -8.000000 -3.254759E+00
-14.000000 -10.000000 3.716831E-01
-14.000000 -12.000000 -1.097017E+01
-14.000000 -14.000000 -2.801106E+01
-14.000000 -16.000000 -3.560393E+01
-14.000000 -18.000000 -2.624576E+01
-14.000000 -20.000000 -3.659545E+00
-14.000000 -22.000000 2.095235E+01
-14.000000 -24.000000 3.407076E+01
-14.000000 -26.000000 3.005228E+01
-14.000000 -28.000000 9.357448E+00
-14.000000 -30.000000 -9.051385E+00
-14.000000 -32.000000 -1.883748E+01
-14.000000 -34.000000 -2.160809E+01
-14.000000 -36.000000 -2.174182E+01
-14.000000 -38.000000 -1.419736E+01
-14.000000 -40.000000 1.698270E-01
-12.000000 40.000000 4.803999E+00
-12.000000 38.000000 1.810829E+01
-12.000000 36.000000 2.330658E+01
-12.000000 34.000000 2.555220E+01
-12.000000 32.000000 2.556357E+01
-12.000000 30.000000 2.474778E+01
-12.000000 28.000000 3.135281E+01
-12.000000 26.000000 4.372836E+01
-12.000000 24.000000 4.503090E+01
-12.000000 22.000000 3.260186E+01
-12.000000 20.000000 2.323956E+01
-12.000000 18.000000 4.213980E+01
-12.000000 16.000000 9.086136E+01
-12.000000 14.000000 1.498413E+02
-12.000000 12.000000 1.895614E+02
-12.000000 10.000000 1.885650E+02
-12.000000 8.000000 1.396403E+02
-12.000000 6.000000 8.313930E+01
-12.000000 4.000000 3.912939E+01
-12.000000 2.000000 1.478200E+01
-12.000000 0.000000 -2.089481E+00
-12.000000 -2.000000 -1.870896E+01
-12.000000 -4.000000 -2.943592E+01
-12.000000 -6.000000 -2.617187E+01
-12.000000 -8.000000 -1.993277E+01
-12.000000 -10.000000 -2.074148E+01
-12.000000 -12.000000 -3.696681E+01
-12.000000 -14.000000 -6.033543E+01
-12.000000 -16.000000 -7.490490E+01
-12.000000 -18.000000 -6.869251E+01
-12.000000 -20.000000 -4.423524E+01
-12.000000 -22.000000 -1.586854E+01
-12.000000 -24.000000 3.249875E+00
-12.000000 -26.000000 8.826587E+00
-12.000000 -28.000000 -3.227315E+00
-12.000000 -30.000000 -1.745318E+01
-12.000000 -32.000000 -2.514877E+01
-12.000000 -34.000000 -2.620350E+01
-12.000000 -36.000000 -2.287735E+01
-12.000000 -38.000000 -1.359675E+01
-12.000000 -40.000000 1.490740E+00
-10.000000 40.000000 -1.299260E+01
-10.000000 38.000000 1.902027E+00
-10.000000 36.000000 1.329123E+01
-10.000000 34.000000 2.411489E+01
-10.000000 32.000000 3.079455E+01
-10.000000 30.000000 3.587999E+01
-10.000000 28.000000 4.651994E+01
-10.000000 26.000000 6.254533E+01
-10.000000 24.000000 6.810225E+01
-10.000000 22.000000 5.256307E+01
-10.000000 20.000000 4.059433E+01
-10.000000 18.000000 5.762841E+01
-10.000000 16.000000 1.102640E+02
-10.000000 14.000000 1.754288E+02
-10.000000 12.000000 2.192751E+02
-10.000000 10.000000 2.174540E+02
-10.000000 8.000000 1.589915E+02
-10.000000 6.000000 9.129904E+01
-10.000000 4.000000 3.961127E+01
-10.000000 2.000000 1.311282E+01
-10.000000 0.000000 -3.253578E+00
-10.000000 -2.000000 -1.997561E+01
-10.000000 -4.000000 -3.196679E+01
-10.000000 -6.000000 -3.275933E+01
-10.000000 -8.000000 -3.177438E+01
-10.000000 -10.000000 -3.664974E+01
-10.000000 -12.000000 -5.620096E+01
-10.000000 -14.000000 -8.365358E+01
-10.000000 -16.000000 -1.019928E+02
-10.000000 -18.000000 -9.846018E+01
-10.000000 -20.000000 -7.752483E+01
-10.000000 -22.000000 -5.067638E+01
-10.000000 -24.000000 -2.743736E+01
-10.000000 -26.000000 -1.594913E+01
-10.000000 -28.000000 -2.197716E+01
-10.000000 -30.000000 -3.136599E+01
-10.000000 -32.000000 -3.574433E+01
-10.000000 -34.000000 -3.356362E+01
-10.000000 -36.000000 -2.422250E+01
-10.000000 -38.000000 -1.119047E+01
-10.000000 -40.000000 5.603440E+00
-8.000000 40.000000 -3.070743E+01
-8.000000 38.000000 -1.446670E+01
-8.000000 36.000000 2.346554E+00
-8.000000 34.000000 2.254411E+01
-8.000000 32.000000 3.798620E+01
-8.000000 30.000000 5.087959E+01
-8.000000 28.000000 6.420563E+01
-8.000000 26.000000 7.964116E+01
-8.000000 24.000000 8.519372E+01
-8.000000 22.000000 6.708202E+01
-8.000000 20.000000 5.239617E+01
-8.000000 18.000000 6.599984E+01
-8.000000 16.000000 1.181223E+02
-8.000000 14.000000 1.854549E+02
-8.000000 12.000000 2.298580E+02
-8.000000 10.000000 2.238972E+02
-8.000000 8.000000 1.590005E+02
-8.000000 6.000000 8.727620E+01
-8.000000 4.000000 3.673967E+01
-8.000000 2.000000 1.287221E+01
-8.000000 0.000000 -1.657696E+00
-8.000000 -2.000000 -1.759723E+01
-8.000000 -4.000000 -3.058134E+01
-8.000000 -6.000000 -3.399495E+01
-8.000000 -8.000000 -3.410607E+01
-8.000000 -10.000000 -3.862600E+01
-8.000000 -12.000000 -5.604912E+01
-8.000000 -14.000000 -8.201826E+01
-8.000000 -16.000000 -1.011164E+02
-8.000000 -18.000000 -1.021132E+02
-8.000000 -20.000000 -8.975135E+01
-8.000000 -22.000000 -6.991890E+01
-8.000000 -24.000000 -4.912408E+01
-8.000000 -26.000000 -3.770417E+01
-8.000000 -28.000000 -4.235425E+01
-8.000000 -30.000000 -4.854704E+01
-8.000000 -32.000000 -4.980366E+01
-8.000000 -34.000000 -4.320484E+01
-8.000000 -36.000000 -2.665204E+01
-8.000000 -38.000000 -9.777662E+00
-8.000000 -40.000000 8.017451E+00
-6.000000 40.000000 -4.267106E+01
-6.000000 38.000000 -2.589802E+01
-6.000000 36.000000 -7.901352E+00
-6.000000 34.000000 1.729867E+01
-6.000000 32.000000 4.112089E+01
-6.000000 30.000000 6.180836E+01
-6.000000 28.000000 7.556324E+01
-6.000000 26.000000 8.606241E+01
-6.000000 24.000000 8.730209E+01
-6.000000 22.000000 6.562847E+01
-6.000000 20.000000 4.659579E+01
-6.000000 18.000000 5.783951E+01
-6.000000 16.000000 1.103997E+02
-6.000000 14.000000 1.787506E+02
-6.000000 12.000000 2.225048E+02
-6.000000 10.000000 2.115185E+02
-6.000000 8.000000 1.439809E+02
-6.000000 6.000000 7.412147E+01
-6.000000 4.000000 2.947656E+01
-6.000000 2.000000 1.115823E+01
-6.000000 0.000000 -8.977509E-02
-6.000000 -2.000000 -1.473098E+01
-6.000000 -4.000000 -2.692857E+01
-6.000000 -6.000000 -2.811263E+01
-6.000000 -8.000000 -2.406844E+01
-6.000000 -10.000000 -2.241507E+01
-6.000000 -12.000000 -3.327215E+01
-6.000000 -14.000000 -5.308381E+01
-6.000000 -16.000000 -7.259233E+01
-6.000000 -18.000000 -8.188039E+01
-6.000000 -20.000000 -8.164315E+01
-6.000000 -22.000000 -7.250599E+01
-6.000000 -24.000000 -5.982965E+01
-6.000000 -26.000000 -5.290282E+01
-6.000000 -28.000000 -5.934397E+01
-6.000000 -30.000000 -6.567036E+01
-6.000000 -32.000000 -6.525490E+01
-6.000000 -34.000000 -5.383649E+01
-6.000000 -36.000000 -3.065454E+01
-6.000000 -38.000000 -1.009019E+01
-6.000000 -40.000000 8.720025E+00
-4.000000 40.000000 -4.607853E+01
-4.000000 38.000000 -3.015392E+01
-4.000000 36.000000 -1.499033E+01
-4.000000 34.000000 8.687954E+00
-4.000000 32.000000 3.464987E+01
-4.000000 30.000000 5.703149E+01
-4.000000 28.000000 7.005678E+01
-4.000000 26.000000 7.756772E+01
-4.000000 24.000000 7.562839E+01
-4.000000 22.000000 5.172444E+01
-4.000000 20.000000 2.850415E+01
-4.000000 18.000000 3.855249E+01
-4.000000 16.000000 9.318494E+01
-4.000000 14.000000 1.599849E+02
-4.000000 12.000000 2.002079E+02
-4.000000 10.000000 1.849782E+02
-4.000000 8.000000 1.192407E+02
-4.000000 6.000000 5.616575E+01
-4.000000 4.000000 2.143032E+01
-4.000000 2.000000 1.030000E+01
-4.000000 0.000000 3.802422E+00
-4.000000 -2.000000 -8.202789E+00
-4.000000 -4.000000 -1.971770E+01
-4.000000 -6.000000 -1.876120E+01
-4.000000 -8.000000 -1.016328E+01
-4.000000 -10.000000 -1.351192E+00
-4.000000 -12.000000 -5.554797E+00
-4.000000 -14.000000 -1.806902E+01
-4.000000 -16.000000 -3.623145E+01
-4.000000 -18.000000 -5.167607E+01
-4.000000 -20.000000 -6.149631E+01
-4.000000 -22.000000 -6.207237E+01
-4.000000 -24.000000 -5.768960E+01
-4.000000 -26.000000 -5.711510E+01
-4.000000 -28.000000 -6.847952E+01
-4.000000 -30.000000 -7.818615E+01
-4.000000 -32.000000 -7.775612E+01
-4.000000 -34.000000 -6.258045E+01
-4.000000 -36.000000 -3.531362E+01
-4.000000 -38.000000 -1.158082E+01
-4.000000 -40.000000 9.204451E+00
-2.000000 40.000000 -4.448142E+01
-2.000000 38.000000 -2.863287E+01
-2.000000 36.000000 -1.648210E+01
-2.000000 34.000000 1.169716E+00
-2.000000 32.000000 2.046373E+01
-2.000000 30.000000 3.616428E+01
-2.000000 28.000000 4.799686E+01
-2.000000 26.000000 5.694417E+01
-2.000000 24.000000 5.658101E+01
-2.000000 22.000000 3.622253E+01
-2.000000 20.000000 1.403504E+01
-2.000000 18.000000 2.206986E+01
-2.000000 16.000000 7.335612E+01
-2.000000 14.000000 1.336848E+02
-2.000000 12.000000 1.662331E+02
-2.000000 10.000000 1.455882E+02
-2.000000 8.000000 8.537007E+01
-2.000000 6.000000 3.321047E+01
-2.000000 4.000000 1.414953E+01
-2.000000 2.000000 1.404497E+01
-2.000000 0.000000 1.344062E+01
-2.000000 -2.000000 3.154150E+00
-2.000000 -4.000000 -1.027116E+01
-2.000000 -6.000000 -1.205865E+01
-2.000000 -8.000000 -3.156803E+00
-2.000000 -10.000000 8.059094E+00
-2.000000 -12.000000 6.636302E+00
-2.000000 -14.000000 -5.057163E-01
-2.000000 -16.000000 -1.412386E+01
-2.000000 -18.000000 -2.773559E+01
-2.000000 -20.000000 -3.918383E+01
-2.000000 -22.000000 -4.316093E+01
-2.000000 -24.000000 -4.247781E+01
-2.000000 -26.000000 -4.763438E+01
-2.000000 -28.000000 -6.562825E+01
-2.000000 -30.000000 -8.034273E+01
-2.000000 -32.000000 -8.171066E+01
-2.000000 -34.000000 -6.536520E+01
-2.000000 -36.000000 -3.845099E+01
-2.000000 -38.000000 -1.402201E+01
-2.000000 -40.000000 8.512838E+00
0.000000 40.000000 -4.167205E+01
0.000000 38.000000 -2.395493E+01
0.000000 36.000000 -1.428232E+01
0.000000 34.000000 -6.019333E+00
0.000000 32.000000 2.355495E+00
0.000000 30.000000 9.192966E+00
0.000000 28.000000 1.855089E+01
0.000000 26.000000 3.003583E+01
0.000000 24.000000 3.551995E+01
0.000000 22.000000 2.518416E+01
0.000000 20.000000 1.070164E+01
0.000000 18.000000 1.714566E+01
0.000000 16.000000 5.875577E+01
0.000000 14.000000 1.085560E+02
0.000000 12.000000 1.314585E+02
0.000000 10.000000 1.045747E+02
0.000000 8.000000 5.351473E+01
0.000000 6.000000 1.283173E+01
0.000000 4.000000 6.493235E+00
0.000000 2.000000 1.545900E+01
0.000000 0.000000 1.861022E+01
0.000000 -2.000000 7.886505E+00
0.000000 -4.000000 -7.557653E+00
0.000000 -6.000000 -1.302424E+01
0.000000 -8.000000 -6.736574E+00
0.000000 -10.000000 7.048731E-01
0.000000 -12.000000 -2.741409E+00
0.000000 -14.000000 -7.374116E+00
0.000000 -16.000000 -1.369987E+01
0.000000 -18.000000 -1.903986E+01
0.000000 -20.000000 -2.350173E+01
0.000000 -22.000000 -2.273113E+01
0.000000 -24.000000 -1.976975E+01
0.000000 -26.000000 -2.782993E+01
0.000000 -28.000000 -4.969948E+01
0.000000 -30.000000 -6.730469E+01
0.000000 -32.000000 -7.227537E+01
0.000000 -34.000000 -6.068208E+01
0.000000 -36.000000 -3.858686E+01
0.000000 -38.000000 -1.720885E+01
0.000000 -40.000000 4.131085E+00
2.000000 40.000000 -3.934391E+01
2.000000 38.000000 -1.900423E+01
2.000000 36.000000 -1.093718E+01
2.000000 34.000000 -1.273016E+01
2.000000 32.000000 -1.541149E+01
2.000000 30.000000 -1.591210E+01
2.000000 28.000000 -1.042942E+01
2.000000 26.000000 2.999626E+00
2.000000 24.000000 1.420737E+01
2.000000 22.000000 1.434003E+01
2.000000 20.000000 7.945873E+00
2.000000 18.000000 1.462254E+01
2.000000 16.000000 4.831750E+01
2.000000 14.000000 9.099055E+01
2.000000 12.000000 1.121014E+02
2.000000 10.000000 8.767876E+01
2.000000 8.000000 4.701038E+01
2.000000 6.000000 1.274521E+01
2.000000 4.000000 4.051657E+00
2.000000 2.000000 7.120209E+00
2.000000 0.000000 5.515902E+00
2.000000 -2.000000 -6.900480E+00
2.000000 -4.000000 -2.055765E+01
2.000000 -6.000000 -2.423497E+01
2.000000 -8.000000 -1.781343E+01
2.000000 -10.000000 -1.300834E+01
2.000000 -12.000000 -1.854983E+01
2.000000 -14.000000 -2.353376E+01
2.000000 -16.000000 -2.515041E+01
2.000000 -18.000000 -2.362478E+01
2.000000 -20.000000 -1.945914E+01
2.000000 -22.000000 -9.650344E+00
2.000000 -24.000000 -1.312289E-01
2.000000 -26.000000 -6.114659E+00
2.000000 -28.000000 -2.734387E+01
2.000000 -30.000000 -4.480779E+01
2.000000 -32.000000 -5.467209E+01
2.000000 -34.000000 -5.259519E+01
2.000000 -36.000000 -3.816963E+01
2.000000 -38.000000 -2.069179E+01
2.000000 -40.000000 -1.773144E+00
4.000000 40.000000 -3.606931E+01
4.000000 38.000000 -1.564995E+01
4.000000 36.000000 -9.689348E+00
4.000000 34.000000 -1.774962E+01
4.000000 32.000000 -2.815937E+01
4.000000 30.000000 -3.560467E+01
4.000000 28.000000 -3.490775E+01
4.000000 26.000000 -1.974578E+01
4.000000 24.000000 -6.119732E+00
4.000000 22.000000 -2.202442E+00
4.000000 20.000000 -8.234940E+00
4.000000 18.000000 -1.228966E+00
4.000000 16.000000 3.197817E+01
4.000000 14.000000 7.892669E+01
4.000000 12.000000 1.151525E+02
4.000000 10.000000 1.157459E+02
4.000000 8.000000 8.478643E+01
4.000000 6.000000 4.468303E+01
4.000000 4.000000 1.202581E+01
4.000000 2.000000 -1.021558E+01
4.000000 0.000000 -2.694153E+01
4.000000 -2.000000 -4.066430E+01
4.000000 -4.000000 -4.695002E+01
4.000000 -6.000000 -4.035973E+01
4.000000 -8.000000 -2.752942E+01
4.000000 -10.000000 -1.916363E+01
4.000000 -12.000000 -2.432878E+01
4.000000 -14.000000 -3.215374E+01
4.000000 -16.000000 -3.563950E+01
4.000000 -18.000000 -3.339917E+01
4.000000 -20.000000 -2.629761E+01
4.000000 -22.000000 -1.013659E+01
4.000000 -24.000000 7.167949E+00
4.000000 -26.000000 8.047304E+00
4.000000 -28.000000 -8.464935E+00
4.000000 -30.000000 -2.478249E+01
4.000000 -32.000000 -3.906142E+01
4.000000 -34.000000 -4.570130E+01
4.000000 -36.000000 -3.911123E+01
4.000000 -38.000000 -2.425550E+01
4.000000 -40.000000 -5.598756E+00
6.000000 40.000000 -3.157142E+01
6.000000 38.000000 -1.455784E+01
6.000000 36.000000 -1.231420E+01
6.000000 34.000000 -2.207216E+01
6.000000 32.000000 -3.534605E+01
6.000000 30.000000 -4.701118E+01
6.000000 28.000000 -4.965875E+01
6.000000 26.000000 -3.461456E+01
6.000000 24.000000 -2.231572E+01
6.000000 22.000000 -1.932406E+01
6.000000 20.000000 -2.809368E+01
6.000000 18.000000 -2.247890E+01
6.000000 16.000000 1.324840E+01
6.000000 14.000000 7.203627E+01
6.000000 12.000000 1.323293E+02
6.000000 10.000000 1.646330E+02
6.000000 8.000000 1.417302E+02
6.000000 6.000000 9.031536E+01
6.000000 4.000000 2.603059E+01
6.000000 2.000000 -2.808787E+01
6.000000 0.000000 -6.413309E+01
6.000000 -2.000000 -7.795880E+01
6.000000 -4.000000 -7.295437E+01
6.000000 -6.000000 -5.217434E+01
6.000000 -8.000000 -2.971211E+01
6.000000 -10.000000 -1.373823E+01
6.000000 -12.000000 -1.718636E+01
6.000000 -14.000000 -2.798746E+01
6.000000 -16.000000 -3.723831E+01
6.000000 -18.000000 -4.068383E+01
6.000000 -20.000000 -3.797745E+01
6.000000 -22.000000 -2.160131E+01
6.000000 -24.000000 1.032573E+00
6.000000 -26.000000 9.705073E+00
6.000000 -28.000000 -4.203529E-01
6.000000 -30.000000 -1.502327E+01
6.000000 -32.000000 -3.139930E+01
6.000000 -34.000000 -4.263664E+01
6.000000 -36.000000 -4.028348E+01
6.000000 -38.000000 -2.645676E+01
6.000000 -40.000000 -6.951205E+00
8.000000 40.000000 -2.995145E+01
8.000000 38.000000 -1.602375E+01
8.000000 36.000000 -1.509856E+01
8.000000 34.000000 -2.393116E+01
8.000000 32.000000 -3.761072E+01
8.000000 30.000000 -4.813322E+01
8.000000 28.000000 -5.066462E+01
8.000000 26.000000 -3.768104E+01
8.000000 24.000000 -2.725901E+01
8.000000 22.000000 -2.664102E+01
8.000000 20.000000 -3.815398E+01
8.000000 18.000000 -3.644634E+01
8.000000 16.000000 1.219572E+00
8.000000 14.000000 7.175960E+01
8.000000 12.000000 1.533605E+02
8.000000 10.000000 2.084264E+02
8.000000 8.000000 1.899962E+02
8.000000 6.000000 1.281999E+02
8.000000 4.000000 3.827870E+01
8.000000 2.000000 -4.251212E+01
8.000000 0.000000 -9.507188E+01
8.000000 -2.000000 -1.080551E+02
8.000000 -4.000000 -9.159672E+01
8.000000 -6.000000 -5.856069E+01
8.000000 -8.000000 -2.939161E+01
8.000000 -10.000000 -7.592478E+00
8.000000 -12.000000 -8.669962E+00
8.000000 -14.000000 -1.898790E+01
8.000000 -16.000000 -3.190404E+01
8.000000 -18.000000 -4.106039E+01
8.000000 -20.000000 -4.501136E+01
8.000000 -22.000000 -3.276352E+01
8.000000 -24.000000 -1.017270E+01
8.000000 -26.000000 1.435513E+00
8.000000 -28.000000 -5.253476E+00
8.000000 -30.000000 -1.782034E+01
8.000000 -32.000000 -3.317239E+01
8.000000 -34.000000 -4.354635E+01
8.000000 -36.000000 -4.036556E+01
8.000000 -38.000000 -2.622539E+01
8.000000 -40.000000 -6.719787E+00
10.000000 40.000000 -3.365186E+01
10.000000 38.000000 -1.956874E+01
10.000000 36.000000 -1.519975E+01
10.000000 34.000000 -2.026114E+01
10.000000 32.000000 -3.197532E+01
10.000000 30.000000 -3.913582E+01
10.000000 28.000000 -3.982309E+01
10.000000 26.000000 -2.747419E+01
10.000000 24.000000 -1.732536E+01
10.000000 22.000000 -2.020829E+01
10.000000 20.000000 -3.565330E+01
10.000000 18.000000 -3.712103E+01
10.000000 16.000000 8.466969E-01
10.000000 14.000000 7.738089E+01
10.000000 12.000000 1.694636E+02
10.000000 10.000000 2.350341E+02
10.000000 8.000000 2.193718E+02
10.000000 6.000000 1.527555E+02
10.000000 4.000000 4.891264E+01
10.000000 2.000000 -4.909678E+01
10.000000 0.000000 -1.129304E+02
10.000000 -2.000000 -1.268054E+02
10.000000 -4.000000 -1.030135E+02
10.000000 -6.000000 -6.248244E+01
10.000000 -8.000000 -3.329590E+01
10.000000 -10.000000 -1.443243E+01
10.000000 -12.000000 -1.508173E+01
10.000000 -14.000000 -2.046208E+01
10.000000 -16.000000 -2.897382E+01
10.000000 -18.000000 -3.784222E+01
10.000000 -20.000000 -4.450561E+01
10.000000 -22.000000 -3.613718E+01
10.000000 -24.000000 -1.967317E+01
10.000000 -26.000000 -1.287179E+01
10.000000 -28.000000 -2.084890E+01
10.000000 -30.000000 -3.113658E+01
10.000000 -32.000000 -4.063104E+01
10.000000 -34.000000 -4.481673E+01
10.000000 -36.000000 -3.807466E+01
10.000000 -38.000000 -2.410769E+01
10.000000 -40.000000 -5.091933E+00
12.000000 40.000000 -4.107622E+01
12.000000 38.000000 -2.399700E+01
12.000000 36.000000 -1.371592E+01
12.000000 34.000000 -1.238631E+01
12.000000 32.000000 -1.838666E+01
12.000000 30.000000 -2.291326E+01
12.000000 28.000000 -2.198100E+01
12.000000 26.000000 -8.183191E+00
12.000000 24.000000 3.920023E+00
12.000000 22.000000 -1.130913E+00
12.000000 20.000000 -2.037137E+01
12.000000 18.000000 -2.363418E+01
12.000000 16.000000 1.272682E+01
12.000000 14.000000 8.625458E+01
12.000000 12.000000 1.747165E+02
12.000000 10.000000 2.397625E+02
12.000000 8.000000 2.272239E+02
12.000000 6.000000 1.630066E+02
12.000000 4.000000 5.840023E+01
12.000000 2.000000 -4.412835E+01
12.000000 0.000000 -1.128976E+02
12.000000 -2.000000 -1.311640E+02
12.000000 -4.000000 -1.091177E+02
12.000000 -6.000000 -7.128515E+01
12.000000 -8.000000 -4.980499E+01
12.000000 -10.000000 -3.969707E+01
12.000000 -12.000000 -4.114266E+01
12.000000 -14.000000 -3.939094E+01
12.000000 -16.000000 -3.714975E+01
12.000000 -18.000000 -3.764939E+01
12.000000 -20.000000 -4.037536E+01
12.000000 -22.000000 -3.416729E+01
12.000000 -24.000000 -2.641152E+01
12.000000 -26.000000 -2.837427E+01
12.000000 -28.000000 -3.922678E+01
12.000000 -30.000000 -4.693000E+01
12.000000 -32.000000 -4.869083E+01
12.000000 -34.000000 -4.499074E+01
12.000000 -36.000000 -3.436216E+01
12.000000 -38.000000 -2.054078E+01
12.000000 -40.000000 -1.134991E+00
14.000000 40.000000 -4.925898E+01
14.000000 38.000000 -2.887245E+01
14.000000 36.000000 -1.332722E+01
14.000000 34.000000 -4.063793E+00
14.000000 32.000000 -2.718987E+00
14.000000 30.000000 -3.625094E+00
14.000000 28.000000 -8.502855E-01
14.000000 26.000000 1.473999E+01
14.000000 24.000000 2.993512E+01
14.000000 22.000000 2.507457E+01
14.000000 20.000000 5.253692E+00
14.000000 18.000000 -1.581064E+00
14.000000 16.000000 2.861671E+01
14.000000 14.000000 9.151505E+01
14.000000 12.000000 1.666833E+02
14.000000 10.000000 2.224436E+02
14.000000 8.000000 2.114707E+02
14.000000 6.000000 1.553437E+02
14.000000 4.000000 6.333019E+01
14.000000 2.000000 -2.937935E+01
14.000000 0.000000 -9.635231E+01
14.000000 -2.000000 -1.218273E+02
14.000000 -4.000000 -1.117194E+02
14.000000 -6.000000 -8.778133E+01
14.000000 -8.000000 -7.842598E+01
14.000000 -10.000000 -7.790387E+01
14.000000 -12.000000 -7.828539E+01
14.000000 -14.000000 -6.990846E+01
14.000000 -16.000000 -5.696896E+01
14.000000 -18.000000 -4.544862E+01
14.000000 -20.000000 -3.837531E+01
14.000000 -22.000000 -3.205324E+01
14.000000 -24.000000 -3.146393E+01
14.000000 -26.000000 -3.904479E+01
14.000000 -28.000000 -5.014294E+01
14.000000 -30.000000 -5.588797E+01
14.000000 -32.000000 -5.278340E+01
14.000000 -34.000000 -4.361576E+01
14.000000 -36.000000 -3.019275E+01
14.000000 -38.000000 -1.551291E+01
14.000000 -40.000000 4.225645E+00
16.000000 40.000000 -5.828379E+01
16.000000 38.000000 -3.431858E+01
16.000000 36.000000 -1.373510E+01
16.000000 34.000000 3.559725E+00
16.000000 32.000000 1.147289E+01
16.000000 30.000000 1.464930E+01
16.000000 28.000000 1.995041E+01
16.000000 26.000000 3.554158E+01
16.000000 24.000000 5.200615E+01
16.000000 22.000000 4.833024E+01
16.000000 20.000000 2.943311E+01
16.000000 18.000000 1.747935E+01
16.000000 16.000000 3.899822E+01
16.000000 14.000000 8.947657E+01
16.000000 12.000000 1.485266E+02
16.000000 10.000000 1.899746E+02
16.000000 8.000000 1.778772E+02
16.000000 6.000000 1.307843E+02
16.000000 4.000000 5.761427E+01
16.000000 2.000000 -1.747996E+01
16.000000 0.000000 -7.744231E+01
16.000000 -2.000000 -1.102091E+02
16.000000 -4.000000 -1.159818E+02
16.000000 -6.000000 -1.088608E+02
16.000000 -8.000000 -1.090470E+02
16.000000 -10.000000 -1.148560E+02
16.000000 -12.000000 -1.123211E+02
16.000000 -14.000000 -9.852094E+01
16.000000 -16.000000 -7.790038E+01
16.000000 -18.000000 -5.676169E+01
16.000000 -20.000000 -4.087641E+01
16.000000 -22.000000 -3.277970E+01
16.000000 -24.000000 -3.459345E+01
16.000000 -26.000000 -4.253975E+01
16.000000 -28.000000 -5.128430E+01
16.000000 -30.000000 -5.458405E+01
16.000000 -32.000000 -4.827382E+01
16.000000 -34.000000 -3.658153E+01
16.000000 -36.000000 -2.324934E+01
16.000000 -38.000000 -1.016592E+01
16.000000 -40.000000 6.590076E+00
18.000000 40.000000 -6.881347E+01
18.000000 38.000000 -4.073825E+01
18.000000 36.000000 -1.500971E+01
18.000000 34.000000 9.169194E+00
18.000000 32.000000 2.279884E+01
18.000000 30.000000 2.820322E+01
18.000000 28.000000 3.503649E+01
18.000000 26.000000 4.842058E+01
18.000000 24.000000 6.272576E+01
18.000000 22.000000 5.732033E+01
18.000000 20.000000 3.827637E+01
18.000000 18.000000 2.370684E+01
18.000000 16.000000 4.034387E+01
18.000000 14.000000 8.228792E+01
18.000000 12.000000 1.278491E+02
18.000000 10.000000 1.545918E+02
18.000000 8.000000 1.385860E+02
18.000000 6.000000 9.822690E+01
18.000000 4.000000 4.335280E+01
18.000000 2.000000 -1.418595E+01
18.000000 0.000000 -6.663135E+01
18.000000 -2.000000 -1.056366E+02
18.000000 -4.000000 -1.254177E+02
18.000000 -6.000000 -1.301672E+02
18.000000 -8.000000 -1.337576E+02
18.000000 -10.000000 -1.402876E+02
18.000000 -12.000000 -1.338457E+02
18.000000 -14.000000 -1.155343E+02
18.000000 -16.000000 -9.069195E+01
18.000000 -18.000000 -6.617575E+01
18.000000 -20.000000 -4.674553E+01
18.000000 -22.000000 -3.579900E+01
18.000000 -24.000000 -3.529159E+01
18.000000 -26.000000 -4.134217E+01
18.000000 -28.000000 -4.648260E+01
18.000000 -30.000000 -4.511559E+01
18.000000 -32.000000 -3.545833E+01
18.000000 -34.000000 -2.349434E+01
18.000000 -36.000000 -1.368811E+01
18.000000 -38.000000 -6.511823E+00
18.000000 -40.000000 3.891408E+00
20.000000 40.000000 -7.816161E+01
20.000000 38.000000 -4.984046E+01
20.000000 36.000000 -2.119670E+01
20.000000 34.000000 8.005281E+00
20.000000 32.000000 2.655794E+01
20.000000 30.000000 3.328070E+01
20.000000 28.000000 4.036647E+01
20.000000 26.000000 5.185479E+01
20.000000 24.000000 6.162660E+01
20.000000 22.000000 5.068860E+01
20.000000 20.000000 3.067328E+01
20.000000 18.000000 1.607530E+01
20.000000 16.000000 3.240752E+01
20.000000 14.000000 7.107949E+01
20.000000 12.000000 1.091092E+02
20.000000 10.000000 1.237909E+02
20.000000 8.000000 1.027681E+02
20.000000 6.000000 6.706290E+01
20.000000 4.000000 2.812246E+01
20.000000 2.000000 -1.433510E+01
20.000000 0.000000 -6.017832E+01
20.000000 -2.000000 -1.037816E+02
20.000000 -4.000000 -1.336931E+02
20.000000 -6.000000 -1.446853E+02
20.000000 -8.000000 -1.478457E+02
20.000000 -10.000000 -1.512674E+02
20.000000 -12.000000 -1.414643E+02
20.000000 -14.000000 -1.206819E+02
20.000000 -16.000000 -9.578665E+01
20.000000 -18.000000 -7.300074E+01
20.000000 -20.000000 -5.359865E+01
20.000000 -22.000000 -3.965088E+01
20.000000 -24.000000 -3.464169E+01
20.000000 -26.000000 -3.842564E+01
20.000000 -28.000000 -4.108942E+01
20.000000 -30.000000 -3.511753E+01
20.000000 -32.000000 -2.246252E+01
20.000000 -34.000000 -1.085792E+01
20.000000 -36.000000 -6.064679E+00
20.000000 -38.000000 -5.485652E+00
20.000000 -40.000000 -1.124310E+00
22.000000 40.000000 -8.555444E+01
22.000000 38.000000 -6.164218E+01
22.000000 36.000000 -3.251932E+01
22.000000 34.000000 -4.493561E-01
22.000000 32.000000 2.094700E+01
22.000000 30.000000 2.738763E+01
22.000000 28.000000 3.365982E+01
22.000000 26.000000 4.538765E+01
22.000000 24.000000 5.111201E+01
22.000000 22.000000 3.486219E+01
22.000000 20.000000 1.288144E+01
22.000000 18.000000 -1.594167E-01
22.000000 16.000000 1.784897E+01
22.000000 14.000000 5.751245E+01
22.000000 12.000000 9.560757E+01
22.000000 10.000000 1.046624E+02
22.000000 8.000000 7.984147E+01
22.000000 6.000000 4.570805E+01
22.000000 4.000000 1.832957E+01
22.000000 2.000000 -1.215384E+01
22.000000 0.000000 -5.261099E+01
22.000000 -2.000000 -9.792398E+01
22.000000 -4.000000 -1.321070E+02
22.000000 -6.000000 -1.452477E+02
22.000000 -8.000000 -1.470036E+02
22.000000 -10.000000 -1.463496E+02
22.000000 -12.000000 -1.362494E+02
22.000000 -14.000000 -1.177850E+02
22.000000 -16.000000 -9.844794E+01
22.000000 -18.000000 -8.148729E+01
22.000000 -20.000000 -6.456170E+01
22.000000 -22.000000 -4.752433E+01
22.000000 -24.000000 -3.708927E+01
22.000000 -26.000000 -3.849935E+01
22.000000 -28.000000 -4.103027E+01
22.000000 -30.000000 -3.225469E+01
22.000000 -32.000000 -1.739491E+01
22.000000 -34.000000 -4.959881E+00
22.000000 -36.000000 -3.478275E+00
22.000000 -38.000000 -7.174704E+00
22.000000 -40.000000 -5.689148E+00
24.000000 40.000000 -9.234634E+01
24.000000 38.000000 -7.440326E+01
24.000000 36.000000 -4.527786E+01
24.000000 34.000000 -1.177945E+01
24.000000 32.000000 1.025889E+01
24.000000 30.000000 1.364459E+01
24.000000 28.000000 1.636476E+01
24.000000 26.000000 2.697288E+01
24.000000 24.000000 3.096084E+01
24.000000 22.000000 1.458716E+01
24.000000 20.000000 -9.903021E+00
24.000000 18.000000 -2.228230E+01
24.000000 16.000000 5.714941E-01
24.000000 14.000000 4.678039E+01
24.000000 12.000000 9.173524E+01
24.000000 10.000000 1.045929E+02
24.000000 8.000000 7.973641E+01
24.000000 6.000000 4.709346E+01
24.000000 4.000000 2.502192E+01
24.000000 2.000000 -1.160128E+00
24.000000 0.000000 -4.013183E+01
24.000000 -2.000000 -8.575291E+01
24.000000 -4.000000 -1.202055E+02
24.000000 -6.000000 -1.332848E+02
24.000000 -8.000000 -1.336570E+02
24.000000 -10.000000 -1.300240E+02
24.000000 -12.000000 -1.223239E+02
24.000000 -14.000000 -1.112806E+02
24.000000 -16.000000 -1.031170E+02
24.000000 -18.000000 -9.617889E+01
24.000000 -20.000000 -8.365335E+01
24.000000 -22.000000 -6.460033E+01
24.000000 -24.000000 -5.053560E+01
24.000000 -26.000000 -4.900559E+01
24.000000 -28.000000 -5.099198E+01
24.000000 -30.000000 -4.072681E+01
24.000000 -32.000000 -2.366804E+01
24.000000 -34.000000 -8.443233E+00
24.000000 -36.000000 -5.963226E+00
24.000000 -38.000000 -9.880530E+00
24.000000 -40.000000 -7.474171E+00
26.000000 40.000000 -9.815803E+01
26.000000 38.000000 -8.616998E+01
26.000000 36.000000 -5.710627E+01
26.000000 34.000000 -2.315826E+01
26.000000 32.000000 -1.637821E+00
26.000000 30.000000 -1.744469E+00
26.000000 28.000000 -4.514163E+00
26.000000 26.000000 1.057111E+00
26.000000 24.000000 4.507839E+00
26.000000 22.000000 -6.908515E+00
26.000000 20.000000 -3.162681E+01
26.000000 18.000000 -4.312007E+01
26.000000 16.000000 -1.334702E+01
26.000000 14.000000 4.294488E+01
26.000000 12.000000 9.771889E+01
26.000000 10.000000 1.217169E+02
26.000000 8.000000 1.011134E+02
26.000000 6.000000 7.428078E+01
26.000000 4.000000 5.354000E+01
26.000000 2.000000 2.282347E+01
26.000000 0.000000 -2.225518E+01
26.000000 -2.000000 -7.240875E+01
26.000000 -4.000000 -1.071334E+02
26.000000 -6.000000 -1.180662E+02
26.000000 -8.000000 -1.160824E+02
26.000000 -10.000000 -1.101324E+02
26.000000 -12.000000 -1.060135E+02
26.000000 -14.000000 -1.046507E+02
26.000000 -16.000000 -1.110493E+02
26.000000 -18.000000 -1.172807E+02
26.000000 -20.000000 -1.117514E+02
26.000000 -22.000000 -9.351135E+01
26.000000 -24.000000 -7.633485E+01
26.000000 -26.000000 -7.003336E+01
26.000000 -28.000000 -7.026567E+01
26.000000 -30.000000 -5.923486E+01
26.000000 -32.000000 -3.978576E+01
26.000000 -34.000000 -2.003067E+01
26.000000 -36.000000 -1.149884E+01
26.000000 -38.000000 -1.070785E+01
26.000000 -40.000000 -4.850645E+00
28.000000 40.000000 -1.039142E+02
28.000000 38.000000 -9.384749E+01
28.000000 36.000000 -6.503379E+01
28.000000 34.000000 -3.102970E+01
28.000000 32.000000 -1.023960E+01
28.000000 30.000000 -1.317144E+01
28.000000 28.000000 -2.199284E+01
28.000000 26.000000 -2.293896E+01
28.000000 24.000000 -1.957214E+01
28.000000 22.000000 -2.325829E+01
28.000000 20.000000 -4.327840E+01
28.000000 18.000000 -5.018914E+01
28.000000 16.000000 -1.481689E+01
28.000000 14.000000 4.647390E+01
28.000000 12.000000 1.062251E+02
28.000000 10.000000 1.387728E+02
28.000000 8.000000 1.244780E+02
28.000000 6.000000 1.040920E+02
28.000000 4.000000 8.255569E+01
28.000000 2.000000 4.514443E+01
28.000000 0.000000 -6.445852E+00
28.000000 -2.000000 -6.075179E+01
28.000000 -4.000000 -9.577332E+01
28.000000 -6.000000 -1.053715E+02
28.000000 -8.000000 -1.021690E+02
28.000000 -10.000000 -9.482750E+01
28.000000 -12.000000 -9.469967E+01
28.000000 -14.000000 -1.012120E+02
28.000000 -16.000000 -1.192573E+02
28.000000 -18.000000 -1.379607E+02
28.000000 -20.000000 -1.418637E+02
28.000000 -22.000000 -1.263111E+02
28.000000 -24.000000 -1.037009E+02
28.000000 -26.000000 -9.174157E+01
28.000000 -28.000000 -9.017068E+01
28.000000 -30.000000 -7.855653E+01
28.000000 -32.000000 -5.661141E+01
28.000000 -34.000000 -3.235244E+01
28.000000 -36.000000 -1.695668E+01
28.000000 -38.000000 -1.039497E+01
28.000000 -40.000000 -1.384336E+00
30.000000 40.000000 -1.099143E+02
30.000000 38.000000 -9.793160E+01
30.000000 36.000000 -6.920197E+01
30.000000 34.000000 -3.416433E+01
30.000000 32.000000 -1.252410E+01
30.000000 30.000000 -1.768470E+01
30.000000 28.000000 -3.203109E+01
30.000000 26.000000 -3.629961E+01
30.000000 24.000000 -2.967199E+01
30.000000 22.000000 -2.491067E+01
30.000000 20.000000 -3.789883E+01
30.000000 18.000000 -4.189531E+01
30.000000 16.000000 -8.082162E+00
30.000000 14.000000 5.103276E+01
30.000000 12.000000 1.090815E+02
30.000000 10.000000 1.397996E+02
30.000000 8.000000 1.279193E+02
30.000000 6.000000 1.088998E+02
30.000000 4.000000 8.823731E+01
30.000000 2.000000 5.109775E+01
30.000000 0.000000 1.067600E-01
30.000000 -2.000000 -5.280263E+01
30.000000 -4.000000 -8.701250E+01
30.000000 -6.000000 -9.806810E+01
30.000000 -8.000000 -9.804734E+01
30.000000 -10.000000 -9.469531E+01
30.000000 -12.000000 -9.792484E+01
30.000000 -14.000000 -1.075227E+02
30.000000 -16.000000 -1.277156E+02
30.000000 -18.000000 -1.485643E+02
30.000000 -20.000000 -1.562778E+02
30.000000 -22.000000 -1.412455E+02
30.000000 -24.000000 -1.131254E+02
30.000000 -26.000000 -9.740749E+01
30.000000 -28.000000 -9.669549E+01
30.000000 -30.000000 -8.709065E+01
30.000000 -32.000000 -6.528232E+01
30.000000 -34.000000 -4.024686E+01
30.000000 -36.000000 -2.273320E+01
30.000000 -38.000000 -1.317984E+01
30.000000 -40.000000 -2.387745E+00
32.000000 40.000000 -1.127057E+02
32.000000 38.000000 -9.968797E+01
32.000000 36.000000 -7.171997E+01
32.000000 34.000000 -3.508583E+01
32.000000 32.000000 -1.064995E+01
32.000000 30.000000 -1.584387E+01
32.000000 28.000000 -3.319243E+01
32.000000 26.000000 -3.787988E+01
32.000000 24.000000 -2.842032E+01
32.000000 22.000000 -1.964791E+01
32.000000 20.000000 -2.837681E+01
32.000000 18.000000 -3.161788E+01
32.000000 16.000000 -4.854498E-01
32.000000 14.000000 5.650519E+01
32.000000 12.000000 1.098237E+02
32.000000 10.000000 1.318095E+02
32.000000 8.000000 1.149267E+02
32.000000 6.000000 9.035222E+01
32.000000 4.000000 6.848143E+01
32.000000 2.000000 3.614100E+01
32.000000 0.000000 -8.671200E+00
32.000000 -2.000000 -5.510094E+01
32.000000 -4.000000 -8.614474E+01
32.000000 -6.000000 -9.867426E+01
32.000000 -8.000000 -1.040945E+02
32.000000 -10.000000 -1.094673E+02
32.000000 -12.000000 -1.160619E+02
32.000000 -14.000000 -1.237662E+02
32.000000 -16.000000 -1.363534E+02
32.000000 -18.000000 -1.468404E+02
32.000000 -20.000000 -1.466578E+02
32.000000 -22.000000 -1.247372E+02
32.000000 -24.000000 -9.299144E+01
32.000000 -26.000000 -7.868132E+01
32.000000 -28.000000 -8.453675E+01
32.000000 -30.000000 -8.280255E+01
32.000000 -32.000000 -6.682954E+01
32.000000 -34.000000 -4.459997E+01
32.000000 -36.000000 -2.887366E+01
32.000000 -38.000000 -1.899702E+01
32.000000 -40.000000 -7.822682E+00
34.000000 40.000000 -1.105281E+02
34.000000 38.000000 -9.775903E+01
34.000000 36.000000 -7.084504E+01
34.000000 34.000000 -3.340385E+01
34.000000 32.000000 -7.334825E+00
34.000000 30.000000 -1.074702E+01
34.000000 28.000000 -2.723941E+01
34.000000 26.000000 -3.205277E+01
34.000000 24.000000 -2.586118E+01
34.000000 22.000000 -2.217830E+01
34.000000 20.000000 -3.234813E+01
34.000000 18.000000 -3.350934E+01
34.000000 16.000000 1.139492E+00
34.000000 14.000000 6.112493E+01
34.000000 12.000000 1.128092E+02
34.000000 10.000000 1.276245E+02
34.000000 8.000000 1.000688E+02
34.000000 6.000000 6.357737E+01
34.000000 4.000000 3.489162E+01
34.000000 2.000000 6.583536E+00
34.000000 0.000000 -2.935613E+01
34.000000 -2.000000 -6.516627E+01
34.000000 -4.000000 -8.997997E+01
34.000000 -6.000000 -1.027338E+02
34.000000 -8.000000 -1.137100E+02
34.000000 -10.000000 -1.271141E+02
34.000000 -12.000000 -1.369994E+02
34.000000 -14.000000 -1.410057E+02
34.000000 -16.000000 -1.411375E+02
34.000000 -18.000000 -1.356689E+02
34.000000 -20.000000 -1.205654E+02
34.000000 -22.000000 -8.769860E+01
34.000000 -24.000000 -5.386616E+01
34.000000 -26.000000 -4.586090E+01
34.000000 -28.000000 -6.440869E+01
34.000000 -30.000000 -7.377139E+01
34.000000 -32.000000 -6.634659E+01
34.000000 -34.000000 -4.719280E+01
34.000000 -36.000000 -3.268646E+01
34.000000 -38.000000 -2.298799E+01
34.000000 -40.000000 -1.361632E+01
36.000000 40.000000 -1.065501E+02
36.000000 38.000000 -9.294710E+01
36.000000 36.000000 -6.551974E+01
36.000000 34.000000 -2.828179E+01
36.000000 32.000000 -3.046315E+00
36.000000 30.000000 -5.612715E+00
36.000000 28.000000 -1.874349E+01
36.000000 26.000000 -2.244094E+01
36.000000 24.000000 -2.180636E+01
36.000000 22.000000 -2.990647E+01
36.000000 20.000000 -4.803707E+01
36.000000 18.000000 -4.901919E+01
36.000000 16.000000 -7.875927E+00
36.000000 14.000000 5.866963E+01
36.000000 12.000000 1.134825E+02
36.000000 10.000000 1.260334E+02
36.000000 8.000000 8.709980E+01
36.000000 6.000000 3.787677E+01
36.000000 4.000000 1.044296E+00
36.000000 2.000000 -2.359696E+01
36.000000 0.000000 -4.856252E+01
36.000000 -2.000000 -7.234324E+01
36.000000 -4.000000 -8.994952E+01
36.000000 -6.000000 -1.026749E+02
36.000000 -8.000000 -1.195573E+02
36.000000 -10.000000 -1.397888E+02
36.000000 -12.000000 -1.507887E+02
36.000000 -14.000000 -1.521204E+02
36.000000 -16.000000 -1.405644E+02
36.000000 -18.000000 -1.207001E+02
36.000000 -20.000000 -9.214988E+01
36.000000 -22.000000 -5.124836E+01
36.000000 -24.000000 -1.877384E+01
36.000000 -26.000000 -1.867238E+01
36.000000 -28.000000 -4.881485E+01
36.000000 -30.000000 -6.602804E+01
36.000000 -32.000000 -6.400100E+01
36.000000 -34.000000 -4.706650E+01
36.000000 -36.000000 -3.292224E+01
36.000000 -38.000000 -2.398306E+01
36.000000 -40.000000 -1.763933E+01
38.000000 40.000000 -1.031966E+02
38.000000 38.000000 -8.782950E+01
38.000000 36.000000 -5.899847E+01
38.000000 34.000000 -2.259472E+01
38.000000 32.000000 1.838377E+00
38.000000 30.000000 4.252224E-01
38.000000 28.000000 -8.527577E+00
38.000000 26.000000 -8.916547E+00
38.000000 24.000000 -1.206824E+01
38.000000 22.000000 -3.411098E+01
38.000000 20.000000 -6.324446E+01
38.000000 18.000000 -6.982727E+01
38.000000 16.000000 -2.810097E+01
38.000000 14.000000 4.146906E+01
38.000000 12.000000 1.004053E+02
38.000000 10.000000 1.151605E+02
38.000000 8.000000 7.354996E+01
38.000000 6.000000 2.049434E+01
38.000000 4.000000 -1.833072E+01
38.000000 2.000000 -3.834884E+01
38.000000 0.000000 -5.438100E+01
38.000000 -2.000000 -6.996192E+01
38.000000 -4.000000 -8.321346E+01
38.000000 -6.000000 -9.618423E+01
38.000000 -8.000000 -1.146592E+02
38.000000 -10.000000 -1.364006E+02
38.000000 -12.000000 -1.467672E+02
38.000000 -14.000000 -1.475991E+02
38.000000 -16.000000 -1.330153E+02
38.000000 -18.000000 -1.090648E+02
38.000000 -20.000000 -7.699445E+01
38.000000 -22.000000 -3.678684E+01
38.000000 -24.000000 -1.008443E+01
38.000000 -26.000000 -1.499522E+01
38.000000 -28.000000 -4.469958E+01
38.000000 -30.000000 -6.138258E+01
38.000000 -32.000000 -5.951373E+01
38.000000 -34.000000 -4.339529E+01
38.000000 -36.000000 -2.942553E+01
38.000000 -38.000000 -2.269615E+01
38.000000 -40.000000 -1.919170E+01
40.000000 40.000000 -9.970033E+01
40.000000 38.000000 -8.357585E+01
40.000000 36.000000 -5.428379E+01
40.000000 34.000000 -1.872305E+01
40.000000 32.000000 5.813608E+00
40.000000 30.000000 7.175958E+00
40.000000 28.000000 2.329553E+00
40.000000 26.000000 4.612380E+00
40.000000 24.000000 -9.448748E-01
40.000000 22.000000 -3.306440E+01
40.000000 20.000000 -7.192420E+01
40.000000 18.000000 -8.743279E+01
40.000000 16.000000 -5.196885E+01
40.000000 14.000000 1.296498E+01
40.000000 12.000000 7.352942E+01
40.000000 10.000000 9.338972E+01
40.000000 8.000000 5.974052E+01
40.000000 6.000000 1.503843E+01
40.000000 4.000000 -1.728194E+01
40.000000 2.000000 -3.352681E+01
40.000000 0.000000 -4.675124E+01
40.000000 -2.000000 -6.156328E+01
40.000000 -4.000000 -7.516216E+01
40.000000 -6.000000 -8.649404E+01
40.000000 -8.000000 -9.778648E+01
40.000000 -10.000000 -1.097250E+02
40.000000 -12.000000 -1.181239E+02
40.000000 -14.000000 -1.234965E+02
40.000000 -16.000000 -1.190643E+02
40.000000 -18.000000 -1.045998E+02
40.000000 -20.000000 -8.042607E+01
40.000000 -22.000000 -4.816773E+01
40.000000 -24.000000 -2.669665E+01
40.000000 -26.000000 -3.131469E+01
40.000000 -28.000000 -5.274749E+01
40.000000 -30.000000 -6.323903E+01
40.000000 -32.000000 -5.761831E+01
40.000000 -34.000000 -4.030167E+01
40.000000 -36.000000 -2.526424E+01
40.000000 -38.000000 -1.945892E+01
40.000000 -40.000000 -1.746205E+01
42.000000 40.000000 -9.514244E+01
42.000000 38.000000 -8.037158E+01
42.000000 36.000000 -5.268277E+01
42.000000 34.000000 -1.795389E+01
42.000000 32.000000 6.524493E+00
42.000000 30.000000 1.176120E+01
42.000000 28.000000 1.038199E+01
42.000000 26.000000 1.196221E+01
42.000000 24.000000 5.116200E+00
42.000000 22.000000 -2.844980E+01
42.000000 20.000000 -7.040882E+01
42.000000 18.000000 -9.130375E+01
42.000000 16.000000 -6.430669E+01
42.000000 14.000000 -1.076275E+01
42.000000 12.000000 4.321739E+01
42.000000 10.000000 6.416136E+01
42.000000 8.000000 4.240442E+01
42.000000 6.000000 1.346515E+01
42.000000 4.000000 -6.665510E+00
42.000000 2.000000 -1.911465E+01
42.000000 0.000000 -3.318666E+01
42.000000 -2.000000 -5.154187E+01
42.000000 -4.000000 -6.620335E+01
42.000000 -6.000000 -7.050035E+01
42.000000 -8.000000 -6.979501E+01
42.000000 -10.000000 -6.998068E+01
42.000000 -12.000000 -7.824290E+01
42.000000 -14.000000 -9.254452E+01
42.000000 -16.000000 -1.038485E+02
42.000000 -18.000000 -1.046453E+02
42.000000 -20.000000 -9.350904E+01
42.000000 -22.000000 -6.988062E+01
42.000000 -24.000000 -4.999783E+01
42.000000 -26.000000 -5.150046E+01
42.000000 -28.000000 -6.657489E+01
42.000000 -30.000000 -7.089983E+01
42.000000 -32.000000 -6.025870E+01
42.000000 -34.000000 -4.117361E+01
42.000000 -36.000000 -2.458181E+01
42.000000 -38.000000 -1.708823E+01
42.000000 -40.000000 -1.419631E+01
44.000000 40.000000 -8.924805E+01
44.000000 38.000000 -7.716230E+01
44.000000 36.000000 -5.315922E+01
44.000000 34.000000 -2.164935E+01
44.000000 32.000000 3.542757E-01
44.000000 30.000000 8.012402E+00
44.000000 28.000000 1.149036E+01
44.000000 26.000000 1.453634E+01
44.000000 24.000000 8.642003E+00
44.000000 22.000000 -2.016951E+01
44.000000 20.000000 -5.664689E+01
44.000000 18.000000 -7.680803E+01
44.000000 16.000000 -5.916277E+01
44.000000 14.000000 -1.984599E+01
44.000000 12.000000 1.974456E+01
44.000000 10.000000 3.380824E+01
44.000000 8.000000 1.972543E+01
44.000000 6.000000 4.812374E+00
44.000000 4.000000 -3.266659E-01
44.000000 2.000000 -5.341122E+00
44.000000 0.000000 -1.861841E+01
44.000000 -2.000000 -3.910752E+01
44.000000 -4.000000 -5.237749E+01
44.000000 -6.000000 -4.735482E+01
44.000000 -8.000000 -3.655989E+01
44.000000 -10.000000 -3.094783E+01
44.000000 -12.000000 -4.280520E+01
44.000000 -14.000000 -6.754244E+01
44.000000 -16.000000 -9.293270E+01
44.000000 -18.000000 -1.069820E+02
44.000000 -20.000000 -1.062785E+02
44.000000 -22.000000 -8.654101E+01
44.000000 -24.000000 -6.555465E+01
44.000000 -26.000000 -6.440147E+01
44.000000 -28.000000 -7.737286E+01
44.000000 -30.000000 -7.816261E+01
44.000000 -32.000000 -6.403089E+01
44.000000 -34.000000 -4.355061E+01
44.000000 -36.000000 -2.735181E+01
44.000000 -38.000000 -1.876431E+01
44.000000 -40.000000 -1.325933E+01
46.000000 40.000000 -8.063898E+01
46.000000 38.000000 -7.245706E+01
46.000000 36.000000 -5.511999E+01
46.000000 34.000000 -3.161649E+01
46.000000 32.000000 -1.516522E+01
46.000000 30.000000 -6.003359E+00
46.000000 28.000000 5.117894E+00
46.000000 26.000000 1.562619E+01
46.000000 24.000000 1.477019E+01
46.000000 22.000000 -6.755909E+00
46.000000 20.000000 -3.541585E+01
46.000000 18.000000 -5.309413E+01
46.000000 16.000000 -4.364995E+01
46.000000 14.000000 -1.644588E+01
46.000000 12.000000 9.006207E+00
46.000000 10.000000 1.428429E+01
46.000000 8.000000 1.503261E+00
46.000000 6.000000 -6.863288E+00
46.000000 4.000000 -4.322586E-01
46.000000 2.000000 2.884716E+00
46.000000 0.000000 -7.397589E+00
46.000000 -2.000000 -2.663485E+01
46.000000 -4.000000 -3.543866E+01
46.000000 -6.000000 -2.257652E+01
46.000000 -8.000000 -7.037464E+00
46.000000 -10.000000 -1.211742E+00
46.000000 -12.000000 -1.833730E+01
46.000000 -14.000000 -4.990725E+01
46.000000 -16.000000 -8.432757E+01
46.000000 -18.000000 -1.067622E+02
46.000000 -20.000000 -1.113443E+02
46.000000 -22.000000 -9.218444E+01
46.000000 -24.000000 -7.083752E+01
46.000000 -26.000000 -6.916852E+01
46.000000 -28.000000 -8.197466E+01
46.000000 -30.000000 -8.168156E+01
46.000000 -32.000000 -6.617463E+01
46.000000 -34.000000 -4.510257E+01
46.000000 -36.000000 -3.118755E+01
46.000000 -38.000000 -2.353714E+01
46.000000 -40.000000 -1.570304E+01
48.000000 40.000000 -6.767263E+01
48.000000 38.000000 -6.471127E+01
48.000000 36.000000 -5.899168E+01
48.000000 34.000000 -4.877859E+01
48.000000 32.000000 -3.707235E+01
48.000000 30.000000 -2.367167E+01
48.000000 28.000000 -3.495038E+00
48.000000 26.000000 1.699641E+01
48.000000 24.000000 2.417191E+01
48.000000 22.000000 9.275869E+00
48.000000 20.000000 -1.539040E+01
48.000000 18.000000 -3.185051E+01
48.000000 16.000000 -2.704681E+01
48.000000 14.000000 -7.739503E+00
48.000000 12.000000 8.687987E+00
48.000000 10.000000 8.723599E+00
48.000000 8.000000 -4.497961E+00
48.000000 6.000000 -9.909795E+00
48.000000 4.000000 2.495834E+00
48.000000 2.000000 1.047585E+01
48.000000 0.000000 2.324617E+00
48.000000 -2.000000 -1.448616E+01
48.000000 -4.000000 -2.034575E+01
48.000000 -6.000000 -6.003918E+00
48.000000 -8.000000 8.799257E+00
48.000000 -10.000000 1.245818E+01
48.000000 -12.000000 -8.255545E+00
48.000000 -14.000000 -3.980290E+01
48.000000 -16.000000 -7.482590E+01
48.000000 -18.000000 -9.895929E+01
48.000000 -20.000000 -1.042966E+02
48.000000 -22.000000 -8.639862E+01
48.000000 -24.000000 -6.792256E+01
48.000000 -26.000000 -6.856866E+01
48.000000 -28.000000 -8.246525E+01
48.000000 -30.000000 -8.282618E+01
48.000000 -32.000000 -6.716048E+01
48.000000 -34.000000 -4.652385E+01
48.000000 -36.000000 -3.358572E+01
48.000000 -38.000000 -2.715910E+01
48.000000 -40.000000 -1.927145E+01
50.000000 40.000000 -5.381244E+01
50.000000 38.000000 -5.481961E+01
50.000000 36.000000 -6.004888E+01
50.000000 34.000000 -6.206868E+01
50.000000 32.000000 -5.310313E+01
50.000000 30.000000 -3.679010E+01
50.000000 28.000000 -1.008670E+01
50.000000 26.000000 1.877668E+01
50.000000 24.000000 3.390016E+01
50.000000 22.000000 2.414697E+01
50.000000 20.000000 -1.426415E+00
50.000000 18.000000 -2.011397E+01
50.000000 16.000000 -1.794737E+01
50.000000 14.000000 -2.163468E+00
50.000000 12.000000 1.179354E+01
50.000000 10.000000 1.149111E+01
50.000000 8.000000 5.940762E-01
50.000000 6.000000 -1.398659E-02
50.000000 4.000000 1.529489E+01
50.000000 2.000000 2.267199E+01
50.000000 0.000000 1.324175E+01
50.000000 -2.000000 -3.551813E+00
50.000000 -4.000000 -1.046022E+01
50.000000 -6.000000 -9.791412E-01
50.000000 -8.000000 8.391113E+00
50.000000 -10.000000 6.574158E+00
50.000000 -12.000000 -1.432286E+01
50.000000 -14.000000 -4.110154E+01
50.000000 -16.000000 -6.938844E+01
50.000000 -18.000000 -8.868306E+01
50.000000 -20.000000 -9.086962E+01
50.000000 -22.000000 -7.221239E+01
50.000000 -24.000000 -5.634698E+01
50.000000 -26.000000 -6.030150E+01
50.000000 -28.000000 -7.721567E+01
50.000000 -30.000000 -8.099837E+01
50.000000 -32.000000 -6.696902E+01
50.000000 -34.000000 -4.709984E+01
50.000000 -36.000000 -3.428852E+01
50.000000 -38.000000 -2.883178E+01
50.000000 -40.000000 -2.182728E+01
52.000000 40.000000 -4.446557E+01
52.000000 38.000000 -4.604992E+01
52.000000 36.000000 -5.304881E+01
52.000000 34.000000 -5.907283E+01
52.000000 32.000000 -5.261248E+01
52.000000 30.000000 -3.774863E+01
52.000000 28.000000 -9.691565E+00
52.000000 26.000000 2.296801E+01
52.000000 24.000000 4.330432E+01
52.000000 22.000000 3.562853E+01
52.000000 20.000000 6.459579E+00
52.000000 18.000000 -1.622540E+01
52.000000 16.000000 -1.578887E+01
52.000000 14.000000 -2.904811E+00
52.000000 12.000000 9.687547E+00
52.000000 10.000000 1.170191E+01
52.000000 8.000000 6.191910E+00
52.000000 6.000000 1.253298E+01
52.000000 4.000000 2.933203E+01
52.000000 2.000000 3.313727E+01
52.000000 0.000000 2.040365E+01
52.000000 -2.000000 2.633686E-01
52.000000 -4.000000 -9.926134E+00
52.000000 -6.000000 -6.686848E+00
52.000000 -8.000000 -3.281187E+00
52.000000 -10.000000 -1.089883E+01
52.000000 -12.000000 -3.039179E+01
52.000000 -14.000000 -5.173217E+01
52.000000 -16.000000 -7.050692E+01
52.000000 -18.000000 -8.163826E+01
52.000000 -20.000000 -7.761357E+01
52.000000 -22.000000 -5.506494E+01
52.000000 -24.000000 -3.858354E+01
52.000000 -26.000000 -4.380142E+01
52.000000 -28.000000 -6.435446E+01
52.000000 -30.000000 -7.323196E+01
52.000000 -32.000000 -6.305382E+01
52.000000 -34.000000 -4.495957E+01
52.000000 -36.000000 -3.406877E+01
52.000000 -38.000000 -3.013325E+01
52.000000 -40.000000 -2.330853E+01
54.000000 40.000000 -3.881675E+01
54.000000 38.000000 -3.757199E+01
