-10.000000 -10.000000 -3.301583E+01
-10.000000 -12.000000 -3.012338E+01
-10.000000 -14.000000 -3.727056E+01
-10.000000 -16.000000 -4.996018E+01
-10.000000 -18.000000 -5.767820E+01
-10.000000 -20.000000 -5.858830E+01
-10.000000 -22.000000 -5.295041E+01
-10.000000 -24.000000 -4.485145E+01
-10.000000 -26.000000 -4.295063E+01
-10.000000 -28.000000 -4.975617E+01
-10.000000 -30.000000 -5.171082E+01
-10.000000 -32.000000 -4.502180E+01
-10.000000 -34.000000 -3.445566E+01
-10.000000 -36.000000 -2.882876E+01
-10.000000 -38.000000 -2.769234E+01
-10.000000 -40.000000 -2.880523E+01
-8.000000 40.000000 -4.846139E+01
-8.000000 38.000000 -6.813895E+01
-8.000000 36.000000 -8.283614E+01
-8.000000 34.000000 -7.445457E+01
-8.000000 32.000000 -3.964326E+01
-8.000000 30.000000 -9.660942E+00
-8.000000 28.000000 3.306015E+00
-8.000000 26.000000 -5.496052E+00
-8.000000 24.000000 -2.800587E+01
-8.000000 22.000000 -4.293821E+01
-8.000000 20.000000 -3.506419E+01
-8.000000 18.000000 -1.415370E+01
-8.000000 16.000000 -4.605339E+00
-8.000000 14.000000 -1.115918E+01
-8.000000 12.000000 -3.438859E+01
-8.000000 10.000000 -7.227288E+01
-8.000000 8.000000 -1.067335E+02
-8.000000 6.000000 -1.140222E+02
-8.000000 4.000000 -7.924465E+01
-8.000000 2.000000 -2.933365E+01
-8.000000 0.000000 8.426132E-01
-8.000000 -2.000000 3.194809E+00
-8.000000 -4.000000 -1.252731E+01
-8.000000 -6.000000 -3.072383E+01
-8.000000 -8.000000 -3.507758E+01
-8.000000 -10.000000 -2.999539E+01
-8.000000 -12.000000 -2.254212E+01
-8.000000 -14.000000 -2.501147E+01
-8.000000 -16.000000 -3.751110E+01
-8.000000 -18.000000 -4.710193E+01
-8.000000 -20.000000 -5.061524E+01
-8.000000 -22.000000 -4.803436E+01
-8.000000 -24.000000 -4.189548E+01
-8.000000 -26.000000 -4.203227E+01
-8.000000 -28.000000 -5.073148E+01
-8.000000 -30.000000 -5.424755E+01
-8.000000 -32.000000 -4.965651E+01
-8.000000 -34.000000 -4.089639E+01
-8.000000 -36.000000 -3.568575E+01
-8.000000 -38.000000 -3.312409E+01
-8.000000 -40.000000 -3.372727E+01
-6.000000 40.000000 -4.357672E+01
-6.000000 38.000000 -6.261494E+01
-6.000000 36.000000 -7.827801E+01
-6.000000 34.000000 -7.121562E+01
-6.000000 32.000000 -3.677461E+01
-6.000000 30.000000 -1.083713E+01
-6.000000 28.000000 -4.040039E+00
-6.000000 26.000000 -1.601104E+01
-6.000000 24.000000 -4.181129E+01
-6.000000 22.000000 -5.658832E+01
-6.000000 20.000000 -4.836769E+01
-6.000000 18.000000 -2.919906E+01
-6.000000 16.000000 -2.674051E+01
-6.000000 14.000000 -4.196453E+01
-6.000000 12.000000 -7.123224E+01
-6.000000 10.000000 -1.115385E+02
-6.000000 8.000000 -1.391365E+02
-6.000000 6.000000 -1.386894E+02
-6.000000 4.000000 -9.108663E+01
-6.000000 2.000000 -2.918740E+01
-6.000000 0.000000 8.331070E+00
-6.000000 -2.000000 1.141861E+01
-6.000000 -4.000000 -5.689793E+00
-6.000000 -6.000000 -2.600987E+01
-6.000000 -8.000000 -3.051115E+01
-6.000000 -10.000000 -1.992645E+01
-6.000000 -12.000000 -5.804502E+00
-6.000000 -14.000000 -3.031654E+00
-6.000000 -16.000000 -1.427893E+01
-6.000000 -18.000000 -2.602260E+01
-6.000000 -20.000000 -3.278418E+01
-6.000000 -22.000000 -3.411889E+01
-6.000000 -24.000000 -3.272275E+01
-6.000000 -26.000000 -3.599710E+01
-6.000000 -28.000000 -4.565748E+01
-6.000000 -30.000000 -4.962262E+01
-6.000000 -32.000000 -4.537257E+01
-6.000000 -34.000000 -3.778999E+01
-6.000000 -36.000000 -3.549389E+01
-6.000000 -38.000000 -3.516445E+01
-6.000000 -40.000000 -3.731663E+01
-4.000000 40.000000 -3.512704E+01
-4.000000 38.000000 -5.196572E+01
-4.000000 36.000000 -6.437956E+01
-4.000000 34.000000 -5.793953E+01
-4.000000 32.000000 -2.877862E+01
-4.000000 30.000000 -1.190475E+01
-4.000000 28.000000 -1.424907E+01
-4.000000 26.000000 -3.116424E+01
-4.000000 24.000000 -5.924744E+01
-4.000000 22.000000 -7.065297E+01
-4.000000 20.000000 -5.906867E+01
-4.000000 18.000000 -3.962465E+01
-4.000000 16.000000 -4.034136E+01
-4.000000 14.000000 -5.980217E+01
-4.000000 12.000000 -9.363143E+01
-4.000000 10.000000 -1.354948E+02
-4.000000 8.000000 -1.590693E+02
-4.000000 6.000000 -1.552627E+02
-4.000000 4.000000 -1.019982E+02
-4.000000 2.000000 -3.470844E+01
-4.000000 0.000000 5.982422E+00
-4.000000 -2.000000 9.941017E+00
-4.000000 -4.000000 -6.932308E+00
-4.000000 -6.000000 -2.630229E+01
-4.000000 -8.000000 -2.771215E+01
-4.000000 -10.000000 -1.255593E+01
-4.000000 -12.000000 7.455761E+00
-4.000000 -14.000000 1.431812E+01
-4.000000 -16.000000 4.189732E+00
-4.000000 -18.000000 -9.557253E+00
-4.000000 -20.000000 -1.872187E+01
-4.000000 -22.000000 -2.109078E+01
-4.000000 -24.000000 -2.196104E+01
-4.000000 -26.000000 -2.757673E+01
-4.000000 -28.000000 -3.792342E+01
-4.000000 -30.000000 -4.069306E+01
-4.000000 -32.000000 -3.471343E+01
-4.000000 -34.000000 -2.733142E+01
-4.000000 -36.000000 -2.900998E+01
-4.000000 -38.000000 -3.240855E+01
-4.000000 -40.000000 -3.610671E+01
-2.000000 40.000000 -2.485898E+01
-2.000000 38.000000 -3.860316E+01
-2.000000 36.000000 -4.494630E+01
-2.000000 34.000000 -3.720078E+01
-2.000000 32.000000 -1.649233E+01
-2.000000 30.000000 -1.103748E+01
-2.000000 28.000000 -2.184771E+01
-2.000000 26.000000 -4.290406E+01
-2.000000 24.000000 -7.281202E+01
-2.000000 22.000000 -8.142811E+01
-2.000000 20.000000 -6.851267E+01
-2.000000 18.000000 -4.715760E+01
-2.000000 16.000000 -4.329349E+01
-2.000000 14.000000 -5.891103E+01
-2.000000 12.000000 -9.068544E+01
-2.000000 10.000000 -1.308039E+02
-2.000000 8.000000 -1.538957E+02
-2.000000 6.000000 -1.488474E+02
-2.000000 4.000000 -9.808321E+01
-2.000000 2.000000 -3.711851E+01
-2.000000 0.000000 -2.202442E+00
-2.000000 -2.000000 -3.254204E-01
-2.000000 -4.000000 -1.894640E+01
-2.000000 -6.000000 -3.709807E+01
-2.000000 -8.000000 -3.327410E+01
-2.000000 -10.000000 -1.457392E+01
-2.000000 -12.000000 8.209152E+00
-2.000000 -14.000000 1.666694E+01
-2.000000 -16.000000 7.248304E+00
-2.000000 -18.000000 -6.451614E+00
-2.000000 -20.000000 -1.488108E+01
-2.000000 -22.000000 -1.501943E+01
-2.000000 -24.000000 -1.428690E+01
-2.000000 -26.000000 -1.919751E+01
-2.000000 -28.000000 -2.904614E+01
-2.000000 -30.000000 -2.970167E+01
-2.000000 -32.000000 -2.064244E+01
-2.000000 -34.000000 -1.245812E+01
-2.000000 -36.000000 -1.723218E+01
-2.000000 -38.000000 -2.446779E+01
-2.000000 -40.000000 -3.008222E+01
0.000000 40.000000 -1.503790E+01
0.000000 38.000000 -2.475751E+01
0.000000 36.000000 -2.560431E+01
0.000000 34.000000 -1.551171E+01
0.000000 32.000000 -1.246670E+00
0.000000 30.000000 -4.849333E+00
0.000000 28.000000 -2.001067E+01
0.000000 26.000000 -4.220065E+01
0.000000 24.000000 -7.169415E+01
0.000000 22.000000 -8.043029E+01
0.000000 20.000000 -6.943386E+01
0.000000 18.000000 -4.676729E+01
0.000000 16.000000 -3.567527E+01
0.000000 14.000000 -4.347115E+01
0.000000 12.000000 -6.859669E+01
0.000000 10.000000 -1.056266E+02
0.000000 8.000000 -1.318992E+02
0.000000 6.000000 -1.286828E+02
0.000000 4.000000 -8.556745E+01
0.000000 2.000000 -3.696393E+01
0.000000 0.000000 -1.348058E+01
0.000000 -2.000000 -1.787567E+01
0.000000 -4.000000 -3.889967E+01
0.000000 -6.000000 -5.485408E+01
0.000000 -8.000000 -4.638896E+01
0.000000 -10.000000 -2.478486E+01
0.000000 -12.000000 -3.277393E+00
0.000000 -14.000000 4.601814E+00
0.000000 -16.000000 -2.761414E+00
0.000000 -18.000000 -1.315469E+01
0.000000 -20.000000 -1.833599E+01
0.000000 -22.000000 -1.470798E+01
0.000000 -24.000000 -1.031830E+01
0.000000 -26.000000 -1.286214E+01
0.000000 -28.000000 -2.070183E+01
0.000000 -30.000000 -1.911627E+01
0.000000 -32.000000 -6.611843E+00
0.000000 -34.000000 3.681898E+00
0.000000 -36.000000 -2.116117E+00
0.000000 -38.000000 -1.291289E+01
0.000000 -40.000000 -2.172570E+01
2.000000 40.000000 -6.071799E+00
2.000000 38.000000 -1.233249E+01
2.000000 36.000000 -1.066275E+01
2.000000 34.000000 1.376408E+00
2.000000 32.000000 1.345992E+01
2.000000 30.000000 7.075998E+00
2.000000 28.000000 -6.254013E+00
2.000000 26.000000 -2.531926E+01
2.000000 24.000000 -5.123591E+01
2.000000 22.000000 -6.288027E+01
2.000000 20.000000 -5.508053E+01
2.000000 18.000000 -3.411673E+01
2.000000 16.000000 -2.006744E+01
2.000000 14.000000 -2.286029E+01
2.000000 12.000000 -4.376356E+01
2.000000 10.000000 -8.017492E+01
2.000000 8.000000 -1.131051E+02
2.000000 6.000000 -1.167525E+02
2.000000 4.000000 -8.094284E+01
2.000000 2.000000 -3.863924E+01
2.000000 0.000000 -2.048239E+01
2.000000 -2.000000 -2.861649E+01
2.000000 -4.000000 -5.186854E+01
2.000000 -6.000000 -6.840881E+01
2.000000 -8.000000 -5.941923E+01
2.000000 -10.000000 -3.827950E+01
2.000000 -12.000000 -1.853442E+01
2.000000 -14.000000 -1.217619E+01
2.000000 -16.000000 -1.750993E+01
2.000000 -18.000000 -2.335719E+01
2.000000 -20.000000 -2.452931E+01
2.000000 -22.000000 -1.635694E+01
2.000000 -24.000000 -7.722666E+00
2.000000 -26.000000 -7.755751E+00
2.000000 -28.000000 -1.424326E+01
2.000000 -30.000000 -1.132698E+01
2.000000 -32.000000 4.190035E+00
2.000000 -34.000000 1.752633E+01
2.000000 -36.000000 1.277871E+01
2.000000 -38.000000 -1.193704E+00
2.000000 -40.000000 -1.413576E+01
4.000000 40.000000 2.280745E+00
4.000000 38.000000 -2.337978E+00
4.000000 36.000000 -1.574323E+00
4.000000 34.000000 1.125441E+01
4.000000 32.000000 2.520938E+01
4.000000 30.000000 2.276417E+01
4.000000 28.000000 1.428368E+01
4.000000 26.000000 -1.325150E-01
4.000000 24.000000 -2.051935E+01
4.000000 22.000000 -3.435235E+01
4.000000 20.000000 -2.895890E+01
4.000000 18.000000 -1.054059E+01
4.000000 16.000000 4.755402E-01
4.000000 14.000000 -3.717831E+00
4.000000 12.000000 -2.627882E+01
4.000000 10.000000 -6.632768E+01
4.000000 8.000000 -1.076791E+02
4.000000 6.000000 -1.223004E+02
4.000000 4.000000 -9.105560E+01
4.000000 2.000000 -4.470945E+01
4.000000 0.000000 -2.066565E+01
4.000000 -2.000000 -2.582753E+01
4.000000 -4.000000 -5.086440E+01
4.000000 -6.000000 -7.221827E+01
4.000000 -8.000000 -6.696183E+01
4.000000 -10.000000 -4.902329E+01
4.000000 -12.000000 -3.048575E+01
4.000000 -14.000000 -2.472120E+01
4.000000 -16.000000 -2.689871E+01
4.000000 -18.000000 -2.786649E+01
4.000000 -20.000000 -2.542120E+01
4.000000 -22.000000 -1.511211E+01
4.000000 -24.000000 -4.719219E+00
4.000000 -26.000000 -3.670286E+00
4.000000 -28.000000 -1.067831E+01
4.000000 -30.000000 -7.876913E+00
4.000000 -32.000000 9.012417E+00
4.000000 -34.000000 2.474182E+01
4.000000 -36.000000 2.205615E+01
4.000000 -38.000000 6.419079E+00
4.000000 -40.000000 -9.426769E+00
6.000000 40.000000 9.817926E+00
6.000000 38.000000 5.511606E+00
6.000000 36.000000 4.470067E+00
6.000000 34.000000 1.688089E+01
6.000000 32.000000 3.451907E+01
6.000000 30.000000 3.758867E+01
6.000000 28.000000 3.150280E+01
6.000000 26.000000 1.937325E+01
6.000000 24.000000 4.349274E+00
6.000000 22.000000 -8.082815E+00
6.000000 20.000000 -3.361361E+00
6.000000 18.000000 1.176296E+01
6.000000 16.000000 1.783548E+01
6.000000 14.000000 1.023106E+01
6.000000 12.000000 -1.546939E+01
6.000000 10.000000 -6.044651E+01
6.000000 8.000000 -1.096192E+02
6.000000 6.000000 -1.366719E+02
6.000000 4.000000 -1.111359E+02
6.000000 2.000000 -5.720723E+01
6.000000 0.000000 -1.988694E+01
6.000000 -2.000000 -1.451415E+01
6.000000 -4.000000 -3.698320E+01
6.000000 -6.000000 -6.337279E+01
6.000000 -8.000000 -6.376357E+01
6.000000 -10.000000 -5.100330E+01
6.000000 -12.000000 -3.484285E+01
6.000000 -14.000000 -2.774732E+01
6.000000 -16.000000 -2.672684E+01
6.000000 -18.000000 -2.401764E+01
6.000000 -20.000000 -1.879606E+01
6.000000 -22.000000 -9.677282E+00
6.000000 -24.000000 -1.739441E+00
6.000000 -26.000000 -2.899536E+00
6.000000 -28.000000 -1.158473E+01
6.000000 -30.000000 -9.971245E+00
6.000000 -32.000000 5.972654E+00
6.000000 -34.000000 2.229486E+01
6.000000 -36.000000 2.137448E+01
6.000000 -38.000000 7.366082E+00
6.000000 -40.000000 -7.238586E+00
8.000000 40.000000 1.803372E+01
8.000000 38.000000 1.388540E+01
8.000000 36.000000 1.199277E+01
8.000000 34.000000 2.269033E+01
8.000000 32.000000 3.902848E+01
8.000000 30.000000 4.187274E+01
8.000000 28.000000 3.478544E+01
8.000000 26.000000 2.368552E+01
8.000000 24.000000 1.179514E+01
8.000000 22.000000 2.354601E+00
8.000000 20.000000 7.653984E+00
8.000000 18.000000 1.971849E+01
8.000000 16.000000 2.440732E+01
8.000000 14.000000 1.705323E+01
8.000000 12.000000 -7.024910E+00
8.000000 10.000000 -5.206755E+01
8.000000 8.000000 -1.057350E+02
8.000000 6.000000 -1.423556E+02
8.000000 4.000000 -1.266861E+02
8.000000 2.000000 -7.114720E+01
8.000000 0.000000 -2.107577E+01
8.000000 -2.000000 -1.472183E+00
8.000000 -4.000000 -1.499569E+01
8.000000 -6.000000 -4.067072E+01
8.000000 -8.000000 -4.655583E+01
8.000000 -10.000000 -4.090980E+01
8.000000 -12.000000 -3.094760E+01
8.000000 -14.000000 -2.593445E+01
8.000000 -16.000000 -2.382440E+01
8.000000 -18.000000 -1.989677E+01
8.000000 -20.000000 -1.390815E+01
8.000000 -22.000000 -7.188326E+00
8.000000 -24.000000 -3.330793E+00
8.000000 -26.000000 -7.128355E+00
8.000000 -28.000000 -1.656353E+01
8.000000 -30.000000 -1.673973E+01
8.000000 -32.000000 -3.228028E+00
8.000000 -34.000000 1.220485E+01
8.000000 -36.000000 1.282780E+01
8.000000 -38.000000 3.304614E+00
8.000000 -40.000000 -6.692204E+00
10.000000 40.000000 2.585674E+01
10.000000 38.000000 2.191254E+01
10.000000 36.000000 2.044069E+01
10.000000 34.000000 2.837168E+01
10.000000 32.000000 3.862501E+01
10.000000 30.000000 3.596737E+01
10.000000 28.000000 2.529748E+01
10.000000 26.000000 1.347728E+01
10.000000 24.000000 4.278145E-01
10.000000 22.000000 -6.995050E+00
10.000000 20.000000 3.354607E-01
10.000000 18.000000 1.398802E+01
10.000000 16.000000 2.197974E+01
10.000000 14.000000 1.874100E+01
10.000000 12.000000 -5.773964E-01
10.000000 10.000000 -4.049801E+01
10.000000 8.000000 -9.459716E+01
10.000000 6.000000 -1.362663E+02
10.000000 4.000000 -1.323920E+02
10.000000 2.000000 -8.315131E+01
10.000000 0.000000 -2.686254E+01
10.000000 -2.000000 6.612484E+00
10.000000 -4.000000 7.495842E+00
10.000000 -6.000000 -1.057306E+01
10.000000 -8.000000 -1.948078E+01
10.000000 -10.000000 -2.089640E+01
10.000000 -12.000000 -1.949208E+01
10.000000 -14.000000 -2.035074E+01
10.000000 -16.000000 -2.155857E+01
10.000000 -18.000000 -2.006186E+01
10.000000 -20.000000 -1.593794E+01
10.000000 -22.000000 -1.166971E+01
10.000000 -24.000000 -1.045287E+01
10.000000 -26.000000 -1.497843E+01
10.000000 -28.000000 -2.398751E+01
10.000000 -30.000000 -2.594705E+01
10.000000 -32.000000 -1.578304E+01
10.000000 -34.000000 -2.288791E+00
10.000000 -36.000000 6.958017E-01
10.000000 -38.000000 -3.279613E+00
10.000000 -40.000000 -8.225581E+00
12.000000 40.000000 2.817885E+01
12.000000 38.000000 2.674489E+01
12.000000 36.000000 2.793801E+01
12.000000 34.000000 3.298619E+01
12.000000 32.000000 3.787419E+01
12.000000 30.000000 3.043659E+01
12.000000 28.000000 1.487562E+01
12.000000 26.000000 -1.768575E+00
12.000000 24.000000 -2.123141E+01
12.000000 22.000000 -2.952982E+01
12.000000 20.000000 -2.078077E+01
12.000000 18.000000 -2.192883E+00
12.000000 16.000000 1.073315E+01
12.000000 14.000000 1.235215E+01
12.000000 12.000000 -2.817930E+00
12.000000 10.000000 -3.622749E+01
12.000000 8.000000 -8.662915E+01
12.000000 6.000000 -1.292496E+02
12.000000 4.000000 -1.343793E+02
12.000000 2.000000 -9.370884E+01
12.000000 0.000000 -3.601810E+01
12.000000 -2.000000 1.108907E+01
12.000000 -4.000000 2.870804E+01
12.000000 -6.000000 2.062408E+01
12.000000 -8.000000 1.151394E+01
12.000000 -10.000000 4.963718E+00
12.000000 -12.000000 -7.063675E-02
12.000000 -14.000000 -6.754025E+00
12.000000 -16.000000 -1.534496E+01
12.000000 -18.000000 -2.077138E+01
12.000000 -20.000000 -2.156416E+01
12.000000 -22.000000 -1.954247E+01
12.000000 -24.000000 -1.929287E+01
12.000000 -26.000000 -2.395100E+01
12.000000 -28.000000 -3.301244E+01
12.000000 -30.000000 -3.610250E+01
12.000000 -32.000000 -2.993258E+01
12.000000 -34.000000 -1.882595E+01
12.000000 -36.000000 -1.239074E+01
12.000000 -38.000000 -1.115410E+01
12.000000 -40.000000 -1.238836E+01
14.000000 40.000000 2.431090E+01
14.000000 38.000000 2.595212E+01
14.000000 36.000000 3.019408E+01
14.000000 34.000000 3.464396E+01
14.000000 32.000000 3.864749E+01
14.000000 30.000000 3.075175E+01
14.000000 28.000000 1.146793E+01
14.000000 26.000000 -1.238034E+01
14.000000 24.000000 -4.091813E+01
14.000000 22.000000 -5.309961E+01
14.000000 20.000000 -4.603300E+01
14.000000 18.000000 -2.441084E+01
14.000000 16.000000 -7.912899E+00
14.000000 14.000000 -3.809860E+00
14.000000 12.000000 -1.626732E+01
14.000000 10.000000 -4.485319E+01
14.000000 8.000000 -8.897659E+01
14.000000 6.000000 -1.290997E+02
14.000000 4.000000 -1.382311E+02
14.000000 2.000000 -1.040029E+02
14.000000 0.000000 -4.590096E+01
14.000000 -2.000000 1.300549E+01
14.000000 -4.000000 4.843965E+01
14.000000 -6.000000 5.189392E+01
14.000000 -8.000000 4.350154E+01
14.000000 -10.000000 3.568428E+01
14.000000 -12.000000 2.775879E+01
14.000000 -14.000000 1.554284E+01
14.000000 -16.000000 -2.760391E+00
14.000000 -18.000000 -1.909191E+01
14.000000 -20.000000 -2.785009E+01
14.000000 -22.000000 -2.892824E+01
14.000000 -24.000000 -2.912545E+01
14.000000 -26.000000 -3.318654E+01
14.000000 -28.000000 -4.253414E+01
14.000000 -30.000000 -4.638676E+01
14.000000 -32.000000 -4.325872E+01
14.000000 -34.000000 -3.409811E+01
14.000000 -36.000000 -2.460365E+01
14.000000 -38.000000 -1.923084E+01
14.000000 -40.000000 -1.789389E+01
16.000000 40.000000 1.700962E+01
16.000000 38.000000 1.739917E+01
16.000000 36.000000 2.237928E+01
16.000000 34.000000 3.082677E+01
16.000000 32.000000 3.955945E+01
16.000000 30.000000 3.474900E+01
16.000000 28.000000 1.390295E+01
16.000000 26.000000 -1.499868E+01
16.000000 24.000000 -4.967384E+01
16.000000 22.000000 -6.583182E+01
16.000000 20.000000 -6.199148E+01
16.000000 18.000000 -4.106795E+01
16.000000 16.000000 -2.369567E+01
16.000000 14.000000 -2.016512E+01
16.000000 12.000000 -3.266917E+01
16.000000 10.000000 -6.092108E+01
16.000000 8.000000 -9.982535E+01
16.000000 6.000000 -1.363726E+02
16.000000 4.000000 -1.469087E+02
16.000000 2.000000 -1.169519E+02
16.000000 0.000000 -5.801537E+01
16.000000 -2.000000 1.035640E+01
16.000000 -4.000000 6.148072E+01
16.000000 -6.000000 7.595690E+01
16.000000 -8.000000 7.087182E+01
16.000000 -10.000000 6.743054E+01
16.000000 -12.000000 6.169127E+01
16.000000 -14.000000 4.553600E+01
16.000000 -16.000000 1.507173E+01
16.000000 -18.000000 -1.593755E+01
16.000000 -20.000000 -3.549688E+01
16.000000 -22.000000 -4.079249E+01
16.000000 -24.000000 -3.990899E+01
16.000000 -26.000000 -4.202957E+01
16.000000 -28.000000 -5.148657E+01
16.000000 -30.000000 -5.588333E+01
16.000000 -32.000000 -5.383334E+01
16.000000 -34.000000 -4.577860E+01
16.000000 -36.000000 -3.471839E+01
16.000000 -38.000000 -2.615148E+01
16.000000 -40.000000 -2.254655E+01
18.000000 40.000000 6.189592E+00
18.000000 38.000000 3.362064E+00
18.000000 36.000000 9.976783E+00
18.000000 34.000000 2.560893E+01
18.000000 32.000000 3.912740E+01
18.000000 30.000000 3.636001E+01
18.000000 28.000000 1.563692E+01
18.000000 26.000000 -1.298665E+01
18.000000 24.000000 -4.671265E+01
18.000000 22.000000 -6.484834E+01
18.000000 20.000000 -6.272549E+01
18.000000 18.000000 -4.300901E+01
18.000000 16.000000 -2.729241E+01
18.000000 14.000000 -2.597164E+01
18.000000 12.000000 -4.023072E+01
18.000000 10.000000 -7.228098E+01
18.000000 8.000000 -1.126562E+02
18.000000 6.000000 -1.507588E+02
18.000000 4.000000 -1.618175E+02
18.000000 2.000000 -1.327831E+02
18.000000 0.000000 -7.330951E+01
18.000000 -2.000000 7.361145E-01
18.000000 -4.000000 6.113124E+01
18.000000 -6.000000 8.496411E+01
18.000000 -8.000000 8.939994E+01
18.000000 -10.000000 9.548463E+01
18.000000 -12.000000 9.813594E+01
18.000000 -14.000000 8.106969E+01
18.000000 -16.000000 3.664675E+01
18.000000 -18.000000 -1.238414E+01
18.000000 -20.000000 -4.515905E+01
18.000000 -22.000000 -5.456494E+01
18.000000 -24.000000 -5.038231E+01
18.000000 -26.000000 -4.946959E+01
18.000000 -28.000000 -5.850071E+01
18.000000 -30.000000 -6.200838E+01
18.000000 -32.000000 -5.916396E+01
18.000000 -34.000000 -5.115500E+01
18.000000 -36.000000 -4.024578E+01
18.000000 -38.000000 -3.112367E+01
18.000000 -40.000000 -2.708191E+01
20.000000 40.000000 -6.508902E+00
20.000000 38.000000 -1.024846E+01
20.000000 36.000000 -2.700863E-01
20.000000 34.000000 2.039963E+01
20.000000 32.000000 3.451304E+01
20.000000 30.000000 3.265566E+01
20.000000 28.000000 1.396737E+01
20.000000 26.000000 -1.091969E+01
20.000000 24.000000 -3.786938E+01
20.000000 22.000000 -5.481839E+01
20.000000 20.000000 -5.236784E+01
20.000000 18.000000 -3.544046E+01
20.000000 16.000000 -2.133992E+01
20.000000 14.000000 -1.903215E+01
20.000000 12.000000 -3.369126E+01
20.000000 10.000000 -6.966441E+01
20.000000 8.000000 -1.188366E+02
20.000000 6.000000 -1.656303E+02
20.000000 4.000000 -1.807030E+02
20.000000 2.000000 -1.535719E+02
20.000000 0.000000 -9.628450E+01
20.000000 -2.000000 -2.087697E+01
20.000000 -4.000000 4.547501E+01
20.000000 -6.000000 8.205830E+01
20.000000 -8.000000 1.025891E+02
20.000000 -10.000000 1.215496E+02
20.000000 -12.000000 1.354598E+02
20.000000 -14.000000 1.182506E+02
20.000000 -16.000000 6.071105E+01
20.000000 -18.000000 -6.331730E+00
20.000000 -20.000000 -5.275800E+01
20.000000 -22.000000 -6.558065E+01
20.000000 -24.000000 -5.751953E+01
20.000000 -26.000000 -5.278120E+01
20.000000 -28.000000 -6.093796E+01
20.000000 -30.000000 -6.256304E+01
20.000000 -32.000000 -5.791735E+01
20.000000 -34.000000 -4.980799E+01
20.000000 -36.000000 -4.179186E+01
20.000000 -38.000000 -3.569496E+01
20.000000 -40.000000 -3.290446E+01
22.000000 40.000000 -1.511404E+01
22.000000 38.000000 -1.881369E+01
22.000000 36.000000 -8.583019E+00
22.000000 34.000000 1.188625E+01
22.000000 32.000000 2.512851E+01
22.000000 30.000000 2.406550E+01
22.000000 28.000000 8.173322E+00
22.000000 26.000000 -1.214116E+01
22.000000 24.000000 -3.220637E+01
22.000000 22.000000 -4.667602E+01
22.000000 20.000000 -4.362011E+01
22.000000 18.000000 -2.848309E+01
22.000000 16.000000 -1.384568E+01
22.000000 14.000000 -7.793940E+00
22.000000 12.000000 -1.862791E+01
22.000000 10.000000 -5.357106E+01
22.000000 8.000000 -1.124738E+02
22.000000 6.000000 -1.708690E+02
22.000000 4.000000 -1.980454E+02
22.000000 2.000000 -1.789535E+02
22.000000 0.000000 -1.260089E+02
22.000000 -2.000000 -4.915408E+01
22.000000 -4.000000 2.524111E+01
22.000000 -6.000000 7.869977E+01
22.000000 -8.000000 1.176936E+02
22.000000 -10.000000 1.508474E+02
22.000000 -12.000000 1.717592E+02
22.000000 -14.000000 1.523972E+02
22.000000 -16.000000 8.390813E+01
22.000000 -18.000000 2.808515E+00
22.000000 -20.000000 -5.405315E+01
22.000000 -22.000000 -6.992324E+01
22.000000 -24.000000 -5.994345E+01
22.000000 -26.000000 -5.118417E+01
22.000000 -28.000000 -5.726726E+01
22.000000 -30.000000 -5.707569E+01
22.000000 -32.000000 -5.100460E+01
22.000000 -34.000000 -4.434859E+01
22.000000 -36.000000 -4.178668E+01
22.000000 -38.000000 -4.078091E+01
22.000000 -40.000000 -3.967432E+01
24.000000 40.000000 -1.707969E+01
24.000000 38.000000 -2.050836E+01
24.000000 36.000000 -1.257075E+01
24.000000 34.000000 4.015806E+00
24.000000 32.000000 1.522051E+01
24.000000 30.000000 1.250662E+01
24.000000 28.000000 -2.149750E+00
24.000000 26.000000 -1.853333E+01
24.000000 24.000000 -3.539180E+01
24.000000 22.000000 -4.849234E+01
24.000000 20.000000 -4.589714E+01
24.000000 18.000000 -3.111731E+01
24.000000 16.000000 -1.519074E+01
24.000000 14.000000 -4.903549E+00
24.000000 12.000000 -8.478972E+00
24.000000 10.000000 -3.711383E+01
24.000000 8.000000 -1.006879E+02
24.000000 6.000000 -1.673735E+02
24.000000 4.000000 -2.085719E+02
24.000000 2.000000 -1.988176E+02
24.000000 0.000000 -1.489740E+02
24.000000 -2.000000 -6.793539E+01
24.000000 -4.000000 1.783714E+01
24.000000 -6.000000 8.727170E+01
24.000000 -8.000000 1.405679E+02
24.000000 -10.000000 1.852680E+02
24.000000 -12.000000 2.054443E+02
24.000000 -14.000000 1.793410E+02
24.000000 -16.000000 1.004368E+02
24.000000 -18.000000 9.300034E+00
24.000000 -20.000000 -5.296074E+01
24.000000 -22.000000 -7.040989E+01
24.000000 -24.000000 -5.936961E+01
24.000000 -26.000000 -4.677985E+01
24.000000 -28.000000 -4.938526E+01
24.000000 -30.000000 -4.706633E+01
24.000000 -32.000000 -3.999836E+01
24.000000 -34.000000 -3.545322E+01
24.000000 -36.000000 -3.953961E+01
24.000000 -38.000000 -4.483485E+01
24.000000 -40.000000 -4.640172E+01
26.000000 40.000000 -1.473308E+01
26.000000 38.000000 -1.680479E+01
26.000000 36.000000 -9.991425E+00
26.000000 34.000000 2.552965E+00
26.000000 32.000000 9.966380E+00
26.000000 30.000000 3.749470E+00
26.000000 28.000000 -1.165333E+01
26.000000 26.000000 -2.681723E+01
26.000000 24.000000 -4.429667E+01
26.000000 22.000000 -5.761378E+01
26.000000 20.000000 -5.629894E+01
26.000000 18.000000 -4.269361E+01
26.000000 16.000000 -2.784635E+01
26.000000 14.000000 -1.714209E+01
26.000000 12.000000 -1.803476E+01
26.000000 10.000000 -4.301115E+01
26.000000 8.000000 -1.046988E+02
26.000000 6.000000 -1.710225E+02
26.000000 4.000000 -2.143321E+02
26.000000 2.000000 -2.033816E+02
26.000000 0.000000 -1.478226E+02
26.000000 -2.000000 -5.718773E+01
26.000000 -4.000000 3.855629E+01
26.000000 -6.000000 1.137699E+02
26.000000 -8.000000 1.693121E+02
26.000000 -10.000000 2.167668E+02
26.000000 -12.000000 2.311702E+02
26.000000 -14.000000 1.946003E+02
26.000000 -16.000000 1.058577E+02
26.000000 -18.000000 8.025866E+00
26.000000 -20.000000 -5.600074E+01
26.000000 -22.000000 -7.208511E+01
26.000000 -24.000000 -5.760597E+01
26.000000 -26.000000 -4.058581E+01
26.000000 -28.000000 -3.895871E+01
26.000000 -30.000000 -3.331266E+01
26.000000 -32.000000 -2.572544E+01
26.000000 -34.000000 -2.429141E+01
26.000000 -36.000000 -3.538232E+01
26.000000 -38.000000 -4.715849E+01
26.000000 -40.000000 -5.208007E+01
28.000000 40.000000 -1.125116E+01
28.000000 38.000000 -1.122150E+01
28.000000 36.000000 -3.838608E+00
28.000000 34.000000 7.203457E+00
28.000000 32.000000 1.235276E+01
28.000000 30.000000 4.288158E+00
28.000000 28.000000 -1.243877E+01
28.000000 26.000000 -2.941774E+01
28.000000 24.000000 -5.135237E+01
28.000000 22.000000 -6.801503E+01
28.000000 20.000000 -6.879458E+01
28.000000 18.000000 -5.665107E+01
28.000000 16.000000 -4.567250E+01
28.000000 14.000000 -4.079898E+01
28.000000 12.000000 -4.688095E+01
28.000000 10.000000 -7.352615E+01
28.000000 8.000000 -1.291576E+02
28.000000 6.000000 -1.879758E+02
28.000000 4.000000 -2.185143E+02
28.000000 2.000000 -1.936090E+02
28.000000 0.000000 -1.234580E+02
28.000000 -2.000000 -2.111855E+01
28.000000 -4.000000 7.882034E+01
28.000000 -6.000000 1.487279E+02
28.000000 -8.000000 1.945402E+02
28.000000 -10.000000 2.350012E+02
28.000000 -12.000000 2.411589E+02
28.000000 -14.000000 1.953761E+02
28.000000 -16.000000 1.008308E+02
28.000000 -18.000000 1.456938E+00
28.000000 -20.000000 -6.170134E+01
28.000000 -22.000000 -7.556447E+01
28.000000 -24.000000 -5.659129E+01
28.000000 -26.000000 -3.422043E+01
28.000000 -28.000000 -2.682390E+01
28.000000 -30.000000 -1.672294E+01
28.000000 -32.000000 -9.496658E+00
28.000000 -34.000000 -1.288752E+01
28.000000 -36.000000 -3.073475E+01
28.000000 -38.000000 -4.814040E+01
28.000000 -40.000000 -5.629101E+01
30.000000 40.000000 -8.627312E+00
30.000000 38.000000 -6.273350E+00
30.000000 36.000000 3.839968E+00
30.000000 34.000000 1.767340E+01
30.000000 32.000000 2.345759E+01
30.000000 30.000000 1.481282E+01
30.000000 28.000000 -4.947857E+00
30.000000 26.000000 -2.657246E+01
30.000000 24.000000 -5.481224E+01
30.000000 22.000000 -7.551925E+01
30.000000 20.000000 -7.856018E+01
30.000000 18.000000 -6.784145E+01
30.000000 16.000000 -6.151458E+01
30.000000 14.000000 -6.469209E+01
30.000000 12.000000 -7.898519E+01
30.000000 10.000000 -1.101432E+02
30.000000 8.000000 -1.570472E+02
30.000000 6.000000 -2.044196E+02
30.000000 4.000000 -2.166328E+02
30.000000 2.000000 -1.752865E+02
30.000000 0.000000 -9.180928E+01
30.000000 -2.000000 1.574230E+01
30.000000 -4.000000 1.114733E+02
30.000000 -6.000000 1.705046E+02
30.000000 -8.000000 2.043795E+02
30.000000 -10.000000 2.355520E+02
30.000000 -12.000000 2.351314E+02
30.000000 -14.000000 1.858640E+02
30.000000 -16.000000 9.281259E+01
30.000000 -18.000000 -3.246454E+00
30.000000 -20.000000 -6.519026E+01
30.000000 -22.000000 -7.975311E+01
30.000000 -24.000000 -5.915126E+01
30.000000 -26.000000 -3.212021E+01
30.000000 -28.000000 -1.727010E+01
30.000000 -30.000000 -2.545529E+00
30.000000 -32.000000 5.054910E+00
30.000000 -34.000000 -1.647619E+00
30.000000 -36.000000 -2.469935E+01
30.000000 -38.000000 -4.660677E+01
30.000000 -40.000000 -5.757310E+01
32.000000 40.000000 -6.137081E+00
32.000000 38.000000 -2.257259E+00
32.000000 36.000000 1.132347E+01
32.000000 34.000000 3.084439E+01
32.000000 32.000000 3.840099E+01
32.000000 30.000000 2.806885E+01
32.000000 28.000000 4.042398E+00
32.000000 26.000000 -2.272426E+01
32.000000 24.000000 -5.610233E+01
32.000000 22.000000 -7.889482E+01
32.000000 20.000000 -8.317904E+01
32.000000 18.000000 -7.352587E+01
32.000000 16.000000 -6.865512E+01
32.000000 14.000000 -7.587311E+01
32.000000 12.000000 -9.515302E+01
32.000000 10.000000 -1.280073E+02
32.000000 8.000000 -1.661361E+02
32.000000 6.000000 -2.020783E+02
32.000000 4.000000 -2.005164E+02
32.000000 2.000000 -1.505104E+02
32.000000 0.000000 -6.512233E+01
32.000000 -2.000000 3.501220E+01
32.000000 -4.000000 1.172347E+02
32.000000 -6.000000 1.634811E+02
32.000000 -8.000000 1.900176E+02
32.000000 -10.000000 2.164085E+02
32.000000 -12.000000 2.151902E+02
32.000000 -14.000000 1.710037E+02
32.000000 -16.000000 8.649450E+01
32.000000 -18.000000 -3.876531E+00
32.000000 -20.000000 -6.531173E+01
32.000000 -22.000000 -8.282300E+01
32.000000 -24.000000 -6.334432E+01
32.000000 -26.000000 -3.383637E+01
32.000000 -28.000000 -1.316424E+01
32.000000 -30.000000 5.269645E+00
32.000000 -32.000000 1.479395E+01
32.000000 -34.000000 7.223198E+00
32.000000 -36.000000 -1.862488E+01
32.000000 -38.000000 -4.196170E+01
32.000000 -40.000000 -5.377299E+01
34.000000 40.000000 -2.989960E+00
34.000000 38.000000 2.000916E+00
34.000000 36.000000 1.692526E+01
34.000000 34.000000 3.943770E+01
34.000000 32.000000 4.841793E+01
34.000000 30.000000 3.632596E+01
34.000000 28.000000 9.997078E+00
34.000000 26.000000 -1.875519E+01
34.000000 24.000000 -5.389523E+01
34.000000 22.000000 -7.669846E+01
34.000000 20.000000 -8.107343E+01
34.000000 18.000000 -7.185958E+01
34.000000 16.000000 -6.461104E+01
34.000000 14.000000 -6.933545E+01
34.000000 12.000000 -8.653545E+01
34.000000 10.000000 -1.150206E+02
34.000000 8.000000 -1.462366E+02
34.000000 6.000000 -1.735578E+02
34.000000 4.000000 -1.673438E+02
34.000000 2.000000 -1.197240E+02
34.000000 0.000000 -4.522583E+01
34.000000 -2.000000 3.722903E+01
34.000000 -4.000000 1.008159E+02
34.000000 -6.000000 1.339165E+02
34.000000 -8.000000 1.550482E+02
34.000000 -10.000000 1.783815E+02
34.000000 -12.000000 1.809926E+02
34.000000 -14.000000 1.474975E+02
34.000000 -16.000000 7.608194E+01
34.000000 -18.000000 -4.824179E+00
34.000000 -20.000000 -6.219875E+01
34.000000 -22.000000 -7.949160E+01
34.000000 -24.000000 -6.130208E+01
34.000000 -26.000000 -3.233924E+01
34.000000 -28.000000 -1.066204E+01
34.000000 -30.000000 8.546768E+00
34.000000 -32.000000 1.900358E+01
34.000000 -34.000000 1.102678E+01
34.000000 -36.000000 -1.473390E+01
34.000000 -38.000000 -3.621927E+01
34.000000 -40.000000 -4.679096E+01
36.000000 40.000000 4.780464E-01
36.000000 38.000000 5.907574E+00
36.000000 36.000000 1.994875E+01
36.000000 34.000000 4.105885E+01
36.000000 32.000000 5.017901E+01
36.000000 30.000000 3.780561E+01
36.000000 28.000000 1.157807E+01
36.000000 26.000000 -1.625503E+01
36.000000 24.000000 -4.903140E+01
36.000000 22.000000 -6.901367E+01
36.000000 20.000000 -7.135379E+01
36.000000 18.000000 -6.037743E+01
36.000000 16.000000 -4.807792E+01
36.000000 14.000000 -4.570082E+01
36.000000 12.000000 -5.608060E+01
36.000000 10.000000 -7.740888E+01
36.000000 8.000000 -1.048832E+02
36.000000 6.000000 -1.276384E+02
36.000000 4.000000 -1.223314E+02
36.000000 2.000000 -8.252948E+01
36.000000 0.000000 -2.514366E+01
36.000000 -2.000000 3.543936E+01
36.000000 -4.000000 7.691536E+01
36.000000 -6.000000 9.392054E+01
36.000000 -8.000000 1.073815E+02
36.000000 -10.000000 1.273078E+02
36.000000 -12.000000 1.362326E+02
36.000000 -14.000000 1.142089E+02
36.000000 -16.000000 5.826579E+01
36.000000 -18.000000 -7.151154E+00
36.000000 -20.000000 -5.342218E+01
36.000000 -22.000000 -6.547716E+01
36.000000 -24.000000 -4.847529E+01
36.000000 -26.000000 -2.380991E+01
36.000000 -28.000000 -6.758700E+00
36.000000 -30.000000 9.673813E+00
36.000000 -32.000000 1.826399E+01
36.000000 -34.000000 1.009355E+01
36.000000 -36.000000 -1.284229E+01
36.000000 -38.000000 -3.166595E+01
36.000000 -40.000000 -4.030380E+01
38.000000 40.000000 3.520340E+00
38.000000 38.000000 8.066906E+00
38.000000 36.000000 2.010563E+01
38.000000 34.000000 3.812274E+01
38.000000 32.000000 4.666294E+01
38.000000 30.000000 3.522073E+01
38.000000 28.000000 1.156951E+01
38.000000 26.000000 -1.309537E+01
38.000000 24.000000 -4.074587E+01
38.000000 22.000000 -5.577145E+01
38.000000 20.000000 -5.433986E+01
38.000000 18.000000 -3.982442E+01
38.000000 16.000000 -2.266108E+01
38.000000 14.000000 -1.333138E+01
38.000000 12.000000 -1.607595E+01
38.000000 10.000000 -3.012236E+01
38.000000 8.000000 -5.540213E+01
38.000000 6.000000 -7.599593E+01
38.000000 4.000000 -7.238771E+01
38.000000 2.000000 -4.033260E+01
38.000000 0.000000 5.182967E-01
38.000000 -2.000000 3.719295E+01
38.000000 -4.000000 5.540225E+01
38.000000 -6.000000 5.470342E+01
38.000000 -8.000000 5.769033E+01
38.000000 -10.000000 7.249664E+01
38.000000 -12.000000 8.712003E+01
38.000000 -14.000000 7.702988E+01
38.000000 -16.000000 3.919366E+01
38.000000 -18.000000 -5.594687E+00
38.000000 -20.000000 -3.681118E+01
38.000000 -22.000000 -4.291316E+01
38.000000 -24.000000 -2.925310E+01
38.000000 -26.000000 -1.383212E+01
38.000000 -28.000000 -5.786163E+00
38.000000 -30.000000 5.806430E+00
38.000000 -32.000000 1.205702E+01
38.000000 -34.000000 5.220104E+00
38.000000 -36.000000 -1.236294E+01
38.000000 -38.000000 -2.688279E+01
38.000000 -40.000000 -3.298941E+01
40.000000 40.000000 5.395458E+00
40.000000 38.000000 8.580482E+00
40.000000 36.000000 1.842480E+01
40.000000 34.000000 3.347954E+01
40.000000 32.000000 4.158187E+01
40.000000 30.000000 3.280186E+01
40.000000 28.000000 1.395439E+01
40.000000 26.000000 -5.268417E+00
40.000000 24.000000 -2.634334E+01
40.000000 22.000000 -3.644689E+01
40.000000 20.000000 -3.087469E+01
40.000000 18.000000 -1.097543E+01
40.000000 16.000000 8.805405E+00
40.000000 14.000000 2.067109E+01
40.000000 12.000000 2.272421E+01
40.000000 10.000000 1.368906E+01
40.000000 8.000000 -9.652115E+00
40.000000 6.000000 -2.890208E+01
40.000000 4.000000 -2.788515E+01
40.000000 2.000000 -3.764707E+00
40.000000 0.000000 2.246945E+01
40.000000 -2.000000 3.692028E+01
40.000000 -4.000000 3.387701E+01
40.000000 -6.000000 1.581137E+01
40.000000 -8.000000 8.824672E+00
40.000000 -10.000000 1.882321E+01
40.000000 -12.000000 4.022058E+01
40.000000 -14.000000 4.664184E+01
40.000000 -16.000000 3.154962E+01
40.000000 -18.000000 9.470035E+00
40.000000 -20.000000 -8.211365E+00
40.000000 -22.000000 -1.402266E+01
40.000000 -24.000000 -1.088188E+01
40.000000 -26.000000 -9.834764E+00
40.000000 -28.000000 -1.212361E+01
40.000000 -30.000000 -6.276800E+00
40.000000 -32.000000 6.143761E-01
40.000000 -34.000000 -1.041376E+00
40.000000 -36.000000 -1.084479E+01
40.000000 -38.000000 -1.976370E+01
40.000000 -40.000000 -2.363712E+01
42.000000 40.000000 4.737114E+00
42.000000 38.000000 8.599667E+00
42.000000 36.000000 1.752231E+01
42.000000 34.000000 3.142843E+01
42.000000 32.000000 4.059413E+01
42.000000 30.000000 3.508524E+01
42.000000 28.000000 2.039819E+01
42.000000 26.000000 7.010210E+00
42.000000 24.000000 -6.885746E+00
42.000000 22.000000 -1.317040E+01
42.000000 20.000000 -3.150305E+00
42.000000 18.000000 2.165161E+01
42.000000 16.000000 4.116490E+01
42.000000 14.000000 5.162915E+01
42.000000 12.000000 5.347620E+01
42.000000 10.000000 4.560580E+01
42.000000 8.000000 2.199854E+01
42.000000 6.000000 1.830273E+00
42.000000 4.000000 -1.195794E+00
42.000000 2.000000 1.515338E+01
42.000000 0.000000 2.866061E+01
42.000000 -2.000000 2.459878E+01
42.000000 -4.000000 2.156151E+00
42.000000 -6.000000 -3.009759E+01
42.000000 -8.000000 -4.142793E+01
42.000000 -10.000000 -3.216243E+01
42.000000 -12.000000 2.857012E+00
42.000000 -14.000000 3.327798E+01
42.000000 -16.000000 4.535174E+01
42.000000 -18.000000 4.399046E+01
42.000000 -20.000000 3.310945E+01
42.000000 -22.000000 1.984471E+01
42.000000 -24.000000 4.276136E+00
42.000000 -26.000000 -1.169099E+01
42.000000 -28.000000 -2.402038E+01
42.000000 -30.000000 -2.342873E+01
42.000000 -32.000000 -1.233372E+01
42.000000 -34.000000 -5.042368E+00
42.000000 -36.000000 -6.380051E+00
42.000000 -38.000000 -1.147736E+01
42.000000 -40.000000 -1.464260E+01
44.000000 40.000000 1.810150E-01
44.000000 38.000000 7.968178E+00
44.000000 36.000000 2.058826E+01
44.000000 34.000000 3.808254E+01
44.000000 32.000000 4.982719E+01
44.000000 30.000000 4.430400E+01
44.000000 28.000000 2.932919E+01
44.000000 26.000000 1.919271E+01
44.000000 24.000000 1.143334E+01
44.000000 22.000000 9.217245E+00
44.000000 20.000000 2.264496E+01
44.000000 18.000000 4.656666E+01
44.000000 16.000000 6.199483E+01
44.000000 14.000000 6.852284E+01
44.000000 12.000000 6.627895E+01
44.000000 10.000000 5.597899E+01
44.000000 8.000000 2.993999E+01
44.000000 6.000000 7.516277E+00
44.000000 4.000000 2.436378E+00
44.000000 2.000000 1.507422E+01
44.000000 0.000000 2.025666E+01
44.000000 -2.000000 3.002935E+00
44.000000 -4.000000 -3.483573E+01
44.000000 -6.000000 -7.668828E+01
44.000000 -8.000000 -8.622336E+01
44.000000 -10.000000 -7.024550E+01
44.000000 -12.000000 -1.591318E+01
44.000000 -14.000000 3.930049E+01
44.000000 -16.000000 7.543213E+01
44.000000 -18.000000 8.816453E+01
44.000000 -20.000000 7.765348E+01
44.000000 -22.000000 5.208440E+01
44.000000 -24.000000 1.564929E+01
44.000000 -26.000000 -1.583035E+01
44.000000 -28.000000 -3.633574E+01
44.000000 -30.000000 -3.904542E+01
44.000000 -32.000000 -2.264552E+01
44.000000 -34.000000 -6.551792E+00
44.000000 -36.000000 -1.111805E+00
44.000000 -38.000000 -3.848427E+00
44.000000 -40.000000 -6.781256E+00
46.000000 40.000000 -7.330784E+00
46.000000 38.000000 5.859901E+00
46.000000 36.000000 2.770089E+01
46.000000 34.000000 5.469431E+01
46.000000 32.000000 6.886361E+01
46.000000 30.000000 5.920383E+01
46.000000 28.000000 3.922705E+01
46.000000 26.000000 2.648269E+01
46.000000 24.000000 1.934728E+01
46.000000 22.000000 1.887302E+01
46.000000 20.000000 3.249581E+01
46.000000 18.000000 5.235167E+01
46.000000 16.000000 6.198386E+01
46.000000 14.000000 6.321428E+01
46.000000 12.000000 5.708472E+01
46.000000 10.000000 4.262587E+01
46.000000 8.000000 1.508009E+01
46.000000 6.000000 -8.580461E+00
46.000000 4.000000 -1.168278E+01
46.000000 2.000000 2.143229E+00
46.000000 0.000000 5.235970E+00
46.000000 -2.000000 -1.538100E+01
46.000000 -4.000000 -5.808507E+01
46.000000 -6.000000 -1.018623E+02
46.000000 -8.000000 -1.065059E+02
46.000000 -10.000000 -8.107666E+01
46.000000 -12.000000 -1.454494E+01
46.000000 -14.000000 5.512315E+01
46.000000 -16.000000 1.038650E+02
46.000000 -18.000000 1.210470E+02
46.000000 -20.000000 1.069723E+02
46.000000 -22.000000 7.060603E+01
46.000000 -24.000000 2.026993E+01
46.000000 -26.000000 -1.980793E+01
46.000000 -28.000000 -4.275376E+01
46.000000 -30.000000 -4.600714E+01
46.000000 -32.000000 -2.600261E+01
46.000000 -34.000000 -4.856892E+00
46.000000 -36.000000 3.667635E+00
46.000000 -38.000000 1.613792E+00
46.000000 -40.000000 -1.289024E+00
48.000000 40.000000 -1.479009E+01
48.000000 38.000000 3.254623E+00
48.000000 36.000000 3.402982E+01
48.000000 34.000000 7.142470E+01
48.000000 32.000000 8.901703E+01
48.000000 30.000000 7.553776E+01
48.000000 28.000000 4.871399E+01
48.000000 26.000000 2.716908E+01
48.000000 24.000000 1.227701E+01
48.000000 22.000000 8.521444E+00
48.000000 20.000000 1.836687E+01
48.000000 18.000000 3.371508E+01
48.000000 16.000000 4.133617E+01
48.000000 14.000000 4.129879E+01
48.000000 12.000000 3.528262E+01
48.000000 10.000000 1.858229E+01
48.000000 8.000000 -8.307062E+00
48.000000 6.000000 -3.175878E+01
48.000000 4.000000 -3.105997E+01
48.000000 2.000000 -1.284638E+01
48.000000 0.000000 -4.159313E+00
48.000000 -2.000000 -1.762640E+01
48.000000 -4.000000 -5.376123E+01
48.000000 -6.000000 -9.249758E+01
48.000000 -8.000000 -9.502956E+01
48.000000 -10.000000 -6.624227E+01
48.000000 -12.000000 -1.355446E+00
48.000000 -14.000000 6.615491E+01
48.000000 -16.000000 1.119612E+02
48.000000 -18.000000 1.249627E+02
48.000000 -20.000000 1.070973E+02
48.000000 -22.000000 6.832390E+01
48.000000 -24.000000 1.770359E+01
48.000000 -26.000000 -2.057143E+01
48.000000 -28.000000 -4.036242E+01
48.000000 -30.000000 -4.180329E+01
48.000000 -32.000000 -2.049434E+01
48.000000 -34.000000 1.036818E+00
48.000000 -36.000000 7.888235E+00
48.000000 -38.000000 4.112293E+00
48.000000 -40.000000 4.871273E-01
50.000000 40.000000 -2.065897E+01
50.000000 38.000000 4.321289E-02
50.000000 36.000000 3.484294E+01
50.000000 34.000000 7.827748E+01
50.000000 32.000000 9.957945E+01
50.000000 30.000000 8.539356E+01
50.000000 28.000000 5.298102E+01
50.000000 26.000000 2.221928E+01
50.000000 24.000000 -2.440369E+00
50.000000 22.000000 -1.184313E+01
50.000000 20.000000 -6.602716E+00
50.000000 18.000000 5.668074E+00
50.000000 16.000000 1.583255E+01
50.000000 14.000000 1.922411E+01
50.000000 12.000000 1.608559E+01
50.000000 10.000000 1.779203E-01
50.000000 8.000000 -2.511073E+01
50.000000 6.000000 -4.854983E+01
50.000000 4.000000 -4.570905E+01
50.000000 2.000000 -2.247696E+01
50.000000 0.000000 -5.469623E+00
50.000000 -2.000000 -8.115688E+00
50.000000 -4.000000 -3.167448E+01
50.000000 -6.000000 -6.054990E+01
50.000000 -8.000000 -6.358804E+01
50.000000 -10.000000 -3.960994E+01
50.000000 -12.000000 1.367717E+01
50.000000 -14.000000 6.711720E+01
50.000000 -16.000000 9.874996E+01
50.000000 -18.000000 1.023225E+02
50.000000 -20.000000 8.128793E+01
50.000000 -22.000000 4.878322E+01
50.000000 -24.000000 9.980207E+00
50.000000 -26.000000 -1.851627E+01
50.000000 -28.000000 -3.314413E+01
50.000000 -30.000000 -3.209692E+01
50.000000 -32.000000 -1.086513E+01
50.000000 -34.000000 8.427595E+00
50.000000 -36.000000 1.100500E+01
50.000000 -38.000000 4.871805E+00
50.000000 -40.000000 2.809582E-01
52.000000 40.000000 -2.630834E+01
52.000000 38.000000 -7.221264E+00
52.000000 36.000000 2.659584E+01
52.000000 34.000000 7.179153E+01
52.000000 32.000000 9.642404E+01
52.000000 30.000000 8.409902E+01
52.000000 28.000000 5.025130E+01
52.000000 26.000000 1.583745E+01
52.000000 24.000000 -1.320838E+01
52.000000 22.000000 -2.603221E+01
52.000000 20.000000 -2.371552E+01
52.000000 18.000000 -9.881411E+00
52.000000 16.000000 4.079291E+00
52.000000 14.000000 1.151637E+01
52.000000 12.000000 1.161427E+01
52.000000 10.000000 -2.854591E+00
52.000000 8.000000 -2.904627E+01
52.000000 6.000000 -5.481971E+01
52.000000 4.000000 -5.248328E+01
52.000000 2.000000 -2.643226E+01
52.000000 0.000000 -4.780014E+00
52.000000 -2.000000 7.519884E-01
52.000000 -4.000000 -1.175852E+01
52.000000 -6.000000 -3.067079E+01
52.000000 -8.000000 -3.374615E+01
52.000000 -10.000000 -1.593718E+01
52.000000 -12.000000 2.335024E+01
52.000000 -14.000000 5.984544E+01
52.000000 -16.000000 7.555285E+01
52.000000 -18.000000 6.965492E+01
52.000000 -20.000000 4.734410E+01
52.000000 -22.000000 2.391610E+01
52.000000 -24.000000 1.283512E-01
52.000000 -26.000000 -1.682178E+01
52.000000 -28.000000 -2.567768E+01
52.000000 -30.000000 -2.239358E+01
52.000000 -32.000000 -2.255486E+00
52.000000 -34.000000 1.370980E+01
52.000000 -36.000000 1.249569E+01
52.000000 -38.000000 4.392471E+00
52.000000 -40.000000 -1.256718E+00
54.000000 40.000000 -3.207563E+01
54.000000 38.000000 -1.923629E+01
54.000000 36.000000 8.281023E+00
54.000000 34.000000 5.160233E+01
54.000000 32.000000 8.037330E+01
54.000000 30.000000 7.340433E+01
54.000000 28.000000 4.456919E+01
54.000000 26.000000 1.276624E+01
54.000000 24.000000 -1.535350E+01
54.000000 22.000000 -2.835723E+01
54.000000 20.000000 -2.655160E+01
54.000000 18.000000 -7.910174E+00
54.000000 16.000000 1.156761E+01
54.000000 14.000000 2.331015E+01
54.000000 12.000000 2.468254E+01
54.000000 10.000000 8.940906E+00
54.000000 8.000000 -2.173529E+01
54.000000 6.000000 -5.200250E+01
54.000000 4.000000 -5.303106E+01
54.000000 2.000000 -2.786769E+01
54.000000 0.000000 -4.842962E+00
54.000000 -2.000000 5.611339E+00
54.000000 -4.000000 -1.014764E+00
54.000000 -6.000000 -1.542762E+01
54.000000 -8.000000 -1.801129E+01
54.000000 -10.000000 -3.023421E+00
54.000000 -12.000000 2.462539E+01
54.000000 -14.000000 4.666489E+01
54.000000 -16.000000 5.144265E+01
54.000000 -18.000000 4.047359E+01
54.000000 -20.000000 2.051396E+01
54.000000 -22.000000 4.877422E+00
54.000000 -24.000000 -8.114111E+00
54.000000 -26.000000 -1.659312E+01
54.000000 -28.000000 -2.103992E+01
54.000000 -30.000000 -1.673064E+01
54.000000 -32.000000 6.308289E-01
54.000000 -34.000000 1.366877E+01
54.000000 -36.000000 1.095181E+01
54.000000 -38.000000 2.403660E+00
54.000000 -40.000000 -3.271149E+00
56.000000 40.000000 -3.292613E+01
56.000000 38.000000 -2.640638E+01
56.000000 36.000000 -8.739277E+00
56.000000 34.000000 2.749279E+01
56.000000 32.000000 5.538847E+01
56.000000 30.000000 5.523142E+01
56.000000 28.000000 3.503645E+01
56.000000 26.000000 9.778450E+00
56.000000 24.000000 -1.378370E+01
56.000000 22.000000 -2.269081E+01
56.000000 20.000000 -1.698693E+01
56.000000 18.000000 6.392759E+00
56.000000 16.000000 3.119837E+01
56.000000 14.000000 4.621457E+01
56.000000 12.000000 4.624313E+01
56.000000 10.000000 2.811173E+01
56.000000 8.000000 -5.594533E+00
56.000000 6.000000 -3.607080E+01
56.000000 4.000000 -3.964723E+01
56.000000 2.000000 -1.915348E+01
56.000000 0.000000 3.440132E-01
56.000000 -2.000000 7.064863E+00
56.000000 -4.000000 -3.195007E+00
56.000000 -6.000000 -1.925081E+01
56.000000 -8.000000 -1.970799E+01
56.000000 -10.000000 -4.442177E+00
56.000000 -12.000000 1.757502E+01
56.000000 -14.000000 3.135092E+01
56.000000 -16.000000 3.131196E+01
56.000000 -18.000000 2.053063E+01
56.000000 -20.000000 5.693941E+00
56.000000 -22.000000 -5.584843E+00
56.000000 -24.000000 -1.453922E+01
56.000000 -26.000000 -1.878272E+01
56.000000 -28.000000 -2.082451E+01
56.000000 -30.000000 -1.684226E+01
56.000000 -32.000000 -3.471008E+00
56.000000 -34.000000 7.805555E+00
56.000000 -36.000000 6.938377E+00
56.000000 -38.000000 1.016235E+00
56.000000 -40.000000 -2.658100E+00
58.000000 40.000000 -3.322838E+01
58.000000 38.000000 -3.196302E+01
58.000000 36.000000 -2.058908E+01
58.000000 34.000000 7.643763E+00
58.000000 32.000000 3.369256E+01
58.000000 30.000000 3.791453E+01
58.000000 28.000000 2.461674E+01
58.000000 26.000000 5.316747E+00
58.000000 24.000000 -1.156981E+01
58.000000 22.000000 -1.516379E+01
58.000000 20.000000 -5.402812E+00
58.000000 18.000000 1.857806E+01
58.000000 16.000000 4.320720E+01
58.000000 14.000000 5.808060E+01
58.000000 12.000000 5.676206E+01
58.000000 10.000000 4.023652E+01
58.000000 8.000000 9.905808E+00
58.000000 6.000000 -1.428231E+01
58.000000 4.000000 -1.892285E+01
58.000000 2.000000 -7.406251E+00
58.000000 0.000000 3.469550E+00
58.000000 -2.000000 1.713208E+00
58.000000 -4.000000 -1.372291E+01
58.000000 -6.000000 -3.029515E+01
58.000000 -8.000000 -2.769546E+01
58.000000 -10.000000 -1.189424E+01
58.000000 -12.000000 8.236227E+00
58.000000 -14.000000 1.906474E+01
58.000000 -16.000000 1.889927E+01
58.000000 -18.000000 1.111700E+01
58.000000 -20.000000 1.028883E+00
58.000000 -22.000000 -9.085110E+00
58.000000 -24.000000 -1.702313E+01
58.000000 -26.000000 -2.166180E+01
58.000000 -28.000000 -2.255707E+01
58.000000 -30.000000 -1.868626E+01
58.000000 -32.000000 -8.993542E+00
58.000000 -34.000000 1.635208E-01
58.000000 -36.000000 1.694420E+00
58.000000 -38.000000 5.659866E-01
58.000000 -40.000000 1.018524E-01
60.000000 40.000000 -3.578543E+01
60.000000 38.000000 -3.622612E+01
60.000000 36.000000 -2.732204E+01
60.000000 34.000000 -6.768394E+00
60.000000 32.000000 1.527139E+01
60.000000 30.000000 2.185740E+01
60.000000 28.000000 1.428118E+01
60.000000 26.000000 1.671715E+00
60.000000 24.000000 -1.029825E+01
60.000000 22.000000 -1.148144E+01
60.000000 20.000000 6.749349E-01
