-14.000000 -4.000000 8.205606E+00
-14.000000 -6.000000 -3.134262E+00
-14.000000 -8.000000 -3.363346E+00
-14.000000 -10.000000 6.275413E+00
-14.000000 -12.000000 1.871446E+01
-14.000000 -14.000000 2.421998E+01
-14.000000 -16.000000 1.946986E+01
-14.000000 -18.000000 6.858949E+00
-14.000000 -20.000000 -6.571866E+00
-14.000000 -22.000000 -8.235941E+00
-14.000000 -24.000000 3.012529E+00
-14.000000 -26.000000 1.219971E+01
-14.000000 -28.000000 5.610230E+00
-14.000000 -30.000000 -5.298178E+00
-14.000000 -32.000000 -1.506635E+01
-14.000000 -34.000000 -8.511376E+00
-14.000000 -36.000000 1.966886E+01
-14.000000 -38.000000 4.773721E+01
-14.000000 -40.000000 7.049693E+01
-12.000000 40.000000 7.031010E+00
-12.000000 38.000000 2.496005E+01
-12.000000 36.000000 4.036611E+01
-12.000000 34.000000 5.387464E+01
-12.000000 32.000000 5.795015E+01
-12.000000 30.000000 5.863290E+01
-12.000000 28.000000 5.438745E+01
-12.000000 26.000000 5.024846E+01
-12.000000 24.000000 4.237577E+01
-12.000000 22.000000 3.240485E+01
-12.000000 20.000000 3.326412E+01
-12.000000 18.000000 5.635813E+01
-12.000000 16.000000 9.414007E+01
-12.000000 14.000000 1.257185E+02
-12.000000 12.000000 1.334848E+02
-12.000000 10.000000 1.121175E+02
-12.000000 8.000000 6.737684E+01
-12.000000 6.000000 2.371194E+01
-12.000000 4.000000 1.302956E+00
-12.000000 2.000000 5.056358E+00
-12.000000 0.000000 1.756331E+01
-12.000000 -2.000000 2.509361E+01
-12.000000 -4.000000 2.067905E+01
-12.000000 -6.000000 1.237753E+01
-12.000000 -8.000000 1.186188E+01
-12.000000 -10.000000 1.834134E+01
-12.000000 -12.000000 2.585072E+01
-12.000000 -14.000000 2.743417E+01
-12.000000 -16.000000 1.978263E+01
-12.000000 -18.000000 5.934747E+00
-12.000000 -20.000000 -8.107910E+00
-12.000000 -22.000000 -1.008131E+01
-12.000000 -24.000000 7.068939E-01
-12.000000 -26.000000 8.770000E+00
-12.000000 -28.000000 1.953794E+00
-12.000000 -30.000000 -7.990611E+00
-12.000000 -32.000000 -1.610904E+01
-12.000000 -34.000000 -9.389977E+00
-12.000000 -36.000000 1.634735E+01
-12.000000 -38.000000 4.403134E+01
-12.000000 -40.000000 6.803147E+01
-10.000000 40.000000 9.066175E+00
-10.000000 38.000000 2.929132E+01
-10.000000 36.000000 4.533255E+01
-10.000000 34.000000 5.683100E+01
-10.000000 32.000000 5.651204E+01
-10.000000 30.000000 5.215822E+01
-10.000000 28.000000 4.200414E+01
-10.000000 26.000000 3.226812E+01
-10.000000 24.000000 1.974319E+01
-10.000000 22.000000 8.619476E+00
-10.000000 20.000000 7.481243E+00
-10.000000 18.000000 3.039404E+01
-10.000000 16.000000 7.327332E+01
-10.000000 14.000000 1.129478E+02
-10.000000 12.000000 1.316243E+02
-10.000000 10.000000 1.229803E+02
-10.000000 8.000000 8.750949E+01
-10.000000 6.000000 4.749626E+01
-10.000000 4.000000 2.039527E+01
-10.000000 2.000000 1.621591E+01
-10.000000 0.000000 2.396245E+01
-10.000000 -2.000000 2.953170E+01
-10.000000 -4.000000 2.545989E+01
-10.000000 -6.000000 1.804999E+01
-10.000000 -8.000000 1.668847E+01
-10.000000 -10.000000 2.036515E+01
-10.000000 -12.000000 2.427242E+01
-10.000000 -14.000000 2.416973E+01
-10.000000 -16.000000 1.722924E+01
-10.000000 -18.000000 4.508826E+00
-10.000000 -20.000000 -8.990587E+00
-10.000000 -22.000000 -1.103468E+01
-10.000000 -24.000000 2.497702E-01
-10.000000 -26.000000 9.478257E+00
-10.000000 -28.000000 3.281902E+00
-10.000000 -30.000000 -6.801871E+00
-10.000000 -32.000000 -1.475353E+01
-10.000000 -34.000000 -8.272464E+00
-10.000000 -36.000000 1.530615E+01
-10.000000 -38.000000 4.128239E+01
-10.000000 -40.000000 6.431649E+01
-8.000000 40.000000 1.130094E+01
-8.000000 38.000000 3.389222E+01
-8.000000 36.000000 4.927947E+01
-8.000000 34.000000 5.756823E+01
-8.000000 32.000000 5.184938E+01
-8.000000 30.000000 4.137600E+01
-8.000000 28.000000 2.588523E+01
-8.000000 26.000000 1.275268E+01
-8.000000 24.000000 -2.071548E+00
-8.000000 22.000000 -1.285183E+01
-8.000000 20.000000 -1.441426E+01
-8.000000 18.000000 1.002633E+01
-8.000000 16.000000 5.915786E+01
-8.000000 14.000000 1.073923E+02
-8.000000 12.000000 1.345645E+02
-8.000000 10.000000 1.345124E+02
-8.000000 8.000000 1.053048E+02
-8.000000 6.000000 6.922010E+01
-8.000000 4.000000 3.874853E+01
-8.000000 2.000000 2.573939E+01
-8.000000 0.000000 2.755147E+01
-8.000000 -2.000000 2.892266E+01
-8.000000 -4.000000 2.163967E+01
-8.000000 -6.000000 1.286140E+01
-8.000000 -8.000000 1.190400E+01
-8.000000 -10.000000 1.423429E+01
-8.000000 -12.000000 1.592774E+01
-8.000000 -14.000000 1.607774E+01
-8.000000 -16.000000 1.291823E+01
-8.000000 -18.000000 3.563723E+00
-8.000000 -20.000000 -8.497940E+00
-8.000000 -22.000000 -1.053681E+01
-8.000000 -24.000000 1.913336E+00
-8.000000 -26.000000 1.380033E+01
-8.000000 -28.000000 8.309300E+00
-8.000000 -30.000000 -2.894447E+00
-8.000000 -32.000000 -1.252644E+01
-8.000000 -34.000000 -6.907797E+00
-8.000000 -36.000000 1.611460E+01
-8.000000 -38.000000 3.963888E+01
-8.000000 -40.000000 5.998916E+01
-6.000000 40.000000 1.130256E+01
-6.000000 38.000000 3.529103E+01
-6.000000 36.000000 5.005035E+01
-6.000000 34.000000 5.562110E+01
-6.000000 32.000000 4.544862E+01
-6.000000 30.000000 3.012706E+01
-6.000000 28.000000 1.107053E+01
-6.000000 26.000000 -3.304192E+00
-6.000000 24.000000 -1.806377E+01
-6.000000 22.000000 -2.705611E+01
-6.000000 20.000000 -2.625084E+01
-6.000000 18.000000 3.182144E-01
-6.000000 16.000000 5.145380E+01
-6.000000 14.000000 1.040272E+02
-6.000000 12.000000 1.366381E+02
-6.000000 10.000000 1.417638E+02
-6.000000 8.000000 1.170379E+02
-6.000000 6.000000 8.266499E+01
-6.000000 4.000000 4.866142E+01
-6.000000 2.000000 2.878639E+01
-6.000000 0.000000 2.673620E+01
-6.000000 -2.000000 2.623001E+01
-6.000000 -4.000000 1.569689E+01
-6.000000 -6.000000 4.478535E+00
-6.000000 -8.000000 4.607573E+00
-6.000000 -10.000000 7.517076E+00
-6.000000 -12.000000 7.431583E+00
-6.000000 -14.000000 7.719572E+00
-6.000000 -16.000000 8.295831E+00
-6.000000 -18.000000 2.378484E+00
-6.000000 -20.000000 -8.422383E+00
-6.000000 -22.000000 -1.068186E+01
-6.000000 -24.000000 2.612813E+00
-6.000000 -26.000000 1.681461E+01
-6.000000 -28.000000 1.325246E+01
-6.000000 -30.000000 1.982860E+00
-6.000000 -32.000000 -9.440061E+00
-6.000000 -34.000000 -5.005143E+00
-6.000000 -36.000000 1.756491E+01
-6.000000 -38.000000 3.807279E+01
-6.000000 -40.000000 5.596048E+01
-4.000000 40.000000 7.986615E+00
-4.000000 38.000000 3.128259E+01
-4.000000 36.000000 4.604591E+01
-4.000000 34.000000 5.055591E+01
-4.000000 32.000000 3.851806E+01
-4.000000 30.000000 2.144340E+01
-4.000000 28.000000 1.330109E+00
-4.000000 26.000000 -1.271614E+01
-4.000000 24.000000 -2.604713E+01
-4.000000 22.000000 -3.282367E+01
-4.000000 20.000000 -2.968545E+01
-4.000000 18.000000 -3.021164E+00
-4.000000 16.000000 4.564174E+01
-4.000000 14.000000 9.798140E+01
-4.000000 12.000000 1.343634E+02
-4.000000 10.000000 1.446909E+02
-4.000000 8.000000 1.241091E+02
-4.000000 6.000000 8.879691E+01
-4.000000 4.000000 4.889157E+01
-4.000000 2.000000 2.330001E+01
-4.000000 0.000000 1.899508E+01
-4.000000 -2.000000 1.940445E+01
-4.000000 -4.000000 9.741729E+00
-4.000000 -6.000000 -1.498865E+00
-4.000000 -8.000000 8.812714E-01
-4.000000 -10.000000 5.914147E+00
-4.000000 -12.000000 4.874191E+00
-4.000000 -14.000000 4.465199E+00
-4.000000 -16.000000 6.856112E+00
-4.000000 -18.000000 3.006540E+00
-4.000000 -20.000000 -7.624596E+00
-4.000000 -22.000000 -1.093349E+01
-4.000000 -24.000000 1.566407E+00
-4.000000 -26.000000 1.591765E+01
-4.000000 -28.000000 1.568794E+01
-4.000000 -30.000000 5.982911E+00
-4.000000 -32.000000 -5.770865E+00
-4.000000 -34.000000 -1.892645E+00
-4.000000 -36.000000 1.842859E+01
-4.000000 -38.000000 3.520260E+01
-4.000000 -40.000000 5.164448E+01
-2.000000 40.000000 1.195401E+00
-2.000000 38.000000 2.268340E+01
-2.000000 36.000000 3.713257E+01
-2.000000 34.000000 4.157170E+01
-2.000000 32.000000 3.049624E+01
-2.000000 30.000000 1.464604E+01
-2.000000 28.000000 -3.699141E+00
-2.000000 26.000000 -1.599566E+01
-2.000000 24.000000 -2.658180E+01
-2.000000 22.000000 -3.049141E+01
-2.000000 20.000000 -2.611852E+01
-2.000000 18.000000 -2.599255E+00
-2.000000 16.000000 4.117684E+01
-2.000000 14.000000 9.141826E+01
-2.000000 12.000000 1.307086E+02
-2.000000 10.000000 1.465576E+02
-2.000000 8.000000 1.285491E+02
-2.000000 6.000000 8.972677E+01
-2.000000 4.000000 4.063912E+01
-2.000000 2.000000 8.120592E+00
-2.000000 0.000000 1.328964E+00
-2.000000 -2.000000 4.841774E+00
-2.000000 -4.000000 5.889797E-01
-2.000000 -6.000000 -5.908873E+00
-2.000000 -8.000000 -2.857246E-01
-2.000000 -10.000000 7.857574E+00
-2.000000 -12.000000 8.816471E+00
-2.000000 -14.000000 9.146340E+00
-2.000000 -16.000000 1.189785E+01
-2.000000 -18.000000 8.031542E+00
-2.000000 -20.000000 -2.773554E+00
-2.000000 -22.000000 -7.172115E+00
-2.000000 -24.000000 2.107955E+00
-2.000000 -26.000000 1.353640E+01
-2.000000 -28.000000 1.450501E+01
-2.000000 -30.000000 7.486451E+00
-2.000000 -32.000000 -1.816782E+00
-2.000000 -34.000000 1.450232E+00
-2.000000 -36.000000 1.710037E+01
-2.000000 -38.000000 3.068183E+01
-2.000000 -40.000000 4.648738E+01
0.000000 40.000000 -7.876856E+00
0.000000 38.000000 1.108506E+01
0.000000 36.000000 2.395622E+01
0.000000 34.000000 2.805516E+01
0.000000 32.000000 2.001296E+01
0.000000 30.000000 8.197975E+00
0.000000 28.000000 -5.822702E+00
0.000000 26.000000 -1.504042E+01
0.000000 24.000000 -2.168800E+01
0.000000 22.000000 -2.289576E+01
0.000000 20.000000 -1.799315E+01
0.000000 18.000000 1.219879E+00
0.000000 16.000000 3.968224E+01
0.000000 14.000000 8.866718E+01
0.000000 12.000000 1.303589E+02
0.000000 10.000000 1.494403E+02
0.000000 8.000000 1.307888E+02
0.000000 6.000000 8.594758E+01
0.000000 4.000000 2.632071E+01
0.000000 2.000000 -1.423271E+01
0.000000 0.000000 -2.567992E+01
0.000000 -2.000000 -1.814137E+01
0.000000 -4.000000 -1.279803E+01
0.000000 -6.000000 -9.840315E+00
0.000000 -8.000000 -1.358122E+00
0.000000 -10.000000 8.723660E+00
0.000000 -12.000000 1.309537E+01
0.000000 -14.000000 1.738055E+01
0.000000 -16.000000 2.149690E+01
0.000000 -18.000000 1.676247E+01
0.000000 -20.000000 6.067949E+00
0.000000 -22.000000 1.481905E+00
0.000000 -24.000000 6.592836E+00
0.000000 -26.000000 1.332930E+01
0.000000 -28.000000 1.243449E+01
0.000000 -30.000000 7.798260E+00
0.000000 -32.000000 1.764599E+00
0.000000 -34.000000 2.716413E+00
0.000000 -36.000000 1.318031E+01
0.000000 -38.000000 2.500080E+01
0.000000 -40.000000 4.049073E+01
2.000000 40.000000 -1.693557E+01
2.000000 38.000000 -1.674500E+00
2.000000 36.000000 7.787630E+00
2.000000 34.000000 1.103510E+01
2.000000 32.000000 6.571980E+00
2.000000 30.000000 9.131813E-01
2.000000 28.000000 -6.789705E+00
2.000000 26.000000 -1.169056E+01
2.000000 24.000000 -1.458726E+01
2.000000 22.000000 -1.488468E+01
2.000000 20.000000 -1.113341E+01
2.000000 18.000000 4.973825E+00
2.000000 16.000000 4.007114E+01
2.000000 14.000000 8.837414E+01
2.000000 12.000000 1.313241E+02
2.000000 10.000000 1.513535E+02
2.000000 8.000000 1.309579E+02
2.000000 6.000000 8.122496E+01
2.000000 4.000000 1.415349E+01
2.000000 2.000000 -3.361749E+01
2.000000 0.000000 -5.075240E+01
2.000000 -2.000000 -4.009518E+01
2.000000 -4.000000 -2.575904E+01
2.000000 -6.000000 -1.456567E+01
2.000000 -8.000000 -4.556017E+00
2.000000 -10.000000 6.119998E+00
2.000000 -12.000000 1.310165E+01
2.000000 -14.000000 2.106082E+01
2.000000 -16.000000 2.671900E+01
2.000000 -18.000000 2.266534E+01
2.000000 -20.000000 1.346990E+01
2.000000 -22.000000 9.618004E+00
2.000000 -24.000000 1.346625E+01
2.000000 -26.000000 1.736256E+01
2.000000 -28.000000 1.336410E+01
2.000000 -30.000000 8.614635E+00
2.000000 -32.000000 2.235685E+00
2.000000 -34.000000 5.527020E-01
2.000000 -36.000000 8.657600E+00
2.000000 -38.000000 1.979011E+01
2.000000 -40.000000 3.418263E+01
4.000000 40.000000 -2.506849E+01
4.000000 38.000000 -1.407042E+01
4.000000 36.000000 -8.909473E+00
4.000000 34.000000 -6.521244E+00
4.000000 32.000000 -7.216607E+00
4.000000 30.000000 -6.922698E+00
4.000000 28.000000 -8.258884E+00
4.000000 26.000000 -8.446266E+00
4.000000 24.000000 -8.353544E+00
4.000000 22.000000 -9.158682E+00
4.000000 20.000000 -7.124102E+00
4.000000 18.000000 6.644833E+00
4.000000 16.000000 3.939503E+01
4.000000 14.000000 8.549110E+01
4.000000 12.000000 1.281804E+02
4.000000 10.000000 1.498535E+02
4.000000 8.000000 1.301170E+02
4.000000 6.000000 7.939709E+01
4.000000 4.000000 9.206904E+00
4.000000 2.000000 -4.265232E+01
4.000000 0.000000 -6.286418E+01
4.000000 -2.000000 -5.287015E+01
4.000000 -4.000000 -3.450952E+01
4.000000 -6.000000 -1.919313E+01
4.000000 -8.000000 -8.671612E+00
4.000000 -10.000000 5.988073E-01
4.000000 -12.000000 7.933357E+00
4.000000 -14.000000 1.616653E+01
4.000000 -16.000000 2.173942E+01
4.000000 -18.000000 1.942118E+01
4.000000 -20.000000 1.259778E+01
4.000000 -22.000000 1.096716E+01
4.000000 -24.000000 1.755160E+01
4.000000 -26.000000 2.179848E+01
4.000000 -28.000000 1.606797E+01
4.000000 -30.000000 1.004115E+01
4.000000 -32.000000 2.187871E+00
4.000000 -34.000000 -1.707483E+00
4.000000 -36.000000 4.843812E+00
4.000000 -38.000000 1.541739E+01
4.000000 -40.000000 2.842401E+01
6.000000 40.000000 -3.257074E+01
6.000000 38.000000 -2.500962E+01
6.000000 36.000000 -2.320675E+01
6.000000 34.000000 -2.132982E+01
6.000000 32.000000 -1.842131E+01
6.000000 30.000000 -1.365011E+01
6.000000 28.000000 -1.044740E+01
6.000000 26.000000 -6.804859E+00
6.000000 24.000000 -4.036610E+00
6.000000 22.000000 -5.615934E+00
6.000000 20.000000 -4.994453E+00
6.000000 18.000000 5.696621E+00
6.000000 16.000000 3.461516E+01
6.000000 14.000000 7.668666E+01
6.000000 12.000000 1.187264E+02
6.000000 10.000000 1.447064E+02
6.000000 8.000000 1.308788E+02
6.000000 6.000000 8.330314E+01
6.000000 4.000000 1.186025E+01
6.000000 2.000000 -4.444714E+01
6.000000 0.000000 -6.848832E+01
6.000000 -2.000000 -6.010575E+01
6.000000 -4.000000 -3.847552E+01
6.000000 -6.000000 -2.005202E+01
6.000000 -8.000000 -1.063262E+01
6.000000 -10.000000 -5.792983E+00
6.000000 -12.000000 -9.825754E-01
6.000000 -14.000000 5.992934E+00
6.000000 -16.000000 1.086377E+01
6.000000 -18.000000 9.480832E+00
6.000000 -20.000000 3.614375E+00
6.000000 -22.000000 4.754459E+00
6.000000 -24.000000 1.570388E+01
6.000000 -26.000000 2.265902E+01
6.000000 -28.000000 1.793508E+01
6.000000 -30.000000 1.155649E+01
6.000000 -32.000000 3.897761E+00
6.000000 -34.000000 -2.228104E+00
6.000000 -36.000000 1.556299E+00
6.000000 -38.000000 1.144200E+01
6.000000 -40.000000 2.385202E+01
8.000000 40.000000 -3.949358E+01
8.000000 38.000000 -3.358576E+01
8.000000 36.000000 -3.282258E+01
8.000000 34.000000 -3.105022E+01
8.000000 32.000000 -2.614821E+01
8.000000 30.000000 -1.863217E+01
8.000000 28.000000 -1.288164E+01
8.000000 26.000000 -7.085458E+00
8.000000 24.000000 -2.383839E+00
8.000000 22.000000 -3.975565E+00
8.000000 20.000000 -4.484776E+00
8.000000 18.000000 2.375296E+00
8.000000 16.000000 2.551022E+01
8.000000 14.000000 6.176134E+01
8.000000 12.000000 1.038577E+02
8.000000 10.000000 1.375251E+02
8.000000 8.000000 1.345729E+02
8.000000 6.000000 9.296029E+01
8.000000 4.000000 1.942081E+01
8.000000 2.000000 -4.487941E+01
8.000000 0.000000 -7.580782E+01
8.000000 -2.000000 -6.871296E+01
8.000000 -4.000000 -4.232893E+01
8.000000 -6.000000 -1.907251E+01
8.000000 -8.000000 -1.176646E+01
8.000000 -10.000000 -1.204556E+01
8.000000 -12.000000 -1.045957E+01
8.000000 -14.000000 -3.521722E+00
8.000000 -16.000000 2.320131E+00
8.000000 -18.000000 1.754117E+00
8.000000 -20.000000 -4.683745E+00
8.000000 -22.000000 -2.700550E+00
8.000000 -24.000000 1.011505E+01
8.000000 -26.000000 1.942242E+01
8.000000 -28.000000 1.764331E+01
8.000000 -30.000000 1.200183E+01
8.000000 -32.000000 3.725860E+00
8.000000 -34.000000 -3.081083E+00
8.000000 -36.000000 -1.082113E+00
8.000000 -38.000000 8.261940E+00
8.000000 -40.000000 2.074457E+01
10.000000 40.000000 -4.488270E+01
10.000000 38.000000 -3.904502E+01
10.000000 36.000000 -3.714000E+01
10.000000 34.000000 -3.490864E+01
10.000000 32.000000 -2.985266E+01
10.000000 30.000000 -2.215084E+01
10.000000 28.000000 -1.637999E+01
10.000000 26.000000 -1.065199E+01
10.000000 24.000000 -5.379045E+00
10.000000 22.000000 -5.747670E+00
10.000000 20.000000 -6.658556E+00
10.000000 18.000000 -3.359276E+00
10.000000 16.000000 1.398760E+01
10.000000 14.000000 4.548514E+01
10.000000 12.000000 8.912950E+01
10.000000 10.000000 1.316384E+02
10.000000 8.000000 1.393100E+02
10.000000 6.000000 1.036323E+02
10.000000 4.000000 2.762837E+01
10.000000 2.000000 -4.478877E+01
10.000000 0.000000 -8.352583E+01
10.000000 -2.000000 -7.868321E+01
10.000000 -4.000000 -4.842170E+01
10.000000 -6.000000 -2.081559E+01
10.000000 -8.000000 -1.599367E+01
10.000000 -10.000000 -2.009464E+01
10.000000 -12.000000 -1.948584E+01
10.000000 -14.000000 -8.172009E+00
10.000000 -16.000000 2.991324E+00
10.000000 -18.000000 3.087597E+00
10.000000 -20.000000 -6.351143E+00
10.000000 -22.000000 -7.763604E+00
10.000000 -24.000000 2.037444E+00
10.000000 -26.000000 1.181689E+01
10.000000 -28.000000 1.359053E+01
10.000000 -30.000000 9.516548E+00
10.000000 -32.000000 9.537983E-02
10.000000 -34.000000 -5.308723E+00
10.000000 -36.000000 -2.559345E+00
10.000000 -38.000000 7.118522E+00
10.000000 -40.000000 1.966600E+01
12.000000 40.000000 -4.778992E+01
12.000000 38.000000 -4.136538E+01
12.000000 36.000000 -3.735600E+01
12.000000 34.000000 -3.433952E+01
12.000000 32.000000 -3.038890E+01
12.000000 30.000000 -2.492818E+01
12.000000 28.000000 -2.155907E+01
12.000000 26.000000 -1.806117E+01
12.000000 24.000000 -1.315467E+01
12.000000 22.000000 -1.119635E+01
12.000000 20.000000 -1.115484E+01
12.000000 18.000000 -8.393432E+00
12.000000 16.000000 6.382196E+00
12.000000 14.000000 3.662685E+01
12.000000 12.000000 8.110417E+01
12.000000 10.000000 1.277611E+02
12.000000 8.000000 1.401498E+02
12.000000 6.000000 1.084242E+02
12.000000 4.000000 3.381296E+01
12.000000 2.000000 -4.221631E+01
12.000000 0.000000 -8.747209E+01
12.000000 -2.000000 -8.729876E+01
12.000000 -4.000000 -5.894559E+01
12.000000 -6.000000 -3.314736E+01
12.000000 -8.000000 -3.179336E+01
12.000000 -10.000000 -3.722967E+01
12.000000 -12.000000 -2.934846E+01
12.000000 -14.000000 -4.336036E+00
12.000000 -16.000000 1.747461E+01
12.000000 -18.000000 1.633334E+01
12.000000 -20.000000 -2.117151E+00
12.000000 -22.000000 -1.210900E+01
12.000000 -24.000000 -7.194934E+00
12.000000 -26.000000 2.626061E+00
12.000000 -28.000000 6.084372E+00
12.000000 -30.000000 4.239477E+00
12.000000 -32.000000 -4.496746E+00
12.000000 -34.000000 -8.211390E+00
12.000000 -36.000000 -2.196091E+00
12.000000 -38.000000 8.763140E+00
12.000000 -40.000000 2.015726E+01
14.000000 40.000000 -4.948666E+01
14.000000 38.000000 -4.158084E+01
14.000000 36.000000 -3.491674E+01
14.000000 34.000000 -3.105666E+01
14.000000 32.000000 -2.883613E+01
14.000000 30.000000 -2.656621E+01
14.000000 28.000000 -2.718340E+01
14.000000 26.000000 -2.646749E+01
14.000000 24.000000 -2.091199E+01
14.000000 22.000000 -1.529956E+01
14.000000 20.000000 -1.275802E+01
14.000000 18.000000 -8.059231E+00
14.000000 16.000000 7.803833E+00
14.000000 14.000000 3.788683E+01
14.000000 12.000000 7.894157E+01
14.000000 10.000000 1.204916E+02
14.000000 8.000000 1.298057E+02
14.000000 6.000000 1.008433E+02
14.000000 4.000000 3.389405E+01
14.000000 2.000000 -3.792495E+01
14.000000 0.000000 -8.510523E+01
14.000000 -2.000000 -9.317603E+01
14.000000 -4.000000 -7.674485E+01
14.000000 -6.000000 -6.161264E+01
14.000000 -8.000000 -6.345027E+01
14.000000 -10.000000 -6.576503E+01
14.000000 -12.000000 -3.901178E+01
14.000000 -14.000000 9.483874E+00
14.000000 -16.000000 4.488668E+01
14.000000 -18.000000 3.950056E+01
14.000000 -20.000000 7.525043E+00
14.000000 -22.000000 -1.458735E+01
14.000000 -24.000000 -1.535730E+01
14.000000 -26.000000 -6.178491E+00
14.000000 -28.000000 -2.347917E+00
14.000000 -30.000000 -2.178505E+00
14.000000 -32.000000 -8.092139E+00
14.000000 -34.000000 -9.049719E+00
14.000000 -36.000000 3.960724E-01
14.000000 -38.000000 1.136771E+01
14.000000 -40.000000 2.008481E+01
16.000000 40.000000 -5.197430E+01
16.000000 38.000000 -4.167646E+01
16.000000 36.000000 -3.152477E+01
16.000000 34.000000 -2.594726E+01
16.000000 32.000000 -2.493033E+01
16.000000 30.000000 -2.526114E+01
16.000000 28.000000 -2.973900E+01
16.000000 26.000000 -3.056168E+01
16.000000 24.000000 -2.399347E+01
16.000000 22.000000 -1.599422E+01
16.000000 20.000000 -1.123257E+01
16.000000 18.000000 -3.761240E+00
16.000000 16.000000 1.479641E+01
16.000000 14.000000 4.382282E+01
16.000000 12.000000 7.636616E+01
16.000000 10.000000 1.050606E+02
16.000000 8.000000 1.072729E+02
16.000000 6.000000 8.094894E+01
16.000000 4.000000 2.696717E+01
16.000000 2.000000 -3.350699E+01
16.000000 0.000000 -7.927803E+01
16.000000 -2.000000 -9.823446E+01
16.000000 -4.000000 -9.926155E+01
16.000000 -6.000000 -9.766007E+01
16.000000 -8.000000 -1.002428E+02
16.000000 -10.000000 -9.352400E+01
16.000000 -12.000000 -4.283639E+01
16.000000 -14.000000 2.995925E+01
16.000000 -16.000000 7.714035E+01
16.000000 -18.000000 6.671717E+01
16.000000 -20.000000 2.145905E+01
16.000000 -22.000000 -1.335128E+01
16.000000 -24.000000 -2.189082E+01
16.000000 -26.000000 -1.466995E+01
16.000000 -28.000000 -1.045126E+01
16.000000 -30.000000 -9.231654E+00
16.000000 -32.000000 -1.141022E+01
16.000000 -34.000000 -8.095699E+00
16.000000 -36.000000 3.264814E+00
16.000000 -38.000000 1.297681E+01
16.000000 -40.000000 1.905015E+01
18.000000 40.000000 -5.526139E+01
18.000000 38.000000 -4.362700E+01
18.000000 36.000000 -3.035743E+01
18.000000 34.000000 -2.151734E+01
18.000000 32.000000 -1.910037E+01
18.000000 30.000000 -1.966845E+01
18.000000 28.000000 -2.539728E+01
18.000000 26.000000 -2.742427E+01
18.000000 24.000000 -2.227296E+01
18.000000 22.000000 -1.491321E+01
18.000000 20.000000 -9.562888E+00
18.000000 18.000000 3.380049E-01
18.000000 16.000000 2.149106E+01
18.000000 14.000000 4.767587E+01
18.000000 12.000000 6.878320E+01
18.000000 10.000000 8.055734E+01
18.000000 8.000000 7.518680E+01
18.000000 6.000000 5.372644E+01
18.000000 4.000000 1.628365E+01
18.000000 2.000000 -2.922798E+01
18.000000 0.000000 -7.212464E+01
18.000000 -2.000000 -1.023285E+02
18.000000 -4.000000 -1.200208E+02
18.000000 -6.000000 -1.286746E+02
18.000000 -8.000000 -1.290228E+02
18.000000 -10.000000 -1.091588E+02
18.000000 -12.000000 -3.592262E+01
18.000000 -14.000000 5.635724E+01
18.000000 -16.000000 1.099758E+02
18.000000 -18.000000 9.199579E+01
18.000000 -20.000000 3.420925E+01
18.000000 -22.000000 -1.084120E+01
18.000000 -24.000000 -2.616526E+01
18.000000 -26.000000 -2.214780E+01
18.000000 -28.000000 -2.004387E+01
18.000000 -30.000000 -1.921395E+01
18.000000 -32.000000 -1.724910E+01
18.000000 -34.000000 -9.446877E+00
18.000000 -36.000000 3.507762E+00
18.000000 -38.000000 1.373300E+01
18.000000 -40.000000 1.890573E+01
20.000000 40.000000 -5.883368E+01
20.000000 38.000000 -4.781974E+01
20.000000 36.000000 -3.280635E+01
20.000000 34.000000 -1.951559E+01
20.000000 32.000000 -1.261717E+01
20.000000 30.000000 -1.071906E+01
20.000000 28.000000 -1.598380E+01
20.000000 26.000000 -2.019677E+01
20.000000 24.000000 -1.785034E+01
20.000000 22.000000 -1.282004E+01
20.000000 20.000000 -7.786960E+00
20.000000 18.000000 3.520090E+00
20.000000 16.000000 2.461132E+01
20.000000 14.000000 4.474343E+01
20.000000 12.000000 5.423068E+01
20.000000 10.000000 5.267693E+01
20.000000 8.000000 4.353729E+01
20.000000 6.000000 2.901588E+01
20.000000 4.000000 7.612015E+00
20.000000 2.000000 -2.551086E+01
20.000000 0.000000 -6.618763E+01
20.000000 -2.000000 -1.044942E+02
20.000000 -4.000000 -1.333317E+02
20.000000 -6.000000 -1.481132E+02
20.000000 -8.000000 -1.426109E+02
20.000000 -10.000000 -1.085403E+02
20.000000 -12.000000 -1.879495E+01
20.000000 -14.000000 8.369451E+01
20.000000 -16.000000 1.362314E+02
20.000000 -18.000000 1.079895E+02
20.000000 -20.000000 3.955666E+01
20.000000 -22.000000 -1.109459E+01
20.000000 -24.000000 -2.857309E+01
20.000000 -26.000000 -2.772223E+01
20.000000 -28.000000 -3.100919E+01
20.000000 -30.000000 -3.195114E+01
20.000000 -32.000000 -2.615430E+01
20.000000 -34.000000 -1.440927E+01
20.000000 -36.000000 1.311000E+00
20.000000 -38.000000 1.407812E+01
20.000000 -40.000000 1.957401E+01
22.000000 40.000000 -6.374615E+01
22.000000 38.000000 -5.427937E+01
22.000000 36.000000 -3.759098E+01
22.000000 34.000000 -1.957106E+01
22.000000 32.000000 -6.552067E+00
22.000000 30.000000 -7.978430E-01
22.000000 28.000000 -5.809640E+00
22.000000 26.000000 -1.256546E+01
22.000000 24.000000 -1.265341E+01
22.000000 22.000000 -9.990874E+00
22.000000 20.000000 -5.697438E+00
22.000000 18.000000 5.712496E+00
22.000000 16.000000 2.442678E+01
22.000000 14.000000 3.721145E+01
22.000000 12.000000 3.745386E+01
22.000000 10.000000 2.975650E+01
22.000000 8.000000 2.261561E+01
22.000000 6.000000 1.564174E+01
22.000000 4.000000 5.287373E+00
22.000000 2.000000 -2.153640E+01
22.000000 0.000000 -6.157454E+01
22.000000 -2.000000 -1.040802E+02
22.000000 -4.000000 -1.380478E+02
22.000000 -6.000000 -1.546177E+02
22.000000 -8.000000 -1.417755E+02
22.000000 -10.000000 -9.522645E+01
22.000000 -12.000000 1.989279E+00
22.000000 -14.000000 1.024226E+02
22.000000 -16.000000 1.453072E+02
22.000000 -18.000000 1.069167E+02
22.000000 -20.000000 3.334940E+01
22.000000 -22.000000 -1.686486E+01
22.000000 -24.000000 -3.144765E+01
22.000000 -26.000000 -3.139800E+01
22.000000 -28.000000 -3.902032E+01
22.000000 -30.000000 -4.291175E+01
22.000000 -32.000000 -3.711644E+01
22.000000 -34.000000 -2.131732E+01
22.000000 -36.000000 -1.094390E+00
22.000000 -38.000000 1.392865E+01
22.000000 -40.000000 1.984687E+01
24.000000 40.000000 -7.004928E+01
24.000000 38.000000 -6.249791E+01
24.000000 36.000000 -4.429959E+01
24.000000 34.000000 -2.185612E+01
24.000000 32.000000 -2.872785E+00
24.000000 30.000000 6.591103E+00
24.000000 28.000000 1.624112E+00
24.000000 26.000000 -7.395400E+00
24.000000 24.000000 -9.664559E+00
24.000000 22.000000 -8.431256E+00
24.000000 20.000000 -3.173356E+00
24.000000 18.000000 8.642126E+00
24.000000 16.000000 2.406864E+01
24.000000 14.000000 3.013446E+01
24.000000 12.000000 2.547036E+01
24.000000 10.000000 1.815507E+01
24.000000 8.000000 1.690279E+01
24.000000 6.000000 1.666923E+01
24.000000 4.000000 1.001556E+01
24.000000 2.000000 -1.665450E+01
24.000000 0.000000 -5.770054E+01
24.000000 -2.000000 -1.000323E+02
24.000000 -4.000000 -1.329691E+02
24.000000 -6.000000 -1.473013E+02
24.000000 -8.000000 -1.311750E+02
24.000000 -10.000000 -7.972035E+01
24.000000 -12.000000 1.542593E+01
24.000000 -14.000000 1.051974E+02
24.000000 -16.000000 1.345761E+02
24.000000 -18.000000 8.864107E+01
24.000000 -20.000000 1.524900E+01
24.000000 -22.000000 -2.939868E+01
24.000000 -24.000000 -3.709093E+01
24.000000 -26.000000 -3.355777E+01
24.000000 -28.000000 -4.236397E+01
24.000000 -30.000000 -4.985902E+01
24.000000 -32.000000 -4.729138E+01
24.000000 -34.000000 -2.796458E+01
24.000000 -36.000000 -2.770335E+00
24.000000 -38.000000 1.376458E+01
24.000000 -40.000000 2.012695E+01
26.000000 40.000000 -7.517724E+01
26.000000 38.000000 -7.002715E+01
26.000000 36.000000 -5.274856E+01
26.000000 34.000000 -2.751954E+01
26.000000 32.000000 -3.945320E+00
26.000000 30.000000 7.853546E+00
26.000000 28.000000 2.868481E+00
26.000000 26.000000 -8.039994E+00
26.000000 24.000000 -1.319760E+01
26.000000 22.000000 -1.229525E+01
26.000000 20.000000 -2.866952E+00
26.000000 18.000000 1.233394E+01
26.000000 16.000000 2.604594E+01
26.000000 14.000000 2.865652E+01
26.000000 12.000000 2.280271E+01
26.000000 10.000000 1.746477E+01
26.000000 8.000000 2.018064E+01
26.000000 6.000000 2.377701E+01
26.000000 4.000000 1.730657E+01
26.000000 2.000000 -9.422847E+00
26.000000 0.000000 -4.872541E+01
26.000000 -2.000000 -8.681938E+01
26.000000 -4.000000 -1.150217E+02
26.000000 -6.000000 -1.266318E+02
26.000000 -8.000000 -1.125080E+02
26.000000 -10.000000 -6.617083E+01
26.000000 -12.000000 1.594182E+01
26.000000 -14.000000 8.944767E+01
26.000000 -16.000000 1.055320E+02
26.000000 -18.000000 5.608322E+01
26.000000 -20.000000 -1.229122E+01
26.000000 -22.000000 -4.743409E+01
26.000000 -24.000000 -4.586018E+01
26.000000 -26.000000 -3.556084E+01
26.000000 -28.000000 -4.269625E+01
26.000000 -30.000000 -5.204825E+01
26.000000 -32.000000 -5.237992E+01
26.000000 -34.000000 -3.129893E+01
26.000000 -36.000000 -2.693453E+00
26.000000 -38.000000 1.458542E+01
26.000000 -40.000000 2.077516E+01
28.000000 40.000000 -7.670728E+01
28.000000 38.000000 -7.525887E+01
28.000000 36.000000 -6.181199E+01
28.000000 34.000000 -3.684579E+01
28.000000 32.000000 -1.062714E+01
28.000000 30.000000 2.278656E+00
28.000000 28.000000 -3.664870E+00
28.000000 26.000000 -1.727065E+01
28.000000 24.000000 -2.707469E+01
28.000000 22.000000 -2.489900E+01
28.000000 20.000000 -8.416223E+00
28.000000 18.000000 1.403767E+01
28.000000 16.000000 3.051526E+01
28.000000 14.000000 3.527898E+01
28.000000 12.000000 3.035896E+01
28.000000 10.000000 2.438150E+01
28.000000 8.000000 2.576226E+01
28.000000 6.000000 2.931145E+01
28.000000 4.000000 2.205619E+01
28.000000 2.000000 -1.437142E+00
28.000000 0.000000 -3.270024E+01
28.000000 -2.000000 -6.331392E+01
28.000000 -4.000000 -8.704219E+01
28.000000 -6.000000 -9.876709E+01
28.000000 -8.000000 -9.017612E+01
28.000000 -10.000000 -5.551318E+01
28.000000 -12.000000 4.554452E+00
28.000000 -14.000000 5.729900E+01
28.000000 -16.000000 6.301135E+01
28.000000 -18.000000 1.664847E+01
28.000000 -20.000000 -4.197108E+01
28.000000 -22.000000 -6.759068E+01
28.000000 -24.000000 -5.651318E+01
28.000000 -26.000000 -3.876542E+01
28.000000 -28.000000 -4.057100E+01
28.000000 -30.000000 -4.727847E+01
28.000000 -32.000000 -4.781661E+01
28.000000 -34.000000 -2.752727E+01
28.000000 -36.000000 6.296129E-01
28.000000 -38.000000 1.635698E+01
28.000000 -40.000000 2.055481E+01
30.000000 40.000000 -7.526761E+01
30.000000 38.000000 -7.783928E+01
30.000000 36.000000 -6.918557E+01
30.000000 34.000000 -4.764300E+01
30.000000 32.000000 -2.149212E+01
30.000000 30.000000 -8.219821E+00
30.000000 28.000000 -1.571991E+01
30.000000 26.000000 -3.337224E+01
30.000000 24.000000 -4.977817E+01
30.000000 22.000000 -4.570394E+01
30.000000 20.000000 -2.142138E+01
30.000000 18.000000 1.113095E+01
30.000000 16.000000 3.537541E+01
30.000000 14.000000 4.688695E+01
30.000000 12.000000 4.492742E+01
30.000000 10.000000 3.662840E+01
30.000000 8.000000 3.232882E+01
30.000000 6.000000 3.100785E+01
30.000000 4.000000 2.265806E+01
30.000000 2.000000 4.407127E+00
30.000000 0.000000 -1.608351E+01
30.000000 -2.000000 -3.719539E+01
30.000000 -4.000000 -5.835036E+01
30.000000 -6.000000 -7.349021E+01
30.000000 -8.000000 -7.343224E+01
30.000000 -10.000000 -5.508043E+01
30.000000 -12.000000 -1.755119E+01
30.000000 -14.000000 1.680797E+01
30.000000 -16.000000 1.799367E+01
30.000000 -18.000000 -1.967185E+01
30.000000 -20.000000 -6.641808E+01
30.000000 -22.000000 -8.364410E+01
30.000000 -24.000000 -6.420902E+01
30.000000 -26.000000 -3.978278E+01
30.000000 -28.000000 -3.387261E+01
30.000000 -30.000000 -3.396925E+01
30.000000 -32.000000 -3.240807E+01
30.000000 -34.000000 -1.562198E+01
30.000000 -36.000000 7.068105E+00
30.000000 -38.000000 1.764040E+01
30.000000 -40.000000 1.744334E+01
32.000000 40.000000 -7.320752E+01
32.000000 38.000000 -7.771329E+01
32.000000 36.000000 -7.252295E+01
32.000000 34.000000 -5.661131E+01
32.000000 32.000000 -3.374069E+01
32.000000 30.000000 -2.087957E+01
32.000000 28.000000 -2.937879E+01
32.000000 26.000000 -5.093814E+01
32.000000 24.000000 -7.435876E+01
32.000000 22.000000 -6.993605E+01
32.000000 20.000000 -4.088146E+01
32.000000 18.000000 6.076851E-01
32.000000 16.000000 3.584681E+01
32.000000 14.000000 5.812129E+01
32.000000 12.000000 6.266466E+01
32.000000 10.000000 5.317242E+01
32.000000 8.000000 4.105384E+01
32.000000 6.000000 3.063835E+01
32.000000 4.000000 1.833787E+01
32.000000 2.000000 4.267780E+00
32.000000 0.000000 -6.790730E+00
32.000000 -2.000000 -1.942624E+01
32.000000 -4.000000 -3.873729E+01
32.000000 -6.000000 -5.764451E+01
32.000000 -8.000000 -6.702559E+01
32.000000 -10.000000 -6.618759E+01
32.000000 -12.000000 -4.724013E+01
32.000000 -14.000000 -2.485705E+01
32.000000 -16.000000 -2.129170E+01
32.000000 -18.000000 -4.521093E+01
32.000000 -20.000000 -7.750486E+01
32.000000 -22.000000 -8.688311E+01
32.000000 -24.000000 -6.447443E+01
32.000000 -26.000000 -3.587624E+01
32.000000 -28.000000 -2.203143E+01
32.000000 -30.000000 -1.396391E+01
32.000000 -32.000000 -1.006125E+01
32.000000 -34.000000 1.130834E+00
32.000000 -36.000000 1.383704E+01
32.000000 -38.000000 1.674644E+01
32.000000 -40.000000 1.088378E+01
34.000000 40.000000 -7.110024E+01
34.000000 38.000000 -7.610320E+01
34.000000 36.000000 -7.344716E+01
34.000000 34.000000 -6.258043E+01
34.000000 32.000000 -4.380409E+01
34.000000 30.000000 -3.299327E+01
34.000000 28.000000 -4.187270E+01
34.000000 26.000000 -6.420877E+01
34.000000 24.000000 -9.107887E+01
34.000000 22.000000 -8.937463E+01
34.000000 20.000000 -6.309078E+01
34.000000 18.000000 -1.956103E+01
34.000000 16.000000 2.660744E+01
34.000000 14.000000 6.311906E+01
34.000000 12.000000 7.875453E+01
34.000000 10.000000 7.265736E+01
34.000000 8.000000 5.200184E+01
34.000000 6.000000 2.895962E+01
34.000000 4.000000 8.042530E+00
34.000000 2.000000 -4.226230E+00
34.000000 0.000000 -9.410445E+00
34.000000 -2.000000 -1.617013E+01
34.000000 -4.000000 -2.986226E+01
34.000000 -6.000000 -4.937601E+01
34.000000 -8.000000 -6.772301E+01
34.000000 -10.000000 -8.044598E+01
34.000000 -12.000000 -7.441190E+01
34.000000 -14.000000 -5.838251E+01
34.000000 -16.000000 -4.824496E+01
34.000000 -18.000000 -5.650179E+01
34.000000 -20.000000 -7.396668E+01
34.000000 -22.000000 -7.775949E+01
34.000000 -24.000000 -5.829139E+01
34.000000 -26.000000 -3.019782E+01
34.000000 -28.000000 -1.072533E+01
34.000000 -30.000000 5.408642E+00
34.000000 -32.000000 1.280134E+01
34.000000 -34.000000 1.765618E+01
34.000000 -36.000000 1.806999E+01
34.000000 -38.000000 1.349141E+01
34.000000 -40.000000 3.117340E+00
36.000000 40.000000 -6.880017E+01
36.000000 38.000000 -7.478458E+01
36.000000 36.000000 -7.417944E+01
36.000000 34.000000 -6.594454E+01
36.000000 32.000000 -5.037953E+01
36.000000 30.000000 -4.248429E+01
36.000000 28.000000 -5.035369E+01
36.000000 26.000000 -6.852939E+01
36.000000 24.000000 -9.315638E+01
36.000000 22.000000 -9.795368E+01
36.000000 20.000000 -8.308364E+01
36.000000 18.000000 -4.571082E+01
36.000000 16.000000 7.627537E+00
36.000000 14.000000 5.852982E+01
36.000000 12.000000 8.827166E+01
36.000000 10.000000 8.945203E+01
36.000000 8.000000 6.102010E+01
36.000000 6.000000 2.468448E+01
36.000000 4.000000 -6.772562E+00
36.000000 2.000000 -2.004021E+01
36.000000 0.000000 -2.131146E+01
36.000000 -2.000000 -2.108301E+01
36.000000 -4.000000 -2.599165E+01
36.000000 -6.000000 -4.276880E+01
36.000000 -8.000000 -6.719474E+01
36.000000 -10.000000 -8.868478E+01
36.000000 -12.000000 -9.025635E+01
36.000000 -14.000000 -7.646876E+01
36.000000 -16.000000 -6.033205E+01
36.000000 -18.000000 -5.740482E+01
36.000000 -20.000000 -6.446718E+01
36.000000 -22.000000 -6.523853E+01
36.000000 -24.000000 -5.025130E+01
36.000000 -26.000000 -2.690532E+01
36.000000 -28.000000 -5.278795E+00
36.000000 -30.000000 1.737673E+01
36.000000 -32.000000 2.976658E+01
36.000000 -34.000000 2.946930E+01
36.000000 -36.000000 1.881369E+01
36.000000 -38.000000 8.933537E+00
36.000000 -40.000000 -3.392766E+00
38.000000 40.000000 -6.787622E+01
38.000000 38.000000 -7.500654E+01
38.000000 36.000000 -7.464340E+01
38.000000 34.000000 -6.711272E+01
38.000000 32.000000 -5.360094E+01
38.000000 30.000000 -4.623971E+01
38.000000 28.000000 -5.046153E+01
38.000000 26.000000 -6.280897E+01
38.000000 24.000000 -8.217565E+01
38.000000 22.000000 -9.294878E+01
38.000000 20.000000 -9.249300E+01
38.000000 18.000000 -6.738734E+01
38.000000 16.000000 -1.342500E+01
38.000000 14.000000 4.666542E+01
38.000000 12.000000 8.821790E+01
38.000000 10.000000 9.696762E+01
38.000000 8.000000 6.311512E+01
38.000000 6.000000 1.688009E+01
38.000000 4.000000 -2.194721E+01
38.000000 2.000000 -3.690245E+01
38.000000 0.000000 -3.581010E+01
38.000000 -2.000000 -2.790081E+01
38.000000 -4.000000 -2.417594E+01
38.000000 -6.000000 -3.755603E+01
38.000000 -8.000000 -6.349607E+01
38.000000 -10.000000 -8.796588E+01
38.000000 -12.000000 -9.345749E+01
38.000000 -14.000000 -8.162000E+01
38.000000 -16.000000 -6.408417E+01
38.000000 -18.000000 -5.660775E+01
38.000000 -20.000000 -5.778036E+01
38.000000 -22.000000 -5.582012E+01
38.000000 -24.000000 -4.207142E+01
38.000000 -26.000000 -2.292893E+01
38.000000 -28.000000 -3.019529E+00
38.000000 -30.000000 2.084070E+01
38.000000 -32.000000 3.516055E+01
38.000000 -34.000000 3.214858E+01
38.000000 -36.000000 1.603686E+01
38.000000 -38.000000 4.028375E+00
38.000000 -40.000000 -8.086396E+00
40.000000 40.000000 -6.843218E+01
40.000000 38.000000 -7.703224E+01
40.000000 36.000000 -7.723378E+01
40.000000 34.000000 -6.944541E+01
40.000000 32.000000 -5.375662E+01
40.000000 30.000000 -4.205988E+01
40.000000 28.000000 -4.038752E+01
40.000000 26.000000 -4.734229E+01
40.000000 24.000000 -5.989386E+01
40.000000 22.000000 -7.346537E+01
40.000000 20.000000 -8.425824E+01
40.000000 18.000000 -7.257913E+01
40.000000 16.000000 -2.577368E+01
40.000000 14.000000 3.345781E+01
40.000000 12.000000 7.863688E+01
40.000000 10.000000 9.063468E+01
40.000000 8.000000 5.562754E+01
40.000000 6.000000 6.777805E+00
40.000000 4.000000 -3.351907E+01
40.000000 2.000000 -4.849100E+01
40.000000 0.000000 -4.589081E+01
40.000000 -2.000000 -3.385979E+01
40.000000 -4.000000 -2.681799E+01
40.000000 -6.000000 -3.690597E+01
40.000000 -8.000000 -5.815438E+01
40.000000 -10.000000 -7.965660E+01
40.000000 -12.000000 -8.770156E+01
40.000000 -14.000000 -8.088069E+01
40.000000 -16.000000 -6.806964E+01
40.000000 -18.000000 -6.120331E+01
40.000000 -20.000000 -5.920773E+01
40.000000 -22.000000 -5.346292E+01
40.000000 -24.000000 -3.557436E+01
40.000000 -26.000000 -1.540032E+01
40.000000 -28.000000 -4.099131E-01
40.000000 -30.000000 1.769667E+01
40.000000 -32.000000 2.860184E+01
40.000000 -34.000000 2.513586E+01
40.000000 -36.000000 1.017796E+01
40.000000 -38.000000 -5.848780E-01
40.000000 -40.000000 -1.101981E+01
42.000000 40.000000 -6.857261E+01
42.000000 38.000000 -7.954162E+01
42.000000 36.000000 -8.334346E+01
42.000000 34.000000 -7.450386E+01
42.000000 32.000000 -5.058739E+01
42.000000 30.000000 -2.990904E+01
42.000000 28.000000 -2.178755E+01
42.000000 26.000000 -2.432772E+01
42.000000 24.000000 -3.156154E+01
42.000000 22.000000 -4.625131E+01
42.000000 20.000000 -6.136922E+01
42.000000 18.000000 -5.888757E+01
42.000000 16.000000 -2.516803E+01
42.000000 14.000000 2.292022E+01
42.000000 12.000000 6.193477E+01
42.000000 10.000000 7.212448E+01
42.000000 8.000000 4.210117E+01
42.000000 6.000000 -7.508602E-01
42.000000 4.000000 -3.659779E+01
42.000000 2.000000 -5.034720E+01
42.000000 0.000000 -4.760659E+01
42.000000 -2.000000 -3.631155E+01
42.000000 -4.000000 -3.121462E+01
42.000000 -6.000000 -3.825723E+01
42.000000 -8.000000 -5.172939E+01
42.000000 -10.000000 -6.712301E+01
42.000000 -12.000000 -7.731647E+01
42.000000 -14.000000 -7.805025E+01
42.000000 -16.000000 -7.458205E+01
42.000000 -18.000000 -7.329241E+01
42.000000 -20.000000 -7.186357E+01
42.000000 -22.000000 -6.142599E+01
42.000000 -24.000000 -3.555136E+01
42.000000 -26.000000 -9.029345E+00
42.000000 -28.000000 1.040428E+00
42.000000 -30.000000 9.912165E+00
42.000000 -32.000000 1.462567E+01
42.000000 -34.000000 1.233479E+01
42.000000 -36.000000 3.317412E+00
42.000000 -38.000000 -3.401355E+00
42.000000 -40.000000 -1.164095E+01
44.000000 40.000000 -6.766922E+01
44.000000 38.000000 -8.075603E+01
44.000000 36.000000 -8.815272E+01
44.000000 34.000000 -7.686288E+01
44.000000 32.000000 -4.382857E+01
44.000000 30.000000 -1.380568E+01
44.000000 28.000000 8.960533E-02
44.000000 26.000000 -1.515751E-01
44.000000 24.000000 -5.277755E+00
44.000000 22.000000 -1.920093E+01
44.000000 20.000000 -3.300690E+01
44.000000 18.000000 -3.481119E+01
44.000000 16.000000 -1.517398E+01
44.000000 14.000000 1.604895E+01
44.000000 12.000000 4.311582E+01
44.000000 10.000000 4.991727E+01
44.000000 8.000000 2.799390E+01
44.000000 6.000000 -4.149078E+00
44.000000 4.000000 -3.077135E+01
44.000000 2.000000 -4.121078E+01
44.000000 0.000000 -3.964992E+01
44.000000 -2.000000 -3.379637E+01
44.000000 -4.000000 -3.359215E+01
44.000000 -6.000000 -3.987050E+01
44.000000 -8.000000 -4.688794E+01
44.000000 -10.000000 -5.487549E+01
44.000000 -12.000000 -6.495210E+01
44.000000 -14.000000 -7.364701E+01
44.000000 -16.000000 -8.171126E+01
44.000000 -18.000000 -8.919661E+01
44.000000 -20.000000 -9.168505E+01
44.000000 -22.000000 -7.716784E+01
44.000000 -24.000000 -4.295998E+01
44.000000 -26.000000 -1.010588E+01
44.000000 -28.000000 -2.044926E+00
44.000000 -30.000000 -2.297497E-02
44.000000 -32.000000 -3.963480E-01
44.000000 -34.000000 -6.351109E-01
44.000000 -36.000000 -2.349745E+00
44.000000 -38.000000 -4.162604E+00
44.000000 -40.000000 -9.926900E+00
46.000000 40.000000 -6.560083E+01
46.000000 38.000000 -7.890392E+01
46.000000 36.000000 -8.717457E+01
46.000000 34.000000 -7.307463E+01
46.000000 32.000000 -3.471295E+01
46.000000 30.000000 7.051201E-01
46.000000 28.000000 1.916385E+01
46.000000 26.000000 2.066314E+01
46.000000 24.000000 1.623802E+01
46.000000 22.000000 4.231328E+00
46.000000 20.000000 -6.444146E+00
46.000000 18.000000 -9.748661E+00
46.000000 16.000000 -1.886271E+00
46.000000 14.000000 1.210838E+01
46.000000 12.000000 2.604571E+01
46.000000 10.000000 2.950866E+01
46.000000 8.000000 1.549776E+01
46.000000 6.000000 -5.235291E+00
46.000000 4.000000 -2.146458E+01
46.000000 2.000000 -2.817520E+01
46.000000 0.000000 -2.828200E+01
46.000000 -2.000000 -2.834024E+01
46.000000 -4.000000 -3.399067E+01
46.000000 -6.000000 -4.142104E+01
46.000000 -8.000000 -4.321872E+01
46.000000 -10.000000 -4.445827E+01
46.000000 -12.000000 -5.336454E+01
46.000000 -14.000000 -6.825580E+01
46.000000 -16.000000 -8.537964E+01
46.000000 -18.000000 -1.007525E+02
46.000000 -20.000000 -1.071939E+02
46.000000 -22.000000 -9.075120E+01
46.000000 -24.000000 -5.305457E+01
46.000000 -26.000000 -1.938682E+01
46.000000 -28.000000 -9.946983E+00
46.000000 -30.000000 -8.763695E+00
46.000000 -32.000000 -1.038740E+01
46.000000 -34.000000 -9.521738E+00
46.000000 -36.000000 -6.740623E+00
46.000000 -38.000000 -4.646934E+00
46.000000 -40.000000 -7.078473E+00
48.000000 40.000000 -6.250323E+01
48.000000 38.000000 -7.247458E+01
48.000000 36.000000 -7.822183E+01
48.000000 34.000000 -6.322137E+01
48.000000 32.000000 -2.619381E+01
48.000000 30.000000 9.190420E+00
48.000000 28.000000 3.061042E+01
48.000000 26.000000 3.567156E+01
48.000000 24.000000 3.390991E+01
48.000000 22.000000 2.235578E+01
48.000000 20.000000 1.271263E+01
48.000000 18.000000 8.016212E+00
48.000000 16.000000 7.700910E+00
48.000000 14.000000 9.458088E+00
48.000000 12.000000 1.297294E+01
48.000000 10.000000 1.284433E+01
48.000000 8.000000 4.701412E+00
48.000000 6.000000 -6.595925E+00
48.000000 4.000000 -1.450090E+01
48.000000 2.000000 -1.830626E+01
48.000000 0.000000 -2.017350E+01
48.000000 -2.000000 -2.381305E+01
48.000000 -4.000000 -3.200357E+01
48.000000 -6.000000 -3.825678E+01
48.000000 -8.000000 -3.687129E+01
48.000000 -10.000000 -3.493848E+01
48.000000 -12.000000 -4.427334E+01
48.000000 -14.000000 -6.263730E+01
48.000000 -16.000000 -8.350702E+01
48.000000 -18.000000 -1.018997E+02
48.000000 -20.000000 -1.095456E+02
48.000000 -22.000000 -9.342563E+01
48.000000 -24.000000 -5.722576E+01
48.000000 -26.000000 -2.598884E+01
48.000000 -28.000000 -1.599268E+01
48.000000 -30.000000 -1.466452E+01
48.000000 -32.000000 -1.758860E+01
48.000000 -34.000000 -1.611227E+01
48.000000 -36.000000 -1.056422E+01
48.000000 -38.000000 -5.224189E+00
48.000000 -40.000000 -3.956931E+00
50.000000 40.000000 -5.752121E+01
50.000000 38.000000 -6.124467E+01
50.000000 36.000000 -6.204067E+01
50.000000 34.000000 -4.976685E+01
50.000000 32.000000 -2.192060E+01
50.000000 30.000000 7.631890E+00
50.000000 28.000000 3.060643E+01
50.000000 26.000000 4.158928E+01
50.000000 24.000000 4.500784E+01
50.000000 22.000000 3.354272E+01
50.000000 20.000000 2.204999E+01
50.000000 18.000000 1.441631E+01
50.000000 16.000000 9.938734E+00
50.000000 14.000000 6.478498E+00
50.000000 12.000000 4.241269E+00
50.000000 10.000000 1.121968E+00
50.000000 8.000000 -3.453110E+00
50.000000 6.000000 -8.742218E+00
50.000000 4.000000 -1.084765E+01
50.000000 2.000000 -1.216180E+01
50.000000 0.000000 -1.407528E+01
50.000000 -2.000000 -1.818748E+01
50.000000 -4.000000 -2.544144E+01
50.000000 -6.000000 -2.989558E+01
50.000000 -8.000000 -2.841090E+01
50.000000 -10.000000 -2.697036E+01
50.000000 -12.000000 -3.734468E+01
50.000000 -14.000000 -5.566257E+01
50.000000 -16.000000 -7.568068E+01
50.000000 -18.000000 -9.135961E+01
50.000000 -20.000000 -9.719312E+01
50.000000 -22.000000 -8.310187E+01
50.000000 -24.000000 -5.133369E+01
50.000000 -26.000000 -2.404438E+01
50.000000 -28.000000 -1.642106E+01
50.000000 -30.000000 -1.737925E+01
50.000000 -32.000000 -2.398996E+01
50.000000 -34.000000 -2.190118E+01
50.000000 -36.000000 -1.332357E+01
50.000000 -38.000000 -5.104320E+00
50.000000 -40.000000 -8.447421E-01
52.000000 40.000000 -4.814528E+01
52.000000 38.000000 -4.612061E+01
52.000000 36.000000 -4.387989E+01
52.000000 34.000000 -3.783909E+01
52.000000 32.000000 -2.414034E+01
52.000000 30.000000 -4.652928E+00
52.000000 28.000000 1.877356E+01
52.000000 26.000000 3.658183E+01
52.000000 24.000000 4.634576E+01
52.000000 22.000000 3.767075E+01
52.000000 20.000000 2.409806E+01
52.000000 18.000000 1.364543E+01
52.000000 16.000000 9.143691E+00
52.000000 14.000000 5.630405E+00
52.000000 12.000000 1.148172E+00
52.000000 10.000000 -4.232762E+00
52.000000 8.000000 -7.768919E+00
52.000000 6.000000 -1.052073E+01
52.000000 4.000000 -9.613693E+00
52.000000 2.000000 -8.902508E+00
52.000000 0.000000 -9.247277E+00
52.000000 -2.000000 -1.230664E+01
52.000000 -4.000000 -1.772530E+01
52.000000 -6.000000 -2.266443E+01
52.000000 -8.000000 -2.346615E+01
52.000000 -10.000000 -2.421434E+01
52.000000 -12.000000 -3.281902E+01
52.000000 -14.000000 -4.513955E+01
52.000000 -16.000000 -5.883466E+01
52.000000 -18.000000 -6.965848E+01
52.000000 -20.000000 -7.432367E+01
52.000000 -22.000000 -6.390065E+01
52.000000 -24.000000 -3.757989E+01
52.000000 -26.000000 -1.584413E+01
52.000000 -28.000000 -1.313201E+01
52.000000 -30.000000 -1.692763E+01
52.000000 -32.000000 -2.480763E+01
52.000000 -34.000000 -2.430503E+01
52.000000 -36.000000 -1.400648E+01
52.000000 -38.000000 -3.780851E+00
52.000000 -40.000000 2.057651E+00
54.000000 40.000000 -3.600244E+01
54.000000 38.000000 -3.038955E+01
54.000000 36.000000 -2.833332E+01
54.000000 34.000000 -3.058926E+01
54.000000 32.000000 -3.197475E+01
54.000000 30.000000 -2.320182E+01
54.000000 28.000000 3.166065E-01
54.000000 26.000000 2.492132E+01
54.000000 24.000000 4.185506E+01
54.000000 22.000000 3.849430E+01
54.000000 20.000000 2.527532E+01
54.000000 18.000000 1.523322E+01
54.000000 16.000000 1.273173E+01
54.000000 14.000000 1.044971E+01
54.000000 12.000000 5.028216E+00
54.000000 10.000000 -3.132390E+00
54.000000 8.000000 -9.762610E+00
54.000000 6.000000 -1.390087E+01
54.000000 4.000000 -1.402255E+01
54.000000 2.000000 -1.279541E+01
54.000000 0.000000 -1.162234E+01
54.000000 -2.000000 -1.322061E+01
54.000000 -4.000000 -1.711052E+01
54.000000 -6.000000 -2.451154E+01
54.000000 -8.000000 -2.637432E+01
54.000000 -10.000000 -2.598735E+01
54.000000 -12.000000 -2.881482E+01
54.000000 -14.000000 -3.087267E+01
54.000000 -16.000000 -3.360146E+01
54.000000 -18.000000 -3.916564E+01
54.000000 -20.000000 -4.567419E+01
54.000000 -22.000000 -4.057820E+01
54.000000 -24.000000 -1.999396E+01
54.000000 -26.000000 -4.045463E+00
54.000000 -28.000000 -6.272706E+00
54.000000 -30.000000 -1.204552E+01
54.000000 -32.000000 -1.967814E+01
54.000000 -34.000000 -2.238481E+01
54.000000 -36.000000 -1.244866E+01
54.000000 -38.000000 -1.678825E+00
54.000000 -40.000000 4.531516E+00
56.000000 40.000000 -2.722772E+01
56.000000 38.000000 -2.067529E+01
56.000000 36.000000 -1.903131E+01
56.000000 34.000000 -2.837053E+01
56.000000 32.000000 -4.017410E+01
56.000000 30.000000 -3.946751E+01
56.000000 28.000000 -1.697074E+01
56.000000 26.000000 1.274237E+01
