-28.000000 26.000000 -3.258072E+00
-28.000000 24.000000 -7.605209E-01
-28.000000 22.000000 -3.109762E+00
-28.000000 20.000000 -4.658871E-01
-28.000000 18.000000 1.048468E+01
-28.000000 16.000000 2.801684E+01
-28.000000 14.000000 3.940093E+01
-28.000000 12.000000 3.961364E+01
-28.000000 10.000000 3.764478E+01
-28.000000 8.000000 2.794932E+01
-28.000000 6.000000 1.435055E+01
-28.000000 4.000000 -4.132700E-02
-28.000000 2.000000 -3.528859E+00
-28.000000 0.000000 -4.025867E+00
-28.000000 -2.000000 -8.460810E+00
-28.000000 -4.000000 -1.827767E+01
-28.000000 -6.000000 -2.431518E+01
-28.000000 -8.000000 -1.792194E+01
-28.000000 -10.000000 -9.053517E+00
-28.000000 -12.000000 -5.751190E+00
-28.000000 -14.000000 -1.351650E+01
-28.000000 -16.000000 -3.173066E+01
-28.000000 -18.000000 -4.591176E+01
-28.000000 -20.000000 -4.864190E+01
-28.000000 -22.000000 -4.418655E+01
-28.000000 -24.000000 -2.715336E+01
-28.000000 -26.000000 -1.002302E+01
-28.000000 -28.000000 -9.565163E-01
-28.000000 -30.000000 -8.547707E-01
-28.000000 -32.000000 -5.570646E+00
-28.000000 -34.000000 -2.114334E-01
-28.000000 -36.000000 1.146814E+01
-28.000000 -38.000000 1.965552E+01
-28.000000 -40.000000 2.463368E+01
-26.000000 40.000000 -2.517071E+01
-26.000000 38.000000 -2.118240E+01
-26.000000 36.000000 -1.485371E+01
-26.000000 34.000000 -1.142680E+01
-26.000000 32.000000 -1.844876E+01
-26.000000 30.000000 -2.401892E+01
-26.000000 28.000000 -2.100066E+01
-26.000000 26.000000 -1.575999E+01
-26.000000 24.000000 -1.678824E+01
-26.000000 22.000000 -2.496239E+01
-26.000000 20.000000 -2.597761E+01
-26.000000 18.000000 -1.418536E+01
-26.000000 16.000000 6.305603E+00
-26.000000 14.000000 2.131048E+01
-26.000000 12.000000 2.501663E+01
-26.000000 10.000000 2.765261E+01
-26.000000 8.000000 2.601558E+01
-26.000000 6.000000 1.652867E+01
-26.000000 4.000000 -9.819212E-01
-26.000000 2.000000 -7.950104E+00
-26.000000 0.000000 -9.108146E+00
-26.000000 -2.000000 -1.120040E+01
-26.000000 -4.000000 -1.853157E+01
-26.000000 -6.000000 -2.404736E+01
-26.000000 -8.000000 -1.633156E+01
-26.000000 -10.000000 -5.680027E-01
-26.000000 -12.000000 1.007473E+01
-26.000000 -14.000000 5.496928E+00
-26.000000 -16.000000 -1.209769E+01
-26.000000 -18.000000 -2.771901E+01
-26.000000 -20.000000 -3.364511E+01
-26.000000 -22.000000 -3.151802E+01
-26.000000 -24.000000 -1.727980E+01
-26.000000 -26.000000 -1.454609E+00
-26.000000 -28.000000 4.636705E+00
-26.000000 -30.000000 4.454088E+00
-26.000000 -32.000000 -9.721193E-01
-26.000000 -34.000000 2.963493E+00
-26.000000 -36.000000 1.273088E+01
-26.000000 -38.000000 1.881853E+01
-26.000000 -40.000000 2.248825E+01
-24.000000 40.000000 -2.415500E+01
-24.000000 38.000000 -2.078866E+01
-24.000000 36.000000 -1.230574E+01
-24.000000 34.000000 -1.015618E+01
-24.000000 32.000000 -2.127502E+01
-24.000000 30.000000 -3.253598E+01
-24.000000 28.000000 -3.257164E+01
-24.000000 26.000000 -2.821441E+01
-24.000000 24.000000 -3.454904E+01
-24.000000 22.000000 -4.599960E+01
-24.000000 20.000000 -5.348576E+01
-24.000000 18.000000 -4.734911E+01
-24.000000 16.000000 -2.804364E+01
-24.000000 14.000000 -1.180201E+01
-24.000000 12.000000 -5.557878E+00
-24.000000 10.000000 2.753299E+00
-24.000000 8.000000 1.314676E+01
-24.000000 6.000000 1.206428E+01
-24.000000 4.000000 -1.855766E+00
-24.000000 2.000000 -8.913873E+00
-24.000000 0.000000 -9.724064E+00
-24.000000 -2.000000 -1.021188E+01
-24.000000 -4.000000 -1.480774E+01
-24.000000 -6.000000 -1.966128E+01
-24.000000 -8.000000 -8.945748E+00
-24.000000 -10.000000 1.495816E+01
-24.000000 -12.000000 3.398637E+01
-24.000000 -14.000000 3.751900E+01
-24.000000 -16.000000 2.551040E+01
-24.000000 -18.000000 8.854866E+00
-24.000000 -20.000000 -3.298408E+00
-24.000000 -22.000000 -8.679830E+00
-24.000000 -24.000000 -2.688919E+00
-24.000000 -26.000000 6.820573E+00
-24.000000 -28.000000 1.145084E+01
-24.000000 -30.000000 1.090101E+01
-24.000000 -32.000000 5.339821E+00
-24.000000 -34.000000 6.438200E+00
-24.000000 -36.000000 1.310174E+01
-24.000000 -38.000000 1.955558E+01
-24.000000 -40.000000 2.186124E+01
-22.000000 40.000000 -2.270127E+01
-22.000000 38.000000 -1.937109E+01
-22.000000 36.000000 -1.192971E+01
-22.000000 34.000000 -1.098038E+01
-22.000000 32.000000 -2.349605E+01
-22.000000 30.000000 -3.643912E+01
-22.000000 28.000000 -3.782122E+01
-22.000000 26.000000 -3.421542E+01
-22.000000 24.000000 -3.980964E+01
-22.000000 22.000000 -5.215246E+01
-22.000000 20.000000 -6.513501E+01
-22.000000 18.000000 -6.674910E+01
-22.000000 16.000000 -5.439285E+01
-22.000000 14.000000 -4.321154E+01
-22.000000 12.000000 -3.755313E+01
-22.000000 10.000000 -2.754702E+01
-22.000000 8.000000 -1.116912E+01
-22.000000 6.000000 -4.425797E+00
-22.000000 4.000000 -9.387533E+00
-22.000000 2.000000 -1.170194E+01
-22.000000 0.000000 -8.865174E+00
-22.000000 -2.000000 -5.611384E+00
-22.000000 -4.000000 -6.881661E+00
-22.000000 -6.000000 -1.231577E+01
-22.000000 -8.000000 -3.227370E-01
-22.000000 -10.000000 2.800917E+01
-22.000000 -12.000000 5.343260E+01
-22.000000 -14.000000 6.451469E+01
-22.000000 -16.000000 5.645044E+01
-22.000000 -18.000000 3.985130E+01
-22.000000 -20.000000 2.375384E+01
-22.000000 -22.000000 1.145590E+01
-22.000000 -24.000000 1.101071E+01
-22.000000 -26.000000 1.444846E+01
-22.000000 -28.000000 1.622961E+01
-22.000000 -30.000000 1.602063E+01
-22.000000 -32.000000 1.042376E+01
-22.000000 -34.000000 9.395244E+00
-22.000000 -36.000000 1.460350E+01
-22.000000 -38.000000 2.017533E+01
-22.000000 -40.000000 2.111991E+01
-20.000000 40.000000 -2.324711E+01
-20.000000 38.000000 -1.969986E+01
-20.000000 36.000000 -1.351407E+01
-20.000000 34.000000 -1.288023E+01
-20.000000 32.000000 -2.447417E+01
-20.000000 30.000000 -3.582490E+01
-20.000000 28.000000 -3.645712E+01
-20.000000 26.000000 -3.122540E+01
-20.000000 24.000000 -3.364789E+01
-20.000000 22.000000 -4.501504E+01
-20.000000 20.000000 -5.826934E+01
-20.000000 18.000000 -6.474469E+01
-20.000000 16.000000 -6.162005E+01
-20.000000 14.000000 -5.986195E+01
-20.000000 12.000000 -5.943327E+01
-20.000000 10.000000 -5.062096E+01
-20.000000 8.000000 -3.264443E+01
-20.000000 6.000000 -2.331130E+01
-20.000000 4.000000 -2.410043E+01
-20.000000 2.000000 -2.309079E+01
-20.000000 0.000000 -1.520544E+01
-20.000000 -2.000000 -5.259910E+00
-20.000000 -4.000000 4.229593E-01
-20.000000 -6.000000 -2.251788E+00
-20.000000 -8.000000 7.909208E+00
-20.000000 -10.000000 3.356261E+01
-20.000000 -12.000000 5.823662E+01
-20.000000 -14.000000 7.076704E+01
-20.000000 -16.000000 6.483769E+01
-20.000000 -18.000000 5.068263E+01
-20.000000 -20.000000 3.564432E+01
-20.000000 -22.000000 2.432375E+01
-20.000000 -24.000000 2.231028E+01
-20.000000 -26.000000 2.133608E+01
-20.000000 -28.000000 2.014754E+01
-20.000000 -30.000000 1.976514E+01
-20.000000 -32.000000 1.427592E+01
-20.000000 -34.000000 1.228611E+01
-20.000000 -36.000000 1.689817E+01
-20.000000 -38.000000 2.138941E+01
-20.000000 -40.000000 2.163440E+01
-18.000000 40.000000 -2.589537E+01
-18.000000 38.000000 -2.160728E+01
-18.000000 36.000000 -1.531461E+01
-18.000000 34.000000 -1.350850E+01
-18.000000 32.000000 -2.260392E+01
-18.000000 30.000000 -3.104231E+01
-18.000000 28.000000 -3.022974E+01
-18.000000 26.000000 -2.374701E+01
-18.000000 24.000000 -2.279003E+01
-18.000000 22.000000 -3.052164E+01
-18.000000 20.000000 -3.972141E+01
-18.000000 18.000000 -4.737098E+01
-18.000000 16.000000 -5.133666E+01
-18.000000 14.000000 -5.874529E+01
-18.000000 12.000000 -6.452575E+01
-18.000000 10.000000 -5.867901E+01
-18.000000 8.000000 -4.264462E+01
-18.000000 6.000000 -3.533532E+01
-18.000000 4.000000 -3.779343E+01
-18.000000 2.000000 -3.767873E+01
-18.000000 0.000000 -2.777355E+01
-18.000000 -2.000000 -1.260696E+01
-18.000000 -4.000000 -8.668194E-01
-18.000000 -6.000000 3.426695E+00
-18.000000 -8.000000 1.212660E+01
-18.000000 -10.000000 3.052527E+01
-18.000000 -12.000000 4.823919E+01
-18.000000 -14.000000 5.757468E+01
-18.000000 -16.000000 5.253049E+01
-18.000000 -18.000000 3.996928E+01
-18.000000 -20.000000 2.892361E+01
-18.000000 -22.000000 2.448110E+01
-18.000000 -24.000000 2.568171E+01
-18.000000 -26.000000 2.515340E+01
-18.000000 -28.000000 2.323684E+01
-18.000000 -30.000000 2.235423E+01
-18.000000 -32.000000 1.741258E+01
-18.000000 -34.000000 1.497354E+01
-18.000000 -36.000000 1.861962E+01
-18.000000 -38.000000 2.286168E+01
-18.000000 -40.000000 2.379398E+01
-16.000000 40.000000 -2.940952E+01
-16.000000 38.000000 -2.403194E+01
-16.000000 36.000000 -1.686758E+01
-16.000000 34.000000 -1.317015E+01
-16.000000 32.000000 -1.842043E+01
-16.000000 30.000000 -2.273135E+01
-16.000000 28.000000 -2.090081E+01
-16.000000 26.000000 -1.638794E+01
-16.000000 24.000000 -1.600036E+01
-16.000000 22.000000 -2.061193E+01
-16.000000 20.000000 -2.362934E+01
-16.000000 18.000000 -2.608472E+01
-16.000000 16.000000 -3.292399E+01
-16.000000 14.000000 -4.585473E+01
-16.000000 12.000000 -5.540982E+01
-16.000000 10.000000 -5.148731E+01
-16.000000 8.000000 -3.852321E+01
-16.000000 6.000000 -3.392387E+01
-16.000000 4.000000 -4.169788E+01
-16.000000 2.000000 -4.671317E+01
-16.000000 0.000000 -3.950286E+01
-16.000000 -2.000000 -2.253080E+01
-16.000000 -4.000000 -8.178602E+00
-16.000000 -6.000000 -1.027741E+00
-16.000000 -8.000000 5.711185E+00
-16.000000 -10.000000 1.796350E+01
-16.000000 -12.000000 2.911068E+01
-16.000000 -14.000000 3.370778E+01
-16.000000 -16.000000 2.776689E+01
-16.000000 -18.000000 1.655415E+01
-16.000000 -20.000000 1.100719E+01
-16.000000 -22.000000 1.510121E+01
-16.000000 -24.000000 2.221020E+01
-16.000000 -26.000000 2.461658E+01
-16.000000 -28.000000 2.423321E+01
-16.000000 -30.000000 2.432171E+01
-16.000000 -32.000000 2.008274E+01
-16.000000 -34.000000 1.685024E+01
-16.000000 -36.000000 1.942060E+01
-16.000000 -38.000000 2.407507E+01
-16.000000 -40.000000 2.606249E+01
-14.000000 40.000000 -3.263185E+01
-14.000000 38.000000 -2.630493E+01
-14.000000 36.000000 -1.763998E+01
-14.000000 34.000000 -1.205456E+01
-14.000000 32.000000 -1.479377E+01
-14.000000 30.000000 -1.561451E+01
-14.000000 28.000000 -1.177936E+01
-14.000000 26.000000 -9.883154E+00
-14.000000 24.000000 -1.361712E+01
-14.000000 22.000000 -1.796125E+01
-14.000000 20.000000 -1.584025E+01
-14.000000 18.000000 -1.030303E+01
-14.000000 16.000000 -1.735746E+01
-14.000000 14.000000 -3.404821E+01
-14.000000 12.000000 -4.725568E+01
-14.000000 10.000000 -4.159046E+01
-14.000000 8.000000 -2.652959E+01
-14.000000 6.000000 -2.097029E+01
-14.000000 4.000000 -3.460609E+01
-14.000000 2.000000 -4.740176E+01
-14.000000 0.000000 -4.559902E+01
-14.000000 -2.000000 -3.095900E+01
-14.000000 -4.000000 -1.827927E+01
-14.000000 -6.000000 -1.393216E+01
-14.000000 -8.000000 -9.032825E+00
-14.000000 -10.000000 1.197383E+00
-14.000000 -12.000000 9.884669E+00
-14.000000 -14.000000 9.512902E+00
-14.000000 -16.000000 1.566898E+00
-14.000000 -18.000000 -6.714680E+00
-14.000000 -20.000000 -6.281857E+00
-14.000000 -22.000000 3.898833E+00
-14.000000 -24.000000 1.542394E+01
-14.000000 -26.000000 2.132092E+01
-14.000000 -28.000000 2.346432E+01
-14.000000 -30.000000 2.464197E+01
-14.000000 -32.000000 2.106344E+01
-14.000000 -34.000000 1.776234E+01
-14.000000 -36.000000 1.988200E+01
-14.000000 -38.000000 2.422900E+01
-14.000000 -40.000000 2.710412E+01
-12.000000 40.000000 -3.410990E+01
-12.000000 38.000000 -2.731209E+01
-12.000000 36.000000 -1.763409E+01
-12.000000 34.000000 -1.104732E+01
-12.000000 32.000000 -1.357021E+01
-12.000000 30.000000 -1.308068E+01
-12.000000 28.000000 -6.542643E+00
-12.000000 26.000000 -4.608116E+00
-12.000000 24.000000 -1.052921E+01
-12.000000 22.000000 -1.584393E+01
-12.000000 20.000000 -1.263069E+01
-12.000000 18.000000 -4.710150E+00
-12.000000 16.000000 -1.482940E+01
-12.000000 14.000000 -3.842080E+01
-12.000000 12.000000 -5.620705E+01
-12.000000 10.000000 -4.660962E+01
-12.000000 8.000000 -2.427843E+01
-12.000000 6.000000 -1.274612E+01
-12.000000 4.000000 -2.545619E+01
-12.000000 2.000000 -4.042032E+01
-12.000000 0.000000 -4.238416E+01
-12.000000 -2.000000 -3.171513E+01
-12.000000 -4.000000 -2.304990E+01
-12.000000 -6.000000 -2.386684E+01
-12.000000 -8.000000 -2.006893E+01
-12.000000 -10.000000 -9.404118E+00
-12.000000 -12.000000 -5.432081E-01
-12.000000 -14.000000 -3.050316E+00
-12.000000 -16.000000 -1.346260E+01
-12.000000 -18.000000 -2.080707E+01
-12.000000 -20.000000 -1.638398E+01
-12.000000 -22.000000 -4.654835E+00
-12.000000 -24.000000 7.961576E+00
-12.000000 -26.000000 1.611247E+01
-12.000000 -28.000000 2.010507E+01
-12.000000 -30.000000 2.187146E+01
-12.000000 -32.000000 1.871487E+01
-12.000000 -34.000000 1.701840E+01
-12.000000 -36.000000 1.977740E+01
-12.000000 -38.000000 2.317083E+01
-12.000000 -40.000000 2.703077E+01
-10.000000 40.000000 -3.283302E+01
-10.000000 38.000000 -2.668398E+01
-10.000000 36.000000 -1.756270E+01
-10.000000 34.000000 -1.142141E+01
-10.000000 32.000000 -1.516005E+01
-10.000000 30.000000 -1.534659E+01
-10.000000 28.000000 -6.172791E+00
-10.000000 26.000000 3.179588E-01
-10.000000 24.000000 -2.799997E+00
-10.000000 22.000000 -9.791231E+00
-10.000000 20.000000 -1.148551E+01
-10.000000 18.000000 -1.074681E+01
-10.000000 16.000000 -2.894930E+01
-10.000000 14.000000 -6.310219E+01
-10.000000 12.000000 -8.670323E+01
-10.000000 10.000000 -7.433639E+01
-10.000000 8.000000 -3.978907E+01
-10.000000 6.000000 -1.706934E+01
-10.000000 4.000000 -1.950587E+01
-10.000000 2.000000 -2.764037E+01
-10.000000 0.000000 -2.601389E+01
-10.000000 -2.000000 -1.393908E+01
-10.000000 -4.000000 -7.381628E+00
-10.000000 -6.000000 -1.909357E+01
-10.000000 -8.000000 -2.039426E+01
-10.000000 -10.000000 -8.793638E+00
-10.000000 -12.000000 -1.987057E-01
-10.000000 -14.000000 -3.596011E+00
-10.000000 -16.000000 -1.759506E+01
-10.000000 -18.000000 -2.699439E+01
-10.000000 -20.000000 -2.140411E+01
-10.000000 -22.000000 -1.042878E+01
-10.000000 -24.000000 9.805290E-01
-10.000000 -26.000000 8.755055E+00
-10.000000 -28.000000 1.315718E+01
-10.000000 -30.000000 1.573321E+01
-10.000000 -32.000000 1.334903E+01
-10.000000 -34.000000 1.412318E+01
-10.000000 -36.000000 1.841176E+01
-10.000000 -38.000000 2.166558E+01
-10.000000 -40.000000 2.697768E+01
-8.000000 40.000000 -2.883126E+01
-8.000000 38.000000 -2.439463E+01
-8.000000 36.000000 -1.645925E+01
-8.000000 34.000000 -1.236566E+01
-8.000000 32.000000 -1.976754E+01
-8.000000 30.000000 -2.226681E+01
-8.000000 28.000000 -9.690842E+00
-8.000000 26.000000 3.872034E+00
-8.000000 24.000000 5.295198E+00
-8.000000 22.000000 -3.963575E+00
-8.000000 20.000000 -1.327448E+01
-8.000000 18.000000 -2.214864E+01
-8.000000 16.000000 -4.814437E+01
-8.000000 14.000000 -9.137722E+01
-8.000000 12.000000 -1.209948E+02
-8.000000 10.000000 -1.057743E+02
-8.000000 8.000000 -5.722343E+01
-8.000000 6.000000 -2.359767E+01
-8.000000 4.000000 -1.343038E+01
-8.000000 2.000000 -1.198027E+01
-8.000000 0.000000 -2.463608E+00
-8.000000 -2.000000 1.310693E+01
-8.000000 -4.000000 1.715064E+01
-8.000000 -6.000000 -5.208689E+00
-8.000000 -8.000000 -1.463865E+01
-8.000000 -10.000000 -3.535230E+00
-8.000000 -12.000000 5.238300E+00
-8.000000 -14.000000 9.127455E-01
-8.000000 -16.000000 -1.609451E+01
-8.000000 -18.000000 -2.801726E+01
-8.000000 -20.000000 -2.477507E+01
-8.000000 -22.000000 -1.570413E+01
-8.000000 -24.000000 -6.423835E+00
-8.000000 -26.000000 -4.553047E-01
-8.000000 -28.000000 3.256681E+00
-8.000000 -30.000000 6.278663E+00
-8.000000 -32.000000 6.142682E+00
-8.000000 -34.000000 9.412338E+00
-8.000000 -36.000000 1.566079E+01
-8.000000 -38.000000 2.110538E+01
-8.000000 -40.000000 2.829518E+01
-6.000000 40.000000 -2.241575E+01
-6.000000 38.000000 -1.964732E+01
-6.000000 36.000000 -1.360621E+01
-6.000000 34.000000 -1.323896E+01
-6.000000 32.000000 -2.554630E+01
-6.000000 30.000000 -3.072462E+01
-6.000000 28.000000 -1.634062E+01
-6.000000 26.000000 1.595924E+00
-6.000000 24.000000 7.010508E+00
-6.000000 22.000000 -1.741728E+00
-6.000000 20.000000 -1.570899E+01
-6.000000 18.000000 -3.098465E+01
-6.000000 16.000000 -5.731982E+01
-6.000000 14.000000 -9.870247E+01
-6.000000 12.000000 -1.266091E+02
-6.000000 10.000000 -1.080150E+02
-6.000000 8.000000 -5.494635E+01
-6.000000 6.000000 -1.748481E+01
-6.000000 4.000000 -1.561256E+00
-6.000000 2.000000 4.153971E+00
-6.000000 0.000000 1.532471E+01
-6.000000 -2.000000 2.499994E+01
-6.000000 -4.000000 1.867427E+01
-6.000000 -6.000000 -6.999411E+00
-6.000000 -8.000000 -1.754170E+01
-6.000000 -10.000000 -5.012088E+00
-6.000000 -12.000000 7.988628E+00
-6.000000 -14.000000 4.365088E+00
-6.000000 -16.000000 -1.448637E+01
-6.000000 -18.000000 -2.803428E+01
-6.000000 -20.000000 -2.747440E+01
-6.000000 -22.000000 -2.112064E+01
-6.000000 -24.000000 -1.378331E+01
-6.000000 -26.000000 -9.450598E+00
-6.000000 -28.000000 -7.289258E+00
-6.000000 -30.000000 -3.848218E+00
-6.000000 -32.000000 -1.300305E+00
-6.000000 -34.000000 4.004005E+00
-6.000000 -36.000000 1.258249E+01
-6.000000 -38.000000 2.173064E+01
-6.000000 -40.000000 3.122578E+01
-4.000000 40.000000 -1.583086E+01
-4.000000 38.000000 -1.310682E+01
-4.000000 36.000000 -8.166158E+00
-4.000000 34.000000 -1.142096E+01
-4.000000 32.000000 -2.681199E+01
-4.000000 30.000000 -3.357721E+01
-4.000000 28.000000 -2.065518E+01
-4.000000 26.000000 -2.703398E+00
-4.000000 24.000000 4.312586E+00
-4.000000 22.000000 -2.281219E+00
-4.000000 20.000000 -1.577259E+01
-4.000000 18.000000 -3.085755E+01
-4.000000 16.000000 -5.099520E+01
-4.000000 14.000000 -8.056718E+01
-4.000000 12.000000 -9.782445E+01
-4.000000 10.000000 -7.794348E+01
-4.000000 8.000000 -3.263545E+01
-4.000000 6.000000 7.559547E-01
-4.000000 4.000000 1.039726E+01
-4.000000 2.000000 1.092389E+01
-4.000000 0.000000 1.616373E+01
-4.000000 -2.000000 1.856090E+01
-4.000000 -4.000000 4.335398E+00
-4.000000 -6.000000 -2.389841E+01
-4.000000 -8.000000 -3.268036E+01
-4.000000 -10.000000 -1.766854E+01
-4.000000 -12.000000 1.401306E+00
-4.000000 -14.000000 -1.642532E-01
-4.000000 -16.000000 -2.044492E+01
-4.000000 -18.000000 -3.387328E+01
-4.000000 -20.000000 -3.296980E+01
-4.000000 -22.000000 -2.735935E+01
-4.000000 -24.000000 -2.004413E+01
-4.000000 -26.000000 -1.611418E+01
-4.000000 -28.000000 -1.572288E+01
-4.000000 -30.000000 -1.142261E+01
-4.000000 -32.000000 -7.512986E+00
-4.000000 -34.000000 -1.051749E+00
-4.000000 -36.000000 1.020217E+01
-4.000000 -38.000000 2.292831E+01
-4.000000 -40.000000 3.547781E+01
-2.000000 40.000000 -1.077648E+01
-2.000000 38.000000 -6.016518E+00
-2.000000 36.000000 7.558327E-01
-2.000000 34.000000 -2.916931E+00
-2.000000 32.000000 -1.978200E+01
-2.000000 30.000000 -2.719959E+01
-2.000000 28.000000 -1.652033E+01
-2.000000 26.000000 -9.042816E-01
-2.000000 24.000000 5.395477E+00
-2.000000 22.000000 -1.271896E-01
-2.000000 20.000000 -1.091339E+01
-2.000000 18.000000 -2.109202E+01
-2.000000 16.000000 -3.241700E+01
-2.000000 14.000000 -4.951873E+01
-2.000000 12.000000 -6.083314E+01
-2.000000 10.000000 -4.426173E+01
-2.000000 8.000000 -1.037990E+01
-2.000000 6.000000 1.417823E+01
-2.000000 4.000000 1.272020E+01
-2.000000 2.000000 5.404408E+00
-2.000000 0.000000 4.583031E+00
-2.000000 -2.000000 4.299967E+00
-2.000000 -4.000000 -1.061474E+01
-2.000000 -6.000000 -3.964333E+01
-2.000000 -8.000000 -4.832140E+01
-2.000000 -10.000000 -3.405349E+01
-2.000000 -12.000000 -1.414403E+01
-2.000000 -14.000000 -1.415937E+01
-2.000000 -16.000000 -3.124135E+01
-2.000000 -18.000000 -4.322451E+01
-2.000000 -20.000000 -4.267640E+01
-2.000000 -22.000000 -3.596976E+01
-2.000000 -24.000000 -2.669608E+01
-2.000000 -26.000000 -2.083156E+01
-2.000000 -28.000000 -2.040040E+01
-2.000000 -30.000000 -1.642241E+01
-2.000000 -32.000000 -1.321284E+01
-2.000000 -34.000000 -5.413951E+00
-2.000000 -36.000000 9.456808E+00
-2.000000 -38.000000 2.558300E+01
-2.000000 -40.000000 4.110398E+01
0.000000 40.000000 -6.395336E+00
0.000000 38.000000 1.420527E+00
0.000000 36.000000 1.038933E+01
0.000000 34.000000 1.001136E+01
0.000000 32.000000 -4.788825E+00
0.000000 30.000000 -9.745412E+00
0.000000 28.000000 5.897141E-02
0.000000 26.000000 1.168700E+01
0.000000 24.000000 1.650439E+01
0.000000 22.000000 1.070181E+01
0.000000 20.000000 -9.728622E-02
0.000000 18.000000 -8.493889E+00
0.000000 16.000000 -1.395236E+01
0.000000 14.000000 -2.455615E+01
0.000000 12.000000 -3.827101E+01
0.000000 10.000000 -3.127059E+01
0.000000 8.000000 -8.907637E+00
0.000000 6.000000 8.099743E+00
0.000000 4.000000 2.747063E+00
0.000000 2.000000 -6.140942E+00
0.000000 0.000000 -8.763721E+00
0.000000 -2.000000 -1.049281E+01
0.000000 -4.000000 -2.480955E+01
0.000000 -6.000000 -5.174079E+01
0.000000 -8.000000 -5.973887E+01
0.000000 -10.000000 -4.725448E+01
0.000000 -12.000000 -2.936117E+01
0.000000 -14.000000 -2.685410E+01
0.000000 -16.000000 -3.774263E+01
0.000000 -18.000000 -4.797550E+01
0.000000 -20.000000 -5.036015E+01
0.000000 -22.000000 -4.495845E+01
0.000000 -24.000000 -3.282680E+01
0.000000 -26.000000 -2.324171E+01
0.000000 -28.000000 -2.144935E+01
0.000000 -30.000000 -1.966566E+01
0.000000 -32.000000 -1.947537E+01
0.000000 -34.000000 -9.782569E+00
0.000000 -36.000000 1.020027E+01
0.000000 -38.000000 3.034257E+01
0.000000 -40.000000 4.808222E+01
2.000000 40.000000 -2.738850E+00
2.000000 38.000000 8.481905E+00
2.000000 36.000000 1.898869E+01
2.000000 34.000000 2.320802E+01
2.000000 32.000000 1.400585E+01
2.000000 30.000000 1.409227E+01
2.000000 28.000000 2.525233E+01
2.000000 26.000000 3.482899E+01
2.000000 24.000000 3.830519E+01
2.000000 22.000000 2.929949E+01
2.000000 20.000000 1.520634E+01
2.000000 18.000000 4.287354E+00
2.000000 16.000000 -4.039658E+00
2.000000 14.000000 -1.952368E+01
2.000000 12.000000 -3.984567E+01
2.000000 10.000000 -4.523924E+01
2.000000 8.000000 -3.108993E+01
2.000000 6.000000 -1.494239E+01
2.000000 4.000000 -1.531169E+01
2.000000 2.000000 -2.231262E+01
2.000000 0.000000 -2.616724E+01
2.000000 -2.000000 -2.785709E+01
2.000000 -4.000000 -3.884343E+01
2.000000 -6.000000 -6.045944E+01
2.000000 -8.000000 -6.501353E+01
2.000000 -10.000000 -5.251616E+01
2.000000 -12.000000 -3.450734E+01
2.000000 -14.000000 -2.828195E+01
2.000000 -16.000000 -3.446183E+01
2.000000 -18.000000 -4.403422E+01
2.000000 -20.000000 -5.002450E+01
2.000000 -22.000000 -4.803598E+01
2.000000 -24.000000 -3.408785E+01
2.000000 -26.000000 -2.182826E+01
2.000000 -28.000000 -1.954840E+01
2.000000 -30.000000 -2.046068E+01
2.000000 -32.000000 -2.435387E+01
2.000000 -34.000000 -1.347064E+01
2.000000 -36.000000 1.166828E+01
2.000000 -38.000000 3.573602E+01
2.000000 -40.000000 5.502757E+01
4.000000 40.000000 1.078436E+00
4.000000 38.000000 1.506154E+01
4.000000 36.000000 2.768595E+01
4.000000 34.000000 3.442396E+01
4.000000 32.000000 2.816734E+01
4.000000 30.000000 3.170762E+01
4.000000 28.000000 4.560423E+01
4.000000 26.000000 5.623958E+01
4.000000 24.000000 5.954540E+01
4.000000 22.000000 4.557668E+01
4.000000 20.000000 2.818439E+01
4.000000 18.000000 1.414450E+01
4.000000 16.000000 -1.216621E+00
4.000000 14.000000 -2.785320E+01
4.000000 12.000000 -5.819354E+01
4.000000 10.000000 -7.415498E+01
4.000000 8.000000 -6.231569E+01
4.000000 6.000000 -4.396571E+01
4.000000 4.000000 -3.624105E+01
4.000000 2.000000 -3.846266E+01
4.000000 0.000000 -4.198450E+01
4.000000 -2.000000 -4.314031E+01
4.000000 -4.000000 -5.054328E+01
4.000000 -6.000000 -6.404190E+01
4.000000 -8.000000 -6.259915E+01
4.000000 -10.000000 -4.762132E+01
4.000000 -12.000000 -2.751368E+01
4.000000 -14.000000 -1.819715E+01
4.000000 -16.000000 -2.195831E+01
4.000000 -18.000000 -3.223425E+01
4.000000 -20.000000 -4.079306E+01
4.000000 -22.000000 -4.133184E+01
4.000000 -24.000000 -2.861256E+01
4.000000 -26.000000 -1.626453E+01
4.000000 -28.000000 -1.481785E+01
4.000000 -30.000000 -1.937417E+01
4.000000 -32.000000 -2.597646E+01
4.000000 -34.000000 -1.462608E+01
4.000000 -36.000000 1.404505E+01
4.000000 -38.000000 4.033320E+01
4.000000 -40.000000 5.975502E+01
6.000000 40.000000 9.321209E+00
6.000000 38.000000 2.293278E+01
6.000000 36.000000 3.447021E+01
6.000000 34.000000 3.886553E+01
6.000000 32.000000 3.107314E+01
6.000000 30.000000 3.436366E+01
6.000000 28.000000 4.918605E+01
6.000000 26.000000 6.089165E+01
6.000000 24.000000 6.430710E+01
6.000000 22.000000 4.772958E+01
6.000000 20.000000 2.897510E+01
6.000000 18.000000 1.318177E+01
6.000000 16.000000 -5.991083E+00
6.000000 14.000000 -3.888042E+01
6.000000 12.000000 -7.584625E+01
6.000000 10.000000 -9.665992E+01
6.000000 8.000000 -8.531500E+01
6.000000 6.000000 -6.680368E+01
6.000000 4.000000 -5.255898E+01
6.000000 2.000000 -4.870917E+01
6.000000 0.000000 -4.842169E+01
6.000000 -2.000000 -4.804927E+01
6.000000 -4.000000 -5.208204E+01
6.000000 -6.000000 -5.671828E+01
6.000000 -8.000000 -4.925795E+01
6.000000 -10.000000 -3.249708E+01
6.000000 -12.000000 -1.161019E+01
6.000000 -14.000000 -1.094303E-01
6.000000 -16.000000 -3.773983E+00
6.000000 -18.000000 -1.535049E+01
6.000000 -20.000000 -2.566143E+01
6.000000 -22.000000 -2.776823E+01
6.000000 -24.000000 -1.749248E+01
6.000000 -26.000000 -7.064442E+00
6.000000 -28.000000 -7.682543E+00
6.000000 -30.000000 -1.652678E+01
6.000000 -32.000000 -2.578611E+01
6.000000 -34.000000 -1.439899E+01
6.000000 -36.000000 1.688927E+01
6.000000 -38.000000 4.377974E+01
6.000000 -40.000000 6.169285E+01
8.000000 40.000000 2.303650E+01
8.000000 38.000000 3.260588E+01
8.000000 36.000000 3.792266E+01
8.000000 34.000000 3.458669E+01
8.000000 32.000000 2.153760E+01
8.000000 30.000000 2.077257E+01
8.000000 28.000000 3.449192E+01
8.000000 26.000000 4.716252E+01
8.000000 24.000000 4.931067E+01
8.000000 22.000000 3.204136E+01
8.000000 20.000000 1.338904E+01
8.000000 18.000000 -5.430908E-01
8.000000 16.000000 -1.802219E+01
8.000000 14.000000 -4.948743E+01
8.000000 12.000000 -8.515745E+01
8.000000 10.000000 -1.044811E+02
8.000000 8.000000 -9.318552E+01
8.000000 6.000000 -7.407286E+01
8.000000 4.000000 -5.735247E+01
8.000000 2.000000 -4.990661E+01
8.000000 0.000000 -4.496656E+01
8.000000 -2.000000 -3.990068E+01
8.000000 -4.000000 -3.791228E+01
8.000000 -6.000000 -3.655201E+01
8.000000 -8.000000 -2.597669E+01
8.000000 -10.000000 -8.015495E+00
8.000000 -12.000000 1.183861E+01
8.000000 -14.000000 2.315101E+01
8.000000 -16.000000 1.647484E+01
8.000000 -18.000000 2.454557E+00
8.000000 -20.000000 -9.612597E+00
8.000000 -22.000000 -1.336021E+01
8.000000 -24.000000 -5.308481E+00
8.000000 -26.000000 2.620760E+00
8.000000 -28.000000 6.702805E-02
8.000000 -30.000000 -1.158643E+01
8.000000 -32.000000 -2.434862E+01
8.000000 -34.000000 -1.406503E+01
8.000000 -36.000000 1.847448E+01
8.000000 -38.000000 4.530070E+01
8.000000 -40.000000 6.126579E+01
10.000000 40.000000 3.730142E+01
10.000000 38.000000 4.217797E+01
10.000000 36.000000 4.052833E+01
10.000000 34.000000 2.636655E+01
10.000000 32.000000 4.030491E+00
10.000000 30.000000 -3.144051E+00
10.000000 28.000000 1.035211E+01
10.000000 26.000000 2.467320E+01
10.000000 24.000000 2.364583E+01
10.000000 22.000000 6.200930E+00
10.000000 20.000000 -1.176949E+01
10.000000 18.000000 -1.945721E+01
10.000000 16.000000 -2.864343E+01
10.000000 14.000000 -5.353334E+01
10.000000 12.000000 -8.530238E+01
10.000000 10.000000 -1.019542E+02
10.000000 8.000000 -9.020607E+01
10.000000 6.000000 -6.953852E+01
10.000000 4.000000 -5.240529E+01
10.000000 2.000000 -4.305267E+01
10.000000 0.000000 -3.327338E+01
10.000000 -2.000000 -2.193082E+01
10.000000 -4.000000 -1.321504E+01
10.000000 -6.000000 -9.013260E+00
10.000000 -8.000000 1.168560E+00
10.000000 -10.000000 2.011815E+01
10.000000 -12.000000 3.727527E+01
10.000000 -14.000000 4.420577E+01
10.000000 -16.000000 3.324280E+01
10.000000 -18.000000 1.568180E+01
10.000000 -20.000000 1.617683E+00
10.000000 -22.000000 -3.468566E+00
10.000000 -24.000000 2.195057E+00
10.000000 -26.000000 8.615081E+00
10.000000 -28.000000 5.627495E+00
10.000000 -30.000000 -5.866946E+00
10.000000 -32.000000 -1.914529E+01
10.000000 -34.000000 -1.099881E+01
10.000000 -36.000000 1.800733E+01
10.000000 -38.000000 4.341588E+01
10.000000 -40.000000 5.839858E+01
12.000000 40.000000 4.793293E+01
12.000000 38.000000 4.886620E+01
12.000000 36.000000 4.191163E+01
12.000000 34.000000 1.851474E+01
12.000000 32.000000 -1.206690E+01
12.000000 30.000000 -2.401224E+01
12.000000 28.000000 -1.083237E+01
12.000000 26.000000 4.454548E+00
12.000000 24.000000 8.170948E-01
12.000000 22.000000 -1.543326E+01
12.000000 20.000000 -3.035384E+01
12.000000 18.000000 -2.983988E+01
12.000000 16.000000 -2.930141E+01
12.000000 14.000000 -4.748360E+01
12.000000 12.000000 -7.733565E+01
12.000000 10.000000 -9.609025E+01
12.000000 8.000000 -8.826329E+01
12.000000 6.000000 -6.811888E+01
12.000000 4.000000 -4.754571E+01
12.000000 2.000000 -3.116472E+01
12.000000 0.000000 -1.437380E+01
12.000000 -2.000000 1.587177E+00
12.000000 -4.000000 1.351752E+01
12.000000 -6.000000 1.785567E+01
12.000000 -8.000000 2.432569E+01
12.000000 -10.000000 4.050961E+01
12.000000 -12.000000 5.314057E+01
12.000000 -14.000000 5.542527E+01
12.000000 -16.000000 4.043203E+01
12.000000 -18.000000 1.875426E+01
12.000000 -20.000000 3.290716E+00
12.000000 -22.000000 -2.820276E+00
12.000000 -24.000000 2.095589E+00
12.000000 -26.000000 8.959425E+00
12.000000 -28.000000 7.962655E+00
12.000000 -30.000000 -4.589853E-01
12.000000 -32.000000 -1.170337E+01
12.000000 -34.000000 -4.958865E+00
12.000000 -36.000000 1.735810E+01
12.000000 -38.000000 3.925662E+01
12.000000 -40.000000 5.396178E+01
14.000000 40.000000 5.382610E+01
14.000000 38.000000 5.082395E+01
14.000000 36.000000 4.045045E+01
14.000000 34.000000 1.396332E+01
14.000000 32.000000 -1.911009E+01
14.000000 30.000000 -3.110374E+01
14.000000 28.000000 -1.910916E+01
14.000000 26.000000 -4.132368E+00
14.000000 24.000000 -8.153441E+00
14.000000 22.000000 -2.160648E+01
14.000000 20.000000 -3.056887E+01
14.000000 18.000000 -2.307591E+01
14.000000 16.000000 -1.757337E+01
14.000000 14.000000 -3.403509E+01
14.000000 12.000000 -6.646078E+01
14.000000 10.000000 -9.261826E+01
14.000000 8.000000 -9.204423E+01
14.000000 6.000000 -7.439239E+01
14.000000 4.000000 -4.751822E+01
14.000000 2.000000 -2.009955E+01
14.000000 0.000000 5.173851E+00
14.000000 -2.000000 2.406789E+01
14.000000 -4.000000 3.403413E+01
14.000000 -6.000000 3.274760E+01
14.000000 -8.000000 3.285224E+01
14.000000 -10.000000 4.503212E+01
14.000000 -12.000000 5.404914E+01
14.000000 -14.000000 5.299181E+01
14.000000 -16.000000 3.473981E+01
14.000000 -18.000000 1.051810E+01
14.000000 -20.000000 -4.275545E+00
14.000000 -22.000000 -1.009585E+01
14.000000 -24.000000 -4.508541E+00
14.000000 -26.000000 3.655125E+00
14.000000 -28.000000 6.080590E+00
14.000000 -30.000000 2.343423E+00
14.000000 -32.000000 -6.548443E+00
14.000000 -34.000000 -1.108866E-01
14.000000 -36.000000 1.752473E+01
14.000000 -38.000000 3.603617E+01
14.000000 -40.000000 5.074300E+01
16.000000 40.000000 5.478956E+01
16.000000 38.000000 4.950501E+01
16.000000 36.000000 3.940051E+01
16.000000 34.000000 1.622417E+01
16.000000 32.000000 -1.503813E+01
16.000000 30.000000 -2.457826E+01
16.000000 28.000000 -1.282974E+01
16.000000 26.000000 1.397310E+00
16.000000 24.000000 -2.311613E+00
16.000000 22.000000 -1.305018E+01
16.000000 20.000000 -1.610654E+01
16.000000 18.000000 -4.003752E+00
16.000000 16.000000 3.548010E+00
16.000000 14.000000 -1.432210E+01
16.000000 12.000000 -5.268426E+01
16.000000 10.000000 -8.654112E+01
16.000000 8.000000 -9.386008E+01
16.000000 6.000000 -8.092011E+01
16.000000 4.000000 -4.886967E+01
16.000000 2.000000 -1.246616E+01
16.000000 0.000000 1.801482E+01
16.000000 -2.000000 3.496174E+01
16.000000 -4.000000 3.553878E+01
16.000000 -6.000000 2.454913E+01
16.000000 -8.000000 2.150461E+01
16.000000 -10.000000 3.273260E+01
16.000000 -12.000000 4.086663E+01
16.000000 -14.000000 3.721043E+01
16.000000 -16.000000 1.812984E+01
16.000000 -18.000000 -5.086685E+00
16.000000 -20.000000 -1.776114E+01
16.000000 -22.000000 -2.132849E+01
16.000000 -24.000000 -1.403320E+01
16.000000 -26.000000 -3.630094E+00
16.000000 -28.000000 1.107315E+00
16.000000 -30.000000 2.201376E-01
16.000000 -32.000000 -5.372896E+00
16.000000 -34.000000 1.249499E+00
16.000000 -36.000000 1.807785E+01
16.000000 -38.000000 3.616514E+01
16.000000 -40.000000 5.073504E+01
18.000000 40.000000 5.159172E+01
18.000000 38.000000 4.753616E+01
18.000000 36.000000 4.052552E+01
18.000000 34.000000 2.438317E+01
18.000000 32.000000 -3.718470E-01
18.000000 30.000000 -6.809884E+00
18.000000 28.000000 3.616789E+00
18.000000 26.000000 1.468909E+01
18.000000 24.000000 1.195005E+01
18.000000 22.000000 4.371973E+00
18.000000 20.000000 4.540033E+00
18.000000 18.000000 1.765404E+01
18.000000 16.000000 2.578638E+01
18.000000 14.000000 7.683031E+00
18.000000 12.000000 -3.402813E+01
18.000000 10.000000 -7.297713E+01
18.000000 8.000000 -8.853360E+01
18.000000 6.000000 -8.137846E+01
18.000000 4.000000 -4.992147E+01
18.000000 2.000000 -1.132225E+01
18.000000 0.000000 1.851525E+01
18.000000 -2.000000 2.840065E+01
18.000000 -4.000000 1.679849E+01
18.000000 -6.000000 -1.325405E+00
18.000000 -8.000000 -4.105034E+00
18.000000 -10.000000 7.018999E+00
18.000000 -12.000000 1.699422E+01
18.000000 -14.000000 1.230193E+01
18.000000 -16.000000 -6.113970E+00
18.000000 -18.000000 -2.576437E+01
18.000000 -20.000000 -3.413986E+01
18.000000 -22.000000 -3.372158E+01
18.000000 -24.000000 -2.187238E+01
18.000000 -26.000000 -7.100133E+00
18.000000 -28.000000 -1.842373E+00
18.000000 -30.000000 -3.123190E+00
18.000000 -32.000000 -6.964850E+00
18.000000 -34.000000 6.301327E-01
18.000000 -36.000000 1.957919E+01
18.000000 -38.000000 3.930461E+01
18.000000 -40.000000 5.269007E+01
20.000000 40.000000 4.636783E+01
20.000000 38.000000 4.555222E+01
20.000000 36.000000 4.215056E+01
20.000000 34.000000 3.460501E+01
20.000000 32.000000 1.973320E+01
20.000000 30.000000 1.618255E+01
20.000000 28.000000 2.396957E+01
20.000000 26.000000 3.058907E+01
20.000000 24.000000 2.974538E+01
20.000000 22.000000 2.458847E+01
20.000000 20.000000 2.508122E+01
20.000000 18.000000 3.588494E+01
20.000000 16.000000 4.150432E+01
20.000000 14.000000 2.286504E+01
20.000000 12.000000 -1.955928E+01
20.000000 10.000000 -6.026000E+01
20.000000 8.000000 -7.871515E+01
20.000000 6.000000 -7.525691E+01
20.000000 4.000000 -5.113807E+01
20.000000 2.000000 -1.904814E+01
20.000000 0.000000 6.207325E+00
20.000000 -2.000000 1.185331E+01
20.000000 -4.000000 -5.056046E+00
20.000000 -6.000000 -2.719964E+01
20.000000 -8.000000 -3.080270E+01
20.000000 -10.000000 -2.194277E+01
20.000000 -12.000000 -1.247215E+01
20.000000 -14.000000 -1.897616E+01
20.000000 -16.000000 -3.623403E+01
20.000000 -18.000000 -5.065149E+01
20.000000 -20.000000 -5.186632E+01
20.000000 -22.000000 -4.291104E+01
20.000000 -24.000000 -2.258176E+01
20.000000 -26.000000 -3.943952E+00
20.000000 -28.000000 5.042572E-01
20.000000 -30.000000 -2.107770E+00
20.000000 -32.000000 -6.135222E+00
20.000000 -34.000000 1.846255E+00
20.000000 -36.000000 2.249538E+01
20.000000 -38.000000 4.262373E+01
20.000000 -40.000000 5.350942E+01
22.000000 40.000000 4.027066E+01
22.000000 38.000000 4.204642E+01
22.000000 36.000000 4.305501E+01
22.000000 34.000000 4.428225E+01
22.000000 32.000000 3.760124E+01
22.000000 30.000000 3.636525E+01
22.000000 28.000000 4.241129E+01
22.000000 26.000000 4.562184E+01
22.000000 24.000000 4.557787E+01
22.000000 22.000000 4.126194E+01
22.000000 20.000000 4.063611E+01
22.000000 18.000000 4.653769E+01
22.000000 16.000000 4.815799E+01
22.000000 14.000000 2.767121E+01
22.000000 12.000000 -1.566693E+01
22.000000 10.000000 -5.323316E+01
22.000000 8.000000 -6.715289E+01
22.000000 6.000000 -6.662546E+01
22.000000 4.000000 -5.418845E+01
22.000000 2.000000 -3.332173E+01
22.000000 0.000000 -1.434184E+01
22.000000 -2.000000 -8.687653E+00
22.000000 -4.000000 -2.235300E+01
22.000000 -6.000000 -4.234371E+01
22.000000 -8.000000 -4.677741E+01
22.000000 -10.000000 -4.190191E+01
22.000000 -12.000000 -3.857352E+01
22.000000 -14.000000 -4.920759E+01
22.000000 -16.000000 -6.530727E+01
22.000000 -18.000000 -7.498801E+01
22.000000 -20.000000 -6.911726E+01
22.000000 -22.000000 -4.858971E+01
22.000000 -24.000000 -1.759069E+01
22.000000 -26.000000 4.310884E+00
22.000000 -28.000000 7.722116E+00
22.000000 -30.000000 5.113585E+00
22.000000 -32.000000 1.120711E+00
22.000000 -34.000000 8.334550E+00
22.000000 -36.000000 2.732099E+01
22.000000 -38.000000 4.358038E+01
22.000000 -40.000000 5.054905E+01
24.000000 40.000000 3.408991E+01
24.000000 38.000000 3.636242E+01
24.000000 36.000000 4.169247E+01
24.000000 34.000000 4.950234E+01
24.000000 32.000000 4.845061E+01
24.000000 30.000000 4.924919E+01
24.000000 28.000000 5.408016E+01
24.000000 26.000000 5.443140E+01
24.000000 24.000000 5.277712E+01
24.000000 22.000000 4.721247E+01
24.000000 20.000000 4.516093E+01
24.000000 18.000000 4.635251E+01
24.000000 16.000000 4.392403E+01
24.000000 14.000000 2.238133E+01
24.000000 12.000000 -1.664798E+01
24.000000 10.000000 -4.660518E+01
24.000000 8.000000 -5.526316E+01
24.000000 6.000000 -5.732651E+01
24.000000 4.000000 -5.440926E+01
24.000000 2.000000 -4.495139E+01
24.000000 0.000000 -3.442103E+01
24.000000 -2.000000 -2.880802E+01
24.000000 -4.000000 -3.532944E+01
24.000000 -6.000000 -4.784072E+01
24.000000 -8.000000 -5.035785E+01
24.000000 -10.000000 -4.759929E+01
24.000000 -12.000000 -5.140650E+01
24.000000 -14.000000 -6.637024E+01
24.000000 -16.000000 -8.436628E+01
24.000000 -18.000000 -9.264515E+01
24.000000 -20.000000 -8.245578E+01
24.000000 -22.000000 -5.298415E+01
24.000000 -24.000000 -1.237874E+01
24.000000 -26.000000 1.317012E+01
24.000000 -28.000000 1.656755E+01
24.000000 -30.000000 1.545271E+01
24.000000 -32.000000 1.198586E+01
24.000000 -34.000000 1.835665E+01
24.000000 -36.000000 3.357534E+01
24.000000 -38.000000 4.211742E+01
24.000000 -40.000000 4.345529E+01
26.000000 40.000000 2.884661E+01
26.000000 38.000000 2.978717E+01
26.000000 36.000000 3.723649E+01
26.000000 34.000000 4.838912E+01
26.000000 32.000000 5.100225E+01
26.000000 30.000000 5.262903E+01
26.000000 28.000000 5.553876E+01
26.000000 26.000000 5.259855E+01
26.000000 24.000000 4.648727E+01
26.000000 22.000000 3.636320E+01
26.000000 20.000000 3.243143E+01
26.000000 18.000000 3.382491E+01
26.000000 16.000000 3.053508E+01
26.000000 14.000000 1.105660E+01
26.000000 12.000000 -1.801137E+01
26.000000 10.000000 -3.707589E+01
26.000000 8.000000 -4.128208E+01
26.000000 6.000000 -4.263630E+01
26.000000 4.000000 -4.586481E+01
26.000000 2.000000 -4.777674E+01
26.000000 0.000000 -4.649022E+01
26.000000 -2.000000 -4.141651E+01
26.000000 -4.000000 -4.067702E+01
26.000000 -6.000000 -4.537596E+01
26.000000 -8.000000 -4.350618E+01
26.000000 -10.000000 -3.888445E+01
26.000000 -12.000000 -4.711394E+01
26.000000 -14.000000 -6.714527E+01
26.000000 -16.000000 -8.970700E+01
26.000000 -18.000000 -9.899959E+01
26.000000 -20.000000 -8.700054E+01
26.000000 -22.000000 -5.394771E+01
26.000000 -24.000000 -1.003863E+01
26.000000 -26.000000 1.646208E+01
26.000000 -28.000000 2.115577E+01
26.000000 -30.000000 2.257800E+01
26.000000 -32.000000 2.017009E+01
26.000000 -34.000000 2.599831E+01
26.000000 -36.000000 3.771344E+01
26.000000 -38.000000 3.891926E+01
26.000000 -40.000000 3.472111E+01
28.000000 40.000000 2.382905E+01
28.000000 38.000000 2.274175E+01
28.000000 36.000000 3.067760E+01
28.000000 34.000000 4.292650E+01
28.000000 32.000000 4.626287E+01
28.000000 30.000000 4.676064E+01
28.000000 28.000000 4.688308E+01
28.000000 26.000000 3.991736E+01
28.000000 24.000000 2.874336E+01
28.000000 22.000000 1.504730E+01
28.000000 20.000000 1.061025E+01
28.000000 18.000000 1.445076E+01
28.000000 16.000000 1.268482E+01
28.000000 14.000000 -3.645885E+00
28.000000 12.000000 -2.552360E+01
28.000000 10.000000 -3.391138E+01
28.000000 8.000000 -2.975499E+01
28.000000 6.000000 -2.501817E+01
28.000000 4.000000 -3.015866E+01
28.000000 2.000000 -3.900688E+01
28.000000 0.000000 -4.359650E+01
28.000000 -2.000000 -4.083425E+01
28.000000 -4.000000 -3.600249E+01
28.000000 -6.000000 -3.286599E+01
28.000000 -8.000000 -2.629925E+01
28.000000 -10.000000 -2.058948E+01
28.000000 -12.000000 -3.219289E+01
28.000000 -14.000000 -5.699036E+01
28.000000 -16.000000 -8.242772E+01
28.000000 -18.000000 -9.238787E+01
28.000000 -20.000000 -8.043286E+01
28.000000 -22.000000 -5.014285E+01
28.000000 -24.000000 -1.194442E+01
28.000000 -26.000000 1.169262E+01
28.000000 -28.000000 1.818578E+01
28.000000 -30.000000 2.194481E+01
28.000000 -32.000000 2.159242E+01
28.000000 -34.000000 2.670381E+01
28.000000 -36.000000 3.461629E+01
28.000000 -38.000000 3.340738E+01
28.000000 -40.000000 2.737477E+01
30.000000 40.000000 1.901827E+01
30.000000 38.000000 1.600698E+01
30.000000 36.000000 2.259322E+01
30.000000 34.000000 3.303327E+01
30.000000 32.000000 3.571320E+01
30.000000 30.000000 3.443885E+01
30.000000 28.000000 3.092759E+01
30.000000 26.000000 2.077276E+01
30.000000 24.000000 6.576198E+00
30.000000 22.000000 -5.655815E+00
30.000000 20.000000 -7.231298E+00
30.000000 18.000000 -1.823976E+00
30.000000 16.000000 -3.738630E+00
30.000000 14.000000 -1.916370E+01
30.000000 12.000000 -3.871374E+01
30.000000 10.000000 -4.267032E+01
30.000000 8.000000 -3.026374E+01
30.000000 6.000000 -1.694058E+01
30.000000 4.000000 -1.684929E+01
30.000000 2.000000 -2.419214E+01
30.000000 0.000000 -2.876232E+01
30.000000 -2.000000 -2.783728E+01
30.000000 -4.000000 -2.200057E+01
30.000000 -6.000000 -1.238393E+01
30.000000 -8.000000 -2.078171E+00
30.000000 -10.000000 2.797812E+00
30.000000 -12.000000 -1.223245E+01
30.000000 -14.000000 -4.051148E+01
30.000000 -16.000000 -6.769067E+01
30.000000 -18.000000 -7.793873E+01
30.000000 -20.000000 -6.742432E+01
30.000000 -22.000000 -4.367455E+01
30.000000 -24.000000 -1.539073E+01
30.000000 -26.000000 2.253660E+00
30.000000 -28.000000 9.007797E+00
30.000000 -30.000000 1.429138E+01
30.000000 -32.000000 1.565282E+01
30.000000 -34.000000 1.963663E+01
30.000000 -36.000000 2.452527E+01
30.000000 -38.000000 2.556760E+01
30.000000 -40.000000 2.115913E+01
32.000000 40.000000 1.614177E+01
32.000000 38.000000 1.048668E+01
32.000000 36.000000 1.389420E+01
32.000000 34.000000 2.025582E+01
32.000000 32.000000 2.092334E+01
32.000000 30.000000 1.801076E+01
32.000000 28.000000 1.186127E+01
32.000000 26.000000 7.188787E-01
32.000000 24.000000 -1.438725E+01
32.000000 22.000000 -2.228796E+01
32.000000 20.000000 -2.003315E+01
32.000000 18.000000 -1.311939E+01
32.000000 16.000000 -1.595286E+01
32.000000 14.000000 -3.263338E+01
32.000000 12.000000 -5.321504E+01
32.000000 10.000000 -5.840567E+01
32.000000 8.000000 -4.095120E+01
32.000000 6.000000 -1.979286E+01
32.000000 4.000000 -9.674393E+00
32.000000 2.000000 -8.796483E+00
32.000000 0.000000 -9.569675E+00
32.000000 -2.000000 -8.040110E+00
32.000000 -4.000000 -1.105738E+00
32.000000 -6.000000 1.133813E+01
32.000000 -8.000000 2.241706E+01
32.000000 -10.000000 2.626393E+01
32.000000 -12.000000 7.581921E+00
32.000000 -14.000000 -2.449365E+01
32.000000 -16.000000 -5.390138E+01
32.000000 -18.000000 -6.403625E+01
32.000000 -20.000000 -5.430164E+01
32.000000 -22.000000 -3.626810E+01
32.000000 -24.000000 -1.783646E+01
32.000000 -26.000000 -8.048512E+00
32.000000 -28.000000 -3.400177E+00
32.000000 -30.000000 2.229525E+00
32.000000 -32.000000 4.589643E+00
32.000000 -34.000000 8.477626E+00
32.000000 -36.000000 1.273670E+01
32.000000 -38.000000 1.640199E+01
32.000000 -40.000000 1.385521E+01
34.000000 40.000000 1.592558E+01
34.000000 38.000000 6.470476E+00
34.000000 36.000000 6.560635E+00
34.000000 34.000000 8.999070E+00
34.000000 32.000000 5.451441E+00
34.000000 30.000000 7.917805E-01
34.000000 28.000000 -5.391658E+00
34.000000 26.000000 -1.670902E+01
34.000000 24.000000 -3.164031E+01
34.000000 22.000000 -3.591003E+01
34.000000 20.000000 -3.150634E+01
34.000000 18.000000 -2.338554E+01
34.000000 16.000000 -2.531673E+01
34.000000 14.000000 -4.193649E+01
34.000000 12.000000 -6.483108E+01
34.000000 10.000000 -7.206377E+01
34.000000 8.000000 -5.013020E+01
34.000000 6.000000 -2.196235E+01
34.000000 4.000000 -2.591412E+00
34.000000 2.000000 5.636499E+00
34.000000 0.000000 7.608025E+00
34.000000 -2.000000 9.317045E+00
34.000000 -4.000000 1.756382E+01
34.000000 -6.000000 3.136647E+01
34.000000 -8.000000 4.184444E+01
34.000000 -10.000000 4.431744E+01
34.000000 -12.000000 2.128013E+01
34.000000 -14.000000 -1.529168E+01
34.000000 -16.000000 -4.707938E+01
34.000000 -18.000000 -5.651669E+01
34.000000 -20.000000 -4.598818E+01
34.000000 -22.000000 -3.066824E+01
34.000000 -24.000000 -2.028927E+01
34.000000 -26.000000 -1.733789E+01
34.000000 -28.000000 -1.594591E+01
34.000000 -30.000000 -1.197133E+01
34.000000 -32.000000 -8.774871E+00
34.000000 -34.000000 -3.087486E+00
34.000000 -36.000000 2.234007E+00
34.000000 -38.000000 7.019289E+00
34.000000 -40.000000 5.942597E+00
36.000000 40.000000 1.778235E+01
36.000000 38.000000 5.788099E+00
36.000000 36.000000 2.538002E+00
36.000000 34.000000 1.329342E+00
36.000000 32.000000 -6.506397E+00
36.000000 30.000000 -1.298268E+01
36.000000 28.000000 -1.769182E+01
36.000000 26.000000 -2.701938E+01
36.000000 24.000000 -4.098192E+01
36.000000 22.000000 -4.565214E+01
36.000000 20.000000 -4.396838E+01
36.000000 18.000000 -3.695851E+01
36.000000 16.000000 -3.568161E+01
36.000000 14.000000 -4.801777E+01
36.000000 12.000000 -6.838914E+01
36.000000 10.000000 -7.304777E+01
36.000000 8.000000 -4.661088E+01
36.000000 6.000000 -1.435876E+01
36.000000 4.000000 8.980366E+00
36.000000 2.000000 1.853598E+01
36.000000 0.000000 1.919109E+01
36.000000 -2.000000 1.787443E+01
36.000000 -4.000000 2.655316E+01
36.000000 -6.000000 4.058717E+01
36.000000 -8.000000 4.955327E+01
36.000000 -10.000000 5.077257E+01
36.000000 -12.000000 2.520177E+01
36.000000 -14.000000 -1.289419E+01
36.000000 -16.000000 -4.666156E+01
36.000000 -18.000000 -5.545641E+01
36.000000 -20.000000 -4.319009E+01
36.000000 -22.000000 -2.856990E+01
36.000000 -24.000000 -2.402717E+01
36.000000 -26.000000 -2.664590E+01
36.000000 -28.000000 -2.808824E+01
36.000000 -30.000000 -2.607901E+01
36.000000 -32.000000 -2.249448E+01
36.000000 -34.000000 -1.428170E+01
36.000000 -36.000000 -6.535475E+00
36.000000 -38.000000 -7.141073E-01
36.000000 -40.000000 -3.735218E-01
38.000000 40.000000 2.045719E+01
38.000000 38.000000 8.897842E+00
38.000000 36.000000 3.845325E+00
38.000000 34.000000 -7.269974E-01
38.000000 32.000000 -1.271597E+01
38.000000 30.000000 -2.117007E+01
38.000000 28.000000 -2.257657E+01
38.000000 26.000000 -2.591133E+01
38.000000 24.000000 -3.864830E+01
38.000000 22.000000 -4.950957E+01
38.000000 20.000000 -5.616138E+01
38.000000 18.000000 -5.370512E+01
38.000000 16.000000 -4.898435E+01
38.000000 14.000000 -5.434489E+01
38.000000 12.000000 -6.458883E+01
38.000000 10.000000 -5.870982E+01
38.000000 8.000000 -2.587224E+01
38.000000 6.000000 6.908916E+00
38.000000 4.000000 2.486592E+01
38.000000 2.000000 2.855414E+01
38.000000 0.000000 2.508638E+01
38.000000 -2.000000 2.055390E+01
38.000000 -4.000000 2.558021E+01
38.000000 -6.000000 3.277905E+01
38.000000 -8.000000 3.913827E+01
38.000000 -10.000000 4.119784E+01
38.000000 -12.000000 2.033962E+01
38.000000 -14.000000 -1.308822E+01
38.000000 -16.000000 -4.656264E+01
38.000000 -18.000000 -5.583674E+01
38.000000 -20.000000 -4.400434E+01
38.000000 -22.000000 -3.087670E+01
38.000000 -24.000000 -2.911202E+01
38.000000 -26.000000 -3.554217E+01
38.000000 -28.000000 -3.965941E+01
38.000000 -30.000000 -3.884816E+01
38.000000 -32.000000 -3.530436E+01
38.000000 -34.000000 -2.483896E+01
38.000000 -36.000000 -1.345539E+01
38.000000 -38.000000 -5.613486E+00
38.000000 -40.000000 -3.563972E+00
40.000000 40.000000 2.383074E+01
40.000000 38.000000 1.453382E+01
40.000000 36.000000 9.974035E+00
40.000000 34.000000 2.658092E+00
40.000000 32.000000 -1.379974E+01
40.000000 30.000000 -2.386506E+01
40.000000 28.000000 -2.021320E+01
40.000000 26.000000 -1.671309E+01
40.000000 24.000000 -2.735419E+01
40.000000 22.000000 -4.457931E+01
40.000000 20.000000 -5.944176E+01
40.000000 18.000000 -6.271788E+01
40.000000 16.000000 -5.528355E+01
40.000000 14.000000 -5.335657E+01
40.000000 12.000000 -5.223965E+01
40.000000 10.000000 -3.533424E+01
40.000000 8.000000 -1.015005E-01
40.000000 6.000000 2.819194E+01
40.000000 4.000000 3.593443E+01
40.000000 2.000000 3.098429E+01
40.000000 0.000000 2.365017E+01
40.000000 -2.000000 1.696794E+01
40.000000 -4.000000 1.341895E+01
40.000000 -6.000000 1.021017E+01
