-22.000000 -6.000000 3.272256E+01
-22.000000 -8.000000 2.683840E+01
-22.000000 -10.000000 2.204709E+01
-22.000000 -12.000000 1.868192E+01
-22.000000 -14.000000 1.661696E+01
-22.000000 -16.000000 1.611511E+01
-22.000000 -18.000000 1.640337E+01
-22.000000 -20.000000 1.850142E+01
-22.000000 -22.000000 2.459458E+01
-22.000000 -24.000000 3.467461E+01
-22.000000 -26.000000 4.234341E+01
-22.000000 -28.000000 4.074557E+01
-22.000000 -30.000000 3.722736E+01
-22.000000 -32.000000 3.542871E+01
-22.000000 -34.000000 3.458037E+01
-22.000000 -36.000000 3.506002E+01
-22.000000 -38.000000 3.629464E+01
-22.000000 -40.000000 3.601989E+01
-20.000000 40.000000 2.066766E+01
-20.000000 38.000000 3.025182E+01
-20.000000 36.000000 3.684899E+01
-20.000000 34.000000 4.268573E+01
-20.000000 32.000000 4.562649E+01
-20.000000 30.000000 4.498662E+01
-20.000000 28.000000 4.037464E+01
-20.000000 26.000000 3.780775E+01
-20.000000 24.000000 3.481927E+01
-20.000000 22.000000 3.140782E+01
-20.000000 20.000000 2.896038E+01
-20.000000 18.000000 3.198425E+01
-20.000000 16.000000 4.224210E+01
-20.000000 14.000000 5.017591E+01
-20.000000 12.000000 4.969364E+01
-20.000000 10.000000 3.632696E+01
-20.000000 8.000000 2.251790E+01
-20.000000 6.000000 1.615747E+01
-20.000000 4.000000 2.069361E+01
-20.000000 2.000000 2.836471E+01
-20.000000 0.000000 3.459279E+01
-20.000000 -2.000000 3.621185E+01
-20.000000 -4.000000 3.514742E+01
-20.000000 -6.000000 3.231178E+01
-20.000000 -8.000000 2.899660E+01
-20.000000 -10.000000 2.719562E+01
-20.000000 -12.000000 2.760529E+01
-20.000000 -14.000000 2.914769E+01
-20.000000 -16.000000 3.134595E+01
-20.000000 -18.000000 3.250846E+01
-20.000000 -20.000000 3.382601E+01
-20.000000 -22.000000 3.877492E+01
-20.000000 -24.000000 4.704520E+01
-20.000000 -26.000000 5.198698E+01
-20.000000 -28.000000 4.794875E+01
-20.000000 -30.000000 4.246570E+01
-20.000000 -32.000000 3.852517E+01
-20.000000 -34.000000 3.685813E+01
-20.000000 -36.000000 3.742848E+01
-20.000000 -38.000000 3.902841E+01
-20.000000 -40.000000 3.889857E+01
-18.000000 40.000000 1.587122E+01
-18.000000 38.000000 2.767748E+01
-18.000000 36.000000 3.587183E+01
-18.000000 34.000000 4.134895E+01
-18.000000 32.000000 4.260740E+01
-18.000000 30.000000 4.023328E+01
-18.000000 28.000000 3.513512E+01
-18.000000 26.000000 3.417854E+01
-18.000000 24.000000 3.180157E+01
-18.000000 22.000000 2.947516E+01
-18.000000 20.000000 3.046644E+01
-18.000000 18.000000 4.321602E+01
-18.000000 16.000000 6.728754E+01
-18.000000 14.000000 8.859976E+01
-18.000000 12.000000 9.227458E+01
-18.000000 10.000000 6.950893E+01
-18.000000 8.000000 3.653463E+01
-18.000000 6.000000 1.182977E+01
-18.000000 4.000000 5.788727E+00
-18.000000 2.000000 1.287884E+01
-18.000000 0.000000 2.143848E+01
-18.000000 -2.000000 2.577333E+01
-18.000000 -4.000000 2.804389E+01
-18.000000 -6.000000 2.885767E+01
-18.000000 -8.000000 2.935849E+01
-18.000000 -10.000000 3.242212E+01
-18.000000 -12.000000 3.777085E+01
-18.000000 -14.000000 4.311153E+01
-18.000000 -16.000000 4.687868E+01
-18.000000 -18.000000 4.641956E+01
-18.000000 -20.000000 4.361917E+01
-18.000000 -22.000000 4.438106E+01
-18.000000 -24.000000 4.899644E+01
-18.000000 -26.000000 5.281368E+01
-18.000000 -28.000000 4.861034E+01
-18.000000 -30.000000 4.168997E+01
-18.000000 -32.000000 3.711977E+01
-18.000000 -34.000000 3.617871E+01
-18.000000 -36.000000 3.821743E+01
-18.000000 -38.000000 4.154521E+01
-18.000000 -40.000000 4.316032E+01
-16.000000 40.000000 1.144981E+01
-16.000000 38.000000 2.313098E+01
-16.000000 36.000000 3.271236E+01
-16.000000 34.000000 3.921428E+01
-16.000000 32.000000 3.923569E+01
-16.000000 30.000000 3.523747E+01
-16.000000 28.000000 2.954126E+01
-16.000000 26.000000 2.861240E+01
-16.000000 24.000000 2.684485E+01
-16.000000 22.000000 2.494839E+01
-16.000000 20.000000 2.822450E+01
-16.000000 18.000000 5.073523E+01
-16.000000 16.000000 9.184782E+01
-16.000000 14.000000 1.313643E+02
-16.000000 12.000000 1.446119E+02
-16.000000 10.000000 1.172825E+02
-16.000000 8.000000 6.372416E+01
-16.000000 6.000000 1.683979E+01
-16.000000 4.000000 -5.321190E+00
-16.000000 2.000000 -3.029068E+00
-16.000000 0.000000 5.718086E+00
-16.000000 -2.000000 1.242245E+01
-16.000000 -4.000000 1.750073E+01
-16.000000 -6.000000 2.205108E+01
-16.000000 -8.000000 2.654395E+01
-16.000000 -10.000000 3.542009E+01
-16.000000 -12.000000 4.752463E+01
-16.000000 -14.000000 5.590717E+01
-16.000000 -16.000000 5.694242E+01
-16.000000 -18.000000 5.240913E+01
-16.000000 -20.000000 4.482545E+01
-16.000000 -22.000000 4.085550E+01
-16.000000 -24.000000 4.285756E+01
-16.000000 -26.000000 4.722586E+01
-16.000000 -28.000000 4.341448E+01
-16.000000 -30.000000 3.547416E+01
-16.000000 -32.000000 3.177713E+01
-16.000000 -34.000000 3.259372E+01
-16.000000 -36.000000 3.713922E+01
-16.000000 -38.000000 4.323996E+01
-16.000000 -40.000000 4.815693E+01
-14.000000 40.000000 4.467438E+00
-14.000000 38.000000 1.658972E+01
-14.000000 36.000000 2.952369E+01
-14.000000 34.000000 3.961078E+01
-14.000000 32.000000 3.994041E+01
-14.000000 30.000000 3.463426E+01
-14.000000 28.000000 2.736187E+01
-14.000000 26.000000 2.544239E+01
-14.000000 24.000000 2.327264E+01
-14.000000 22.000000 2.111129E+01
-14.000000 20.000000 2.477513E+01
-14.000000 18.000000 5.344487E+01
-14.000000 16.000000 1.089789E+02
-14.000000 14.000000 1.658304E+02
-14.000000 12.000000 1.906680E+02
-14.000000 10.000000 1.645256E+02
-14.000000 8.000000 9.537208E+01
-14.000000 6.000000 2.842449E+01
-14.000000 4.000000 -9.681103E+00
-14.000000 2.000000 -1.392474E+01
-14.000000 0.000000 -6.232666E+00
-14.000000 -2.000000 2.228611E+00
-14.000000 -4.000000 8.264416E+00
-14.000000 -6.000000 1.510090E+01
-14.000000 -8.000000 2.193285E+01
-14.000000 -10.000000 3.458658E+01
-14.000000 -12.000000 5.080628E+01
-14.000000 -14.000000 5.923748E+01
-14.000000 -16.000000 5.576840E+01
-14.000000 -18.000000 4.731313E+01
-14.000000 -20.000000 3.751918E+01
-14.000000 -22.000000 3.177476E+01
-14.000000 -24.000000 3.313842E+01
-14.000000 -26.000000 3.742746E+01
-14.000000 -28.000000 3.418349E+01
-14.000000 -30.000000 2.689169E+01
-14.000000 -32.000000 2.440268E+01
-14.000000 -34.000000 2.726708E+01
-14.000000 -36.000000 3.510088E+01
-14.000000 -38.000000 4.403675E+01
-14.000000 -40.000000 5.209264E+01
-12.000000 40.000000 -5.312361E+00
-12.000000 38.000000 9.516688E+00
-12.000000 36.000000 2.846074E+01
-12.000000 34.000000 4.478058E+01
-12.000000 32.000000 4.713088E+01
-12.000000 30.000000 4.027327E+01
-12.000000 28.000000 2.942502E+01
-12.000000 26.000000 2.463122E+01
-12.000000 24.000000 2.035942E+01
-12.000000 22.000000 1.709055E+01
-12.000000 20.000000 1.985625E+01
-12.000000 18.000000 5.057736E+01
-12.000000 16.000000 1.145642E+02
-12.000000 14.000000 1.841945E+02
-12.000000 12.000000 2.204275E+02
-12.000000 10.000000 2.006158E+02
-12.000000 8.000000 1.247010E+02
-12.000000 6.000000 4.547716E+01
-12.000000 4.000000 -3.480469E+00
-12.000000 2.000000 -1.314705E+01
-12.000000 0.000000 -6.765041E+00
-12.000000 -2.000000 1.690014E+00
-12.000000 -4.000000 6.786282E+00
-12.000000 -6.000000 1.181795E+01
-12.000000 -8.000000 1.714498E+01
-12.000000 -10.000000 2.754462E+01
-12.000000 -12.000000 4.009190E+01
-12.000000 -14.000000 4.500803E+01
-12.000000 -16.000000 4.070846E+01
-12.000000 -18.000000 3.148907E+01
-12.000000 -20.000000 2.306113E+01
-12.000000 -22.000000 1.916452E+01
-12.000000 -24.000000 2.173036E+01
-12.000000 -26.000000 2.594037E+01
-12.000000 -28.000000 2.341466E+01
-12.000000 -30.000000 1.811157E+01
-12.000000 -32.000000 1.711768E+01
-12.000000 -34.000000 2.187847E+01
-12.000000 -36.000000 3.300094E+01
-12.000000 -38.000000 4.408147E+01
-12.000000 -40.000000 5.428892E+01
-10.000000 40.000000 -1.629296E+01
-10.000000 38.000000 3.629066E+00
-10.000000 36.000000 3.037688E+01
-10.000000 34.000000 5.469973E+01
-10.000000 32.000000 6.009047E+01
-10.000000 30.000000 5.122894E+01
-10.000000 28.000000 3.400964E+01
-10.000000 26.000000 2.368019E+01
-10.000000 24.000000 1.666206E+01
-10.000000 22.000000 1.148552E+01
-10.000000 20.000000 1.332684E+01
-10.000000 18.000000 4.348411E+01
-10.000000 16.000000 1.097611E+02
-10.000000 14.000000 1.860145E+02
-10.000000 12.000000 2.314749E+02
-10.000000 10.000000 2.205951E+02
-10.000000 8.000000 1.468763E+02
-10.000000 6.000000 6.394198E+01
-10.000000 4.000000 9.314796E+00
-10.000000 2.000000 -3.681656E+00
-10.000000 0.000000 2.078178E+00
-10.000000 -2.000000 9.744255E+00
-10.000000 -4.000000 1.302726E+01
-10.000000 -6.000000 1.322371E+01
-10.000000 -8.000000 1.289677E+01
-10.000000 -10.000000 1.581261E+01
-10.000000 -12.000000 2.063940E+01
-10.000000 -14.000000 2.061782E+01
-10.000000 -16.000000 1.658301E+01
-10.000000 -18.000000 9.144592E+00
-10.000000 -20.000000 4.591393E+00
-10.000000 -22.000000 4.698093E+00
-10.000000 -24.000000 1.023038E+01
-10.000000 -26.000000 1.543194E+01
-10.000000 -28.000000 1.330056E+01
-10.000000 -30.000000 1.004885E+01
-10.000000 -32.000000 1.108731E+01
-10.000000 -34.000000 1.730157E+01
-10.000000 -36.000000 3.040366E+01
-10.000000 -38.000000 4.290348E+01
-10.000000 -40.000000 5.502920E+01
-8.000000 40.000000 -2.774638E+01
-8.000000 38.000000 -1.073557E+00
-8.000000 36.000000 3.420885E+01
-8.000000 34.000000 6.664107E+01
-8.000000 32.000000 7.455338E+01
-8.000000 30.000000 6.260739E+01
-8.000000 28.000000 3.848482E+01
-8.000000 26.000000 2.249166E+01
-8.000000 24.000000 1.289996E+01
-8.000000 22.000000 6.511581E+00
-8.000000 20.000000 6.695084E+00
-8.000000 18.000000 3.360459E+01
-8.000000 16.000000 9.888127E+01
-8.000000 14.000000 1.776098E+02
-8.000000 12.000000 2.288147E+02
-8.000000 10.000000 2.254268E+02
-8.000000 8.000000 1.588780E+02
-8.000000 6.000000 7.818605E+01
-8.000000 4.000000 2.086903E+01
-8.000000 2.000000 5.290993E+00
-8.000000 0.000000 1.045255E+01
-8.000000 -2.000000 1.779615E+01
-8.000000 -4.000000 1.982922E+01
-8.000000 -6.000000 1.587300E+01
-8.000000 -8.000000 1.043213E+01
-8.000000 -10.000000 5.580669E+00
-8.000000 -12.000000 2.118298E+00
-8.000000 -14.000000 -2.043034E+00
-8.000000 -16.000000 -5.528732E+00
-8.000000 -18.000000 -8.611607E+00
-8.000000 -20.000000 -9.393360E+00
-8.000000 -22.000000 -6.970324E+00
-8.000000 -24.000000 1.234245E-01
-8.000000 -26.000000 6.253448E+00
-8.000000 -28.000000 5.234741E+00
-8.000000 -30.000000 3.678329E+00
-8.000000 -32.000000 5.903872E+00
-8.000000 -34.000000 1.231113E+01
-8.000000 -36.000000 2.593510E+01
-8.000000 -38.000000 3.988712E+01
-8.000000 -40.000000 5.460238E+01
-6.000000 40.000000 -3.792984E+01
-6.000000 38.000000 -4.853751E+00
-6.000000 36.000000 3.724342E+01
-6.000000 34.000000 7.518128E+01
-6.000000 32.000000 8.385779E+01
-6.000000 30.000000 6.813456E+01
-6.000000 28.000000 3.949932E+01
-6.000000 26.000000 2.023827E+01
-6.000000 24.000000 8.690388E+00
-6.000000 22.000000 2.598000E+00
-6.000000 20.000000 7.674789E-01
-6.000000 18.000000 2.244969E+01
-6.000000 16.000000 8.402795E+01
-6.000000 14.000000 1.628812E+02
-6.000000 12.000000 2.184374E+02
-6.000000 10.000000 2.227131E+02
-6.000000 8.000000 1.657289E+02
-6.000000 6.000000 8.940880E+01
-6.000000 4.000000 2.983766E+01
-6.000000 2.000000 9.614475E+00
-6.000000 0.000000 1.249376E+01
-6.000000 -2.000000 1.955252E+01
-6.000000 -4.000000 2.171495E+01
-6.000000 -6.000000 1.663988E+01
-6.000000 -8.000000 8.648769E+00
-6.000000 -10.000000 -6.361847E-01
-6.000000 -12.000000 -9.291096E+00
-6.000000 -14.000000 -1.542125E+01
-6.000000 -16.000000 -1.675566E+01
-6.000000 -18.000000 -1.493956E+01
-6.000000 -20.000000 -1.354660E+01
-6.000000 -22.000000 -1.184196E+01
-6.000000 -24.000000 -7.006489E+00
-6.000000 -26.000000 -1.111229E+00
-6.000000 -28.000000 1.161957E-02
-6.000000 -30.000000 -7.552147E-02
-6.000000 -32.000000 1.679728E+00
-6.000000 -34.000000 6.481112E+00
-6.000000 -36.000000 1.937806E+01
-6.000000 -38.000000 3.510081E+01
-6.000000 -40.000000 5.315459E+01
-4.000000 40.000000 -4.382684E+01
-4.000000 38.000000 -7.524879E+00
-4.000000 36.000000 3.623587E+01
-4.000000 34.000000 7.450575E+01
-4.000000 32.000000 8.185417E+01
-4.000000 30.000000 6.396744E+01
-4.000000 28.000000 3.448594E+01
-4.000000 26.000000 1.503849E+01
-4.000000 24.000000 3.193077E+00
-4.000000 22.000000 -2.663879E+00
-4.000000 20.000000 -5.870827E+00
-4.000000 18.000000 1.117997E+01
-4.000000 16.000000 6.694645E+01
-4.000000 14.000000 1.437873E+02
-4.000000 12.000000 2.050200E+02
-4.000000 10.000000 2.208830E+02
-4.000000 8.000000 1.748582E+02
-4.000000 6.000000 1.022652E+02
-4.000000 4.000000 3.805262E+01
-4.000000 2.000000 9.379562E+00
-4.000000 0.000000 7.561470E+00
-4.000000 -2.000000 1.420679E+01
-4.000000 -4.000000 1.759081E+01
-4.000000 -6.000000 1.397728E+01
-4.000000 -8.000000 6.579361E+00
-4.000000 -10.000000 -2.734993E+00
-4.000000 -12.000000 -1.157927E+01
-4.000000 -14.000000 -1.737064E+01
-4.000000 -16.000000 -1.582217E+01
-4.000000 -18.000000 -1.053669E+01
-4.000000 -20.000000 -8.659000E+00
-4.000000 -22.000000 -1.002686E+01
-4.000000 -24.000000 -9.603550E+00
-4.000000 -26.000000 -4.583456E+00
-4.000000 -28.000000 -1.266336E+00
-4.000000 -30.000000 -8.605843E-01
-4.000000 -32.000000 -4.092197E-01
-4.000000 -34.000000 1.510424E+00
-4.000000 -36.000000 1.223480E+01
-4.000000 -38.000000 2.922358E+01
-4.000000 -40.000000 5.061532E+01
-2.000000 40.000000 -4.581407E+01
-2.000000 38.000000 -1.045996E+01
-2.000000 36.000000 2.966556E+01
-2.000000 34.000000 6.398407E+01
-2.000000 32.000000 6.894536E+01
-2.000000 30.000000 5.130163E+01
-2.000000 28.000000 2.466807E+01
-2.000000 26.000000 8.105011E+00
-2.000000 24.000000 -2.440250E+00
-2.000000 22.000000 -8.268734E+00
-2.000000 20.000000 -1.217161E+01
-2.000000 18.000000 2.870674E-01
-2.000000 16.000000 4.924206E+01
-2.000000 14.000000 1.238176E+02
-2.000000 12.000000 1.924616E+02
-2.000000 10.000000 2.224503E+02
-2.000000 8.000000 1.871278E+02
-2.000000 6.000000 1.154929E+02
-2.000000 4.000000 4.304272E+01
-2.000000 2.000000 5.093349E+00
-2.000000 0.000000 -2.377522E+00
-2.000000 -2.000000 4.160419E+00
-2.000000 -4.000000 9.581955E+00
-2.000000 -6.000000 8.337715E+00
-2.000000 -8.000000 3.908867E+00
-2.000000 -10.000000 -1.296207E+00
-2.000000 -12.000000 -6.286407E+00
-2.000000 -14.000000 -8.997257E+00
-2.000000 -16.000000 -5.468391E+00
-2.000000 -18.000000 -3.940926E-01
-2.000000 -20.000000 2.003860E-01
-2.000000 -22.000000 -3.809795E+00
-2.000000 -24.000000 -6.047684E+00
-2.000000 -26.000000 -1.465652E+00
-2.000000 -28.000000 2.353670E+00
-2.000000 -30.000000 1.206635E+00
-2.000000 -32.000000 -8.661594E-01
-2.000000 -34.000000 -2.239119E+00
-2.000000 -36.000000 6.140232E+00
-2.000000 -38.000000 2.365382E+01
-2.000000 -40.000000 4.718299E+01
0.000000 40.000000 -4.689524E+01
0.000000 38.000000 -1.534073E+01
0.000000 36.000000 1.855486E+01
0.000000 34.000000 4.765300E+01
0.000000 32.000000 5.042114E+01
0.000000 30.000000 3.460510E+01
0.000000 28.000000 1.369560E+01
0.000000 26.000000 2.266237E+00
0.000000 24.000000 -5.250416E+00
0.000000 22.000000 -1.105262E+01
0.000000 20.000000 -1.653448E+01
0.000000 18.000000 -8.758530E+00
0.000000 16.000000 3.404839E+01
0.000000 14.000000 1.072653E+02
0.000000 12.000000 1.838215E+02
0.000000 10.000000 2.268418E+02
0.000000 8.000000 2.002132E+02
0.000000 6.000000 1.281902E+02
0.000000 4.000000 4.618421E+01
0.000000 2.000000 -1.222862E+00
0.000000 0.000000 -1.486674E+01
0.000000 -2.000000 -8.930901E+00
0.000000 -4.000000 -1.205669E+00
0.000000 -6.000000 5.822945E-01
0.000000 -8.000000 2.687187E-01
0.000000 -10.000000 8.317566E-01
0.000000 -12.000000 1.685780E+00
0.000000 -14.000000 3.547653E+00
0.000000 -16.000000 6.825310E+00
0.000000 -18.000000 9.022030E+00
0.000000 -20.000000 7.569117E+00
0.000000 -22.000000 3.587873E+00
0.000000 -24.000000 3.431602E+00
0.000000 -26.000000 9.103909E+00
0.000000 -28.000000 1.054708E+01
0.000000 -30.000000 5.955141E+00
0.000000 -32.000000 -7.849674E-01
0.000000 -34.000000 -5.477182E+00
0.000000 -36.000000 2.134279E+00
0.000000 -38.000000 2.006914E+01
0.000000 -40.000000 4.376405E+01
2.000000 40.000000 -4.958685E+01
2.000000 38.000000 -2.177836E+01
2.000000 36.000000 6.017298E+00
2.000000 34.000000 3.021919E+01
2.000000 32.000000 3.167990E+01
2.000000 30.000000 1.925409E+01
2.000000 28.000000 5.481747E+00
2.000000 26.000000 8.879662E-02
2.000000 24.000000 -3.930061E+00
2.000000 22.000000 -1.045096E+01
2.000000 20.000000 -1.888536E+01
2.000000 18.000000 -1.504182E+01
2.000000 16.000000 2.327346E+01
2.000000 14.000000 9.600052E+01
2.000000 12.000000 1.799770E+02
2.000000 10.000000 2.329479E+02
2.000000 8.000000 2.116863E+02
2.000000 6.000000 1.408997E+02
2.000000 4.000000 5.181133E+01
2.000000 2.000000 -5.746334E+00
2.000000 0.000000 -2.693253E+01
2.000000 -2.000000 -2.321378E+01
2.000000 -4.000000 -1.291630E+01
2.000000 -6.000000 -6.177036E+00
2.000000 -8.000000 -3.004929E+00
2.000000 -10.000000 1.049438E+00
2.000000 -12.000000 6.880009E+00
2.000000 -14.000000 1.197853E+01
2.000000 -16.000000 1.341186E+01
2.000000 -18.000000 1.358171E+01
2.000000 -20.000000 1.190040E+01
2.000000 -22.000000 9.500561E+00
2.000000 -24.000000 1.346049E+01
2.000000 -26.000000 2.072931E+01
2.000000 -28.000000 2.006803E+01
2.000000 -30.000000 1.234512E+01
2.000000 -32.000000 7.194958E-01
2.000000 -34.000000 -7.597282E+00
2.000000 -36.000000 -4.329510E-01
2.000000 -38.000000 1.855639E+01
2.000000 -40.000000 4.228503E+01
4.000000 40.000000 -5.389931E+01
4.000000 38.000000 -2.817932E+01
4.000000 36.000000 -5.410061E+00
4.000000 34.000000 1.439867E+01
4.000000 32.000000 1.560537E+01
4.000000 30.000000 7.959550E+00
4.000000 28.000000 1.224859E+00
4.000000 26.000000 1.108425E+00
4.000000 24.000000 6.184387E-02
4.000000 22.000000 -6.934492E+00
4.000000 20.000000 -1.760203E+01
4.000000 18.000000 -1.733667E+01
4.000000 16.000000 1.636676E+01
4.000000 14.000000 8.649709E+01
4.000000 12.000000 1.739834E+02
4.000000 10.000000 2.354396E+02
4.000000 8.000000 2.219021E+02
4.000000 6.000000 1.555171E+02
4.000000 4.000000 6.188758E+01
4.000000 2.000000 -6.389294E+00
4.000000 0.000000 -3.655362E+01
4.000000 -2.000000 -3.532095E+01
4.000000 -4.000000 -2.061288E+01
4.000000 -6.000000 -7.402031E+00
4.000000 -8.000000 -1.914341E+00
4.000000 -10.000000 1.381168E+00
4.000000 -12.000000 6.170319E+00
4.000000 -14.000000 1.105104E+01
4.000000 -16.000000 1.264324E+01
4.000000 -18.000000 1.311001E+01
4.000000 -20.000000 1.307623E+01
4.000000 -22.000000 1.257815E+01
4.000000 -24.000000 1.864186E+01
4.000000 -26.000000 2.619017E+01
4.000000 -28.000000 2.607903E+01
4.000000 -30.000000 1.768664E+01
4.000000 -32.000000 3.468500E+00
4.000000 -34.000000 -7.707855E+00
4.000000 -36.000000 -1.127150E+00
4.000000 -38.000000 1.942832E+01
4.000000 -40.000000 4.405268E+01
6.000000 40.000000 -5.689463E+01
6.000000 38.000000 -3.281894E+01
6.000000 36.000000 -1.501563E+01
6.000000 34.000000 4.142761E-01
6.000000 32.000000 2.458710E+00
6.000000 30.000000 -1.430082E-01
6.000000 28.000000 -1.198317E+00
6.000000 26.000000 2.323307E+00
6.000000 24.000000 4.253540E+00
6.000000 22.000000 -1.508617E+00
6.000000 20.000000 -1.239912E+01
6.000000 18.000000 -1.581589E+01
6.000000 16.000000 1.073027E+01
6.000000 14.000000 7.330539E+01
6.000000 12.000000 1.590953E+02
6.000000 10.000000 2.288439E+02
6.000000 8.000000 2.288054E+02
6.000000 6.000000 1.718410E+02
6.000000 4.000000 7.619644E+01
6.000000 2.000000 -3.000759E+00
6.000000 0.000000 -4.329147E+01
6.000000 -2.000000 -4.368758E+01
6.000000 -4.000000 -2.173448E+01
6.000000 -6.000000 -6.400375E-01
6.000000 -8.000000 5.861229E+00
6.000000 -10.000000 4.517570E+00
6.000000 -12.000000 1.583359E+00
6.000000 -14.000000 3.163712E+00
6.000000 -16.000000 7.803314E+00
6.000000 -18.000000 1.133048E+01
6.000000 -20.000000 1.234083E+01
6.000000 -22.000000 1.310914E+01
6.000000 -24.000000 1.895751E+01
6.000000 -26.000000 2.537612E+01
6.000000 -28.000000 2.591980E+01
6.000000 -30.000000 1.865619E+01
6.000000 -32.000000 5.073706E+00
6.000000 -34.000000 -5.568802E+00
6.000000 -36.000000 2.367453E+00
6.000000 -38.000000 2.390093E+01
6.000000 -40.000000 4.876788E+01
8.000000 40.000000 -5.728027E+01
8.000000 38.000000 -3.461098E+01
8.000000 36.000000 -2.118317E+01
8.000000 34.000000 -1.036799E+01
8.000000 32.000000 -7.476031E+00
8.000000 30.000000 -5.808387E+00
8.000000 28.000000 -3.621030E+00
8.000000 26.000000 1.860485E+00
8.000000 24.000000 6.664730E+00
8.000000 22.000000 3.567707E+00
8.000000 20.000000 -5.986496E+00
8.000000 18.000000 -1.318409E+01
8.000000 16.000000 3.268456E+00
8.000000 14.000000 5.383646E+01
8.000000 12.000000 1.341167E+02
8.000000 10.000000 2.110689E+02
8.000000 8.000000 2.273807E+02
8.000000 6.000000 1.841610E+02
8.000000 4.000000 8.994700E+01
8.000000 2.000000 1.359978E+00
8.000000 0.000000 -4.925325E+01
8.000000 -2.000000 -4.963494E+01
8.000000 -4.000000 -1.865059E+01
8.000000 -6.000000 1.073076E+01
8.000000 -8.000000 1.601763E+01
8.000000 -10.000000 7.824135E+00
8.000000 -12.000000 -4.374435E+00
8.000000 -14.000000 -4.619011E+00
8.000000 -16.000000 5.015678E+00
8.000000 -18.000000 1.356849E+01
8.000000 -20.000000 1.452526E+01
8.000000 -22.000000 1.402506E+01
8.000000 -24.000000 1.747058E+01
8.000000 -26.000000 2.179762E+01
8.000000 -28.000000 2.217066E+01
8.000000 -30.000000 1.704360E+01
8.000000 -32.000000 6.713409E+00
8.000000 -34.000000 -9.892693E-01
8.000000 -36.000000 9.182035E+00
8.000000 -38.000000 3.036332E+01
8.000000 -40.000000 5.437361E+01
10.000000 40.000000 -5.592777E+01
10.000000 38.000000 -3.368264E+01
10.000000 36.000000 -2.211076E+01
10.000000 34.000000 -1.534252E+01
10.000000 32.000000 -1.340110E+01
10.000000 30.000000 -9.873151E+00
10.000000 28.000000 -6.813050E+00
10.000000 26.000000 -7.442904E-01
10.000000 24.000000 6.659822E+00
10.000000 22.000000 6.650842E+00
10.000000 20.000000 -1.283258E+00
10.000000 18.000000 -1.202692E+01
10.000000 16.000000 -6.929455E+00
10.000000 14.000000 2.965582E+01
10.000000 12.000000 1.017114E+02
10.000000 10.000000 1.826142E+02
10.000000 8.000000 2.150812E+02
10.000000 6.000000 1.880785E+02
10.000000 4.000000 1.006824E+02
10.000000 2.000000 7.746967E+00
10.000000 0.000000 -5.119807E+01
10.000000 -2.000000 -5.263069E+01
10.000000 -4.000000 -1.656074E+01
10.000000 -6.000000 1.612952E+01
10.000000 -8.000000 1.753935E+01
10.000000 -10.000000 2.239902E+00
10.000000 -12.000000 -1.409950E+01
10.000000 -14.000000 -9.459997E+00
10.000000 -16.000000 8.699142E+00
10.000000 -18.000000 2.255709E+01
10.000000 -20.000000 2.238187E+01
10.000000 -22.000000 1.747818E+01
10.000000 -24.000000 1.654160E+01
10.000000 -26.000000 1.931021E+01
10.000000 -28.000000 2.057990E+01
10.000000 -30.000000 1.825809E+01
10.000000 -32.000000 1.179550E+01
10.000000 -34.000000 6.542580E+00
10.000000 -36.000000 1.677028E+01
10.000000 -38.000000 3.569510E+01
10.000000 -40.000000 5.852965E+01
12.000000 40.000000 -5.338713E+01
12.000000 38.000000 -3.050525E+01
12.000000 36.000000 -1.767685E+01
12.000000 34.000000 -1.281840E+01
12.000000 32.000000 -1.369416E+01
12.000000 30.000000 -1.250939E+01
12.000000 28.000000 -1.136905E+01
12.000000 26.000000 -5.783894E+00
12.000000 24.000000 3.483288E+00
12.000000 22.000000 7.058681E+00
12.000000 20.000000 1.066530E+00
12.000000 18.000000 -1.265755E+01
12.000000 16.000000 -1.773720E+01
12.000000 14.000000 5.257893E+00
12.000000 12.000000 6.720270E+01
12.000000 10.000000 1.467743E+02
12.000000 8.000000 1.916472E+02
12.000000 6.000000 1.807812E+02
12.000000 4.000000 1.081405E+02
12.000000 2.000000 2.031114E+01
12.000000 0.000000 -4.190182E+01
12.000000 -2.000000 -4.968812E+01
12.000000 -4.000000 -1.913955E+01
12.000000 -6.000000 7.316687E+00
12.000000 -8.000000 1.712500E+00
12.000000 -10.000000 -1.983404E+01
12.000000 -12.000000 -3.089017E+01
12.000000 -14.000000 -1.244834E+01
12.000000 -16.000000 1.982078E+01
12.000000 -18.000000 3.872080E+01
12.000000 -20.000000 3.568720E+01
12.000000 -22.000000 2.485093E+01
12.000000 -24.000000 1.834039E+01
12.000000 -26.000000 1.969872E+01
12.000000 -28.000000 2.206014E+01
12.000000 -30.000000 2.201682E+01
12.000000 -32.000000 1.859068E+01
12.000000 -34.000000 1.466706E+01
12.000000 -36.000000 2.300642E+01
12.000000 -38.000000 3.968184E+01
12.000000 -40.000000 6.180180E+01
14.000000 40.000000 -5.038817E+01
14.000000 38.000000 -2.589966E+01
14.000000 36.000000 -9.015687E+00
14.000000 34.000000 -2.976931E+00
14.000000 32.000000 -7.633719E+00
14.000000 30.000000 -1.262611E+01
14.000000 28.000000 -1.637321E+01
14.000000 26.000000 -1.273766E+01
14.000000 24.000000 -2.825932E+00
14.000000 22.000000 4.664419E+00
14.000000 20.000000 1.589524E+00
14.000000 18.000000 -1.170417E+01
14.000000 16.000000 -2.246074E+01
14.000000 14.000000 -1.188632E+01
14.000000 12.000000 3.845270E+01
14.000000 10.000000 1.122367E+02
14.000000 8.000000 1.612992E+02
14.000000 6.000000 1.617956E+02
14.000000 4.000000 1.084677E+02
14.000000 2.000000 3.544403E+01
14.000000 0.000000 -2.275820E+01
14.000000 -2.000000 -3.913647E+01
14.000000 -4.000000 -2.316173E+01
14.000000 -6.000000 -1.268003E+01
14.000000 -8.000000 -2.975553E+01
14.000000 -10.000000 -5.616207E+01
14.000000 -12.000000 -5.410791E+01
14.000000 -14.000000 -1.410068E+01
14.000000 -16.000000 3.674478E+01
14.000000 -18.000000 5.976596E+01
14.000000 -20.000000 5.143637E+01
14.000000 -22.000000 3.379043E+01
14.000000 -24.000000 2.171167E+01
14.000000 -26.000000 2.114700E+01
14.000000 -28.000000 2.269301E+01
14.000000 -30.000000 2.352142E+01
14.000000 -32.000000 2.244235E+01
14.000000 -34.000000 1.991633E+01
14.000000 -36.000000 2.711396E+01
14.000000 -38.000000 4.350257E+01
14.000000 -40.000000 6.546970E+01
16.000000 40.000000 -4.838338E+01
16.000000 38.000000 -2.177041E+01
16.000000 36.000000 2.039757E-01
16.000000 34.000000 9.476227E+00
16.000000 32.000000 3.007124E+00
16.000000 30.000000 -8.113216E+00
16.000000 28.000000 -1.869496E+01
16.000000 26.000000 -1.882895E+01
16.000000 24.000000 -9.286316E+00
16.000000 22.000000 2.195193E+00
16.000000 20.000000 3.511633E+00
16.000000 18.000000 -3.982468E+00
16.000000 16.000000 -1.296377E+01
16.000000 14.000000 -9.900301E+00
16.000000 12.000000 2.831035E+01
16.000000 10.000000 9.013494E+01
16.000000 8.000000 1.323661E+02
16.000000 6.000000 1.361688E+02
16.000000 4.000000 1.009104E+02
16.000000 2.000000 4.807585E+01
16.000000 0.000000 1.456070E-01
16.000000 -2.000000 -2.501860E+01
16.000000 -4.000000 -2.995730E+01
16.000000 -6.000000 -4.137788E+01
16.000000 -8.000000 -7.168528E+01
16.000000 -10.000000 -9.874690E+01
16.000000 -12.000000 -7.701739E+01
16.000000 -14.000000 -1.249209E+01
16.000000 -16.000000 5.465125E+01
16.000000 -18.000000 7.879659E+01
16.000000 -20.000000 6.301981E+01
16.000000 -22.000000 3.779770E+01
16.000000 -24.000000 2.122554E+01
16.000000 -26.000000 1.833785E+01
16.000000 -28.000000 1.843322E+01
16.000000 -30.000000 1.933167E+01
16.000000 -32.000000 2.018617E+01
16.000000 -34.000000 2.151670E+01
16.000000 -36.000000 3.119316E+01
16.000000 -38.000000 4.801086E+01
16.000000 -40.000000 6.914588E+01
18.000000 40.000000 -4.918807E+01
18.000000 38.000000 -2.100435E+01
18.000000 36.000000 5.338823E+00
18.000000 34.000000 1.955084E+01
18.000000 32.000000 1.530623E+01
18.000000 30.000000 1.748663E+00
18.000000 28.000000 -1.420529E+01
18.000000 26.000000 -1.790073E+01
18.000000 24.000000 -8.889088E+00
18.000000 22.000000 4.281845E+00
18.000000 20.000000 9.527365E+00
18.000000 18.000000 9.648190E+00
18.000000 16.000000 9.418325E+00
18.000000 14.000000 1.613845E+01
18.000000 12.000000 4.618623E+01
18.000000 10.000000 8.981164E+01
18.000000 8.000000 1.168261E+02
18.000000 6.000000 1.165139E+02
18.000000 4.000000 9.272228E+01
18.000000 2.000000 5.633223E+01
18.000000 0.000000 1.681137E+01
18.000000 -2.000000 -1.752182E+01
18.000000 -4.000000 -4.479512E+01
18.000000 -6.000000 -7.843056E+01
18.000000 -8.000000 -1.176840E+02
18.000000 -10.000000 -1.383471E+02
18.000000 -12.000000 -9.282024E+01
18.000000 -14.000000 -6.673630E+00
18.000000 -16.000000 6.857324E+01
18.000000 -18.000000 8.827025E+01
18.000000 -20.000000 6.392383E+01
18.000000 -22.000000 3.127577E+01
18.000000 -24.000000 1.144475E+01
18.000000 -26.000000 7.350595E+00
18.000000 -28.000000 7.567389E+00
18.000000 -30.000000 8.360540E+00
18.000000 -32.000000 1.115984E+01
18.000000 -34.000000 1.897622E+01
18.000000 -36.000000 3.509568E+01
18.000000 -38.000000 5.355889E+01
18.000000 -40.000000 7.401685E+01
20.000000 40.000000 -5.396521E+01
20.000000 38.000000 -2.508824E+01
20.000000 36.000000 4.030041E+00
20.000000 34.000000 2.480559E+01
20.000000 32.000000 2.598771E+01
20.000000 30.000000 1.553194E+01
20.000000 28.000000 7.207251E-01
20.000000 26.000000 -3.667900E+00
20.000000 24.000000 3.938869E+00
20.000000 22.000000 1.455635E+01
20.000000 20.000000 2.103352E+01
20.000000 18.000000 2.603997E+01
20.000000 16.000000 3.410809E+01
20.000000 14.000000 4.927841E+01
20.000000 12.000000 7.673936E+01
20.000000 10.000000 1.068880E+02
20.000000 8.000000 1.186780E+02
20.000000 6.000000 1.111242E+02
20.000000 4.000000 9.043976E+01
20.000000 2.000000 6.107431E+01
20.000000 0.000000 2.324001E+01
20.000000 -2.000000 -2.105044E+01
20.000000 -4.000000 -6.697978E+01
20.000000 -6.000000 -1.158388E+02
20.000000 -8.000000 -1.561246E+02
20.000000 -10.000000 -1.654568E+02
20.000000 -12.000000 -9.915686E+01
20.000000 -14.000000 1.298022E+00
20.000000 -16.000000 7.751823E+01
20.000000 -18.000000 8.842165E+01
20.000000 -20.000000 5.368707E+01
20.000000 -22.000000 1.470343E+01
20.000000 -24.000000 -6.958205E+00
20.000000 -26.000000 -1.046889E+01
20.000000 -28.000000 -9.063357E+00
20.000000 -30.000000 -8.216305E+00
20.000000 -32.000000 -3.023666E+00
20.000000 -34.000000 1.151963E+01
20.000000 -36.000000 3.602077E+01
20.000000 -38.000000 5.939434E+01
20.000000 -40.000000 8.177061E+01
22.000000 40.000000 -6.169611E+01
22.000000 38.000000 -3.267745E+01
22.000000 36.000000 -2.188522E+00
22.000000 34.000000 2.487963E+01
22.000000 32.000000 3.285889E+01
22.000000 30.000000 2.945347E+01
22.000000 28.000000 2.074237E+01
22.000000 26.000000 1.749077E+01
22.000000 24.000000 2.317289E+01
22.000000 22.000000 2.959934E+01
22.000000 20.000000 3.479287E+01
22.000000 18.000000 4.031035E+01
22.000000 16.000000 5.141039E+01
22.000000 14.000000 7.209214E+01
22.000000 12.000000 9.981556E+01
22.000000 10.000000 1.252119E+02
22.000000 8.000000 1.295998E+02
22.000000 6.000000 1.191170E+02
22.000000 4.000000 9.650229E+01
22.000000 2.000000 6.434379E+01
22.000000 0.000000 2.015123E+01
22.000000 -2.000000 -3.354376E+01
22.000000 -4.000000 -8.907514E+01
22.000000 -6.000000 -1.421823E+02
22.000000 -8.000000 -1.752142E+02
22.000000 -10.000000 -1.701206E+02
22.000000 -12.000000 -9.179655E+01
22.000000 -14.000000 1.114796E+01
22.000000 -16.000000 8.093850E+01
22.000000 -18.000000 8.109633E+01
22.000000 -20.000000 3.655386E+01
22.000000 -22.000000 -6.909080E+00
22.000000 -24.000000 -2.837070E+01
22.000000 -26.000000 -2.984036E+01
22.000000 -28.000000 -2.693401E+01
22.000000 -30.000000 -2.520958E+01
22.000000 -32.000000 -1.714672E+01
22.000000 -34.000000 3.524312E+00
22.000000 -36.000000 3.596023E+01
22.000000 -38.000000 6.449183E+01
22.000000 -40.000000 8.909824E+01
24.000000 40.000000 -6.969135E+01
24.000000 38.000000 -4.143036E+01
24.000000 36.000000 -1.120455E+01
24.000000 34.000000 1.999150E+01
24.000000 32.000000 3.451010E+01
24.000000 30.000000 3.872828E+01
24.000000 28.000000 3.566382E+01
24.000000 26.000000 3.280112E+01
24.000000 24.000000 3.710080E+01
24.000000 22.000000 4.064281E+01
24.000000 20.000000 4.406058E+01
24.000000 18.000000 4.757886E+01
24.000000 16.000000 5.784193E+01
24.000000 14.000000 7.882040E+01
24.000000 12.000000 1.058070E+02
24.000000 10.000000 1.299176E+02
24.000000 8.000000 1.347151E+02
24.000000 6.000000 1.272231E+02
24.000000 4.000000 1.034108E+02
24.000000 2.000000 6.449342E+01
24.000000 0.000000 1.235752E+01
24.000000 -2.000000 -4.632268E+01
24.000000 -4.000000 -1.013180E+02
24.000000 -6.000000 -1.470414E+02
24.000000 -8.000000 -1.675134E+02
24.000000 -10.000000 -1.492645E+02
24.000000 -12.000000 -6.882709E+01
24.000000 -14.000000 2.472030E+01
24.000000 -16.000000 7.959880E+01
24.000000 -18.000000 6.844206E+01
24.000000 -20.000000 1.812068E+01
24.000000 -22.000000 -2.701332E+01
24.000000 -24.000000 -4.557995E+01
24.000000 -26.000000 -4.360847E+01
24.000000 -28.000000 -3.925602E+01
24.000000 -30.000000 -3.606761E+01
24.000000 -32.000000 -2.527538E+01
24.000000 -34.000000 2.118874E-02
24.000000 -36.000000 3.736602E+01
24.000000 -38.000000 6.750326E+01
24.000000 -40.000000 9.156242E+01
26.000000 40.000000 -7.528325E+01
26.000000 38.000000 -4.995792E+01
26.000000 36.000000 -2.222487E+01
26.000000 34.000000 9.712240E+00
26.000000 32.000000 2.874802E+01
26.000000 30.000000 3.790038E+01
26.000000 28.000000 3.826706E+01
26.000000 26.000000 3.543537E+01
26.000000 24.000000 3.890214E+01
26.000000 22.000000 4.245083E+01
26.000000 20.000000 4.632919E+01
26.000000 18.000000 4.762430E+01
26.000000 16.000000 5.502083E+01
26.000000 14.000000 7.181806E+01
26.000000 12.000000 9.478766E+01
26.000000 10.000000 1.157324E+02
26.000000 8.000000 1.232884E+02
26.000000 6.000000 1.213394E+02
26.000000 4.000000 9.951604E+01
26.000000 2.000000 5.603738E+01
26.000000 0.000000 1.686541E+00
26.000000 -2.000000 -5.287575E+01
26.000000 -4.000000 -9.646051E+01
26.000000 -6.000000 -1.260110E+02
26.000000 -8.000000 -1.339535E+02
26.000000 -10.000000 -1.087682E+02
26.000000 -12.000000 -3.697264E+01
26.000000 -14.000000 3.949648E+01
26.000000 -16.000000 7.636599E+01
26.000000 -18.000000 5.517807E+01
26.000000 -20.000000 3.078988E+00
26.000000 -22.000000 -3.995150E+01
26.000000 -24.000000 -5.314710E+01
26.000000 -26.000000 -4.671618E+01
26.000000 -28.000000 -4.060572E+01
26.000000 -30.000000 -3.634139E+01
26.000000 -32.000000 -2.434928E+01
26.000000 -34.000000 1.748501E+00
26.000000 -36.000000 3.856343E+01
26.000000 -38.000000 6.705354E+01
26.000000 -40.000000 8.829882E+01
28.000000 40.000000 -7.912652E+01
28.000000 38.000000 -5.793002E+01
28.000000 36.000000 -3.348366E+01
28.000000 34.000000 -3.594070E+00
28.000000 32.000000 1.685144E+01
28.000000 30.000000 2.649667E+01
28.000000 28.000000 2.734074E+01
28.000000 26.000000 2.438898E+01
28.000000 24.000000 2.739934E+01
28.000000 22.000000 3.386708E+01
28.000000 20.000000 4.099924E+01
28.000000 18.000000 4.236060E+01
28.000000 16.000000 4.697396E+01
28.000000 14.000000 5.909265E+01
28.000000 12.000000 7.625883E+01
28.000000 10.000000 9.137199E+01
28.000000 8.000000 9.780613E+01
28.000000 6.000000 9.535487E+01
28.000000 4.000000 7.490020E+01
28.000000 2.000000 3.436631E+01
28.000000 0.000000 -1.254042E+01
28.000000 -2.000000 -5.254154E+01
28.000000 -4.000000 -7.574945E+01
28.000000 -6.000000 -8.649243E+01
28.000000 -8.000000 -8.682668E+01
28.000000 -10.000000 -6.328842E+01
28.000000 -12.000000 -8.935922E+00
28.000000 -14.000000 4.728556E+01
28.000000 -16.000000 6.916100E+01
28.000000 -18.000000 4.332781E+01
28.000000 -20.000000 -5.908937E+00
28.000000 -22.000000 -4.293248E+01
28.000000 -24.000000 -4.925251E+01
28.000000 -26.000000 -3.809415E+01
28.000000 -28.000000 -2.977791E+01
28.000000 -30.000000 -2.479135E+01
28.000000 -32.000000 -1.407083E+01
28.000000 -34.000000 8.005038E+00
28.000000 -36.000000 3.859797E+01
28.000000 -38.000000 6.262688E+01
28.000000 -40.000000 7.904176E+01
30.000000 40.000000 -8.440207E+01
30.000000 38.000000 -6.580086E+01
30.000000 36.000000 -4.290786E+01
30.000000 34.000000 -1.562761E+01
30.000000 32.000000 3.887146E+00
30.000000 30.000000 1.083327E+01
30.000000 28.000000 7.697332E+00
30.000000 26.000000 3.291853E+00
30.000000 24.000000 5.772745E+00
30.000000 22.000000 1.588917E+01
30.000000 20.000000 2.792976E+01
30.000000 18.000000 3.419686E+01
30.000000 16.000000 3.977994E+01
30.000000 14.000000 5.057235E+01
30.000000 12.000000 6.325539E+01
30.000000 10.000000 7.018739E+01
30.000000 8.000000 6.787190E+01
30.000000 6.000000 5.649690E+01
30.000000 4.000000 3.351112E+01
30.000000 2.000000 7.481766E-02
30.000000 0.000000 -3.304876E+01
30.000000 -2.000000 -5.236565E+01
30.000000 -4.000000 -5.245043E+01
30.000000 -6.000000 -4.701892E+01
30.000000 -8.000000 -4.589047E+01
30.000000 -10.000000 -3.141619E+01
30.000000 -12.000000 3.202445E+00
30.000000 -14.000000 4.127475E+01
30.000000 -16.000000 5.322389E+01
30.000000 -18.000000 2.937351E+01
30.000000 -20.000000 -1.067541E+01
30.000000 -22.000000 -3.734686E+01
30.000000 -24.000000 -3.572269E+01
30.000000 -26.000000 -1.975760E+01
30.000000 -28.000000 -9.388113E+00
30.000000 -30.000000 -3.999171E+00
30.000000 -32.000000 2.667281E+00
30.000000 -34.000000 1.706796E+01
30.000000 -36.000000 3.781428E+01
30.000000 -38.000000 5.437679E+01
30.000000 -40.000000 6.384864E+01
32.000000 40.000000 -9.198268E+01
32.000000 38.000000 -7.497069E+01
32.000000 36.000000 -5.274856E+01
32.000000 34.000000 -2.653252E+01
32.000000 32.000000 -7.371668E+00
32.000000 30.000000 -3.156893E+00
32.000000 28.000000 -1.133210E+01
32.000000 26.000000 -1.903074E+01
32.000000 24.000000 -1.887786E+01
32.000000 22.000000 -6.700567E+00
32.000000 20.000000 9.566879E+00
32.000000 18.000000 2.373555E+01
32.000000 16.000000 3.612797E+01
32.000000 14.000000 5.094271E+01
32.000000 12.000000 6.264224E+01
32.000000 10.000000 6.199599E+01
32.000000 8.000000 4.527046E+01
32.000000 6.000000 2.009642E+01
32.000000 4.000000 -9.531425E+00
32.000000 2.000000 -3.764306E+01
32.000000 0.000000 -5.698231E+01
32.000000 -2.000000 -5.702916E+01
32.000000 -4.000000 -3.989644E+01
32.000000 -6.000000 -2.472582E+01
32.000000 -8.000000 -2.675307E+01
32.000000 -10.000000 -2.507085E+01
32.000000 -12.000000 -6.617041E+00
32.000000 -14.000000 1.862948E+01
32.000000 -16.000000 2.617173E+01
32.000000 -18.000000 9.324141E+00
32.000000 -20.000000 -1.659042E+01
32.000000 -22.000000 -3.003243E+01
32.000000 -24.000000 -1.972615E+01
32.000000 -26.000000 1.394596E+00
32.000000 -28.000000 1.408919E+01
32.000000 -30.000000 1.929723E+01
32.000000 -32.000000 2.080835E+01
32.000000 -34.000000 2.660223E+01
32.000000 -36.000000 3.612474E+01
32.000000 -38.000000 4.376771E+01
32.000000 -40.000000 4.608397E+01
34.000000 40.000000 -1.013389E+02
34.000000 38.000000 -8.743600E+01
34.000000 36.000000 -6.710635E+01
34.000000 34.000000 -3.930981E+01
34.000000 32.000000 -1.709510E+01
34.000000 30.000000 -1.240155E+01
34.000000 28.000000 -2.199394E+01
34.000000 26.000000 -3.375916E+01
34.000000 24.000000 -3.783093E+01
34.000000 22.000000 -2.713137E+01
34.000000 20.000000 -1.059458E+01
34.000000 18.000000 9.679615E+00
34.000000 16.000000 3.231154E+01
34.000000 14.000000 5.609990E+01
34.000000 12.000000 7.032657E+01
34.000000 10.000000 6.547579E+01
34.000000 8.000000 3.414759E+01
34.000000 6.000000 -5.161102E+00
34.000000 4.000000 -4.256922E+01
34.000000 2.000000 -6.777985E+01
34.000000 0.000000 -7.760355E+01
34.000000 -2.000000 -6.571841E+01
34.000000 -4.000000 -4.052771E+01
34.000000 -6.000000 -2.322933E+01
34.000000 -8.000000 -3.069987E+01
34.000000 -10.000000 -4.126791E+01
34.000000 -12.000000 -3.424876E+01
34.000000 -14.000000 -1.734543E+01
34.000000 -16.000000 -8.718271E+00
34.000000 -18.000000 -1.418568E+01
34.000000 -20.000000 -2.452974E+01
34.000000 -22.000000 -2.566105E+01
34.000000 -24.000000 -8.142080E+00
34.000000 -26.000000 1.659106E+01
34.000000 -28.000000 3.158762E+01
34.000000 -30.000000 3.702467E+01
34.000000 -32.000000 3.481936E+01
34.000000 -34.000000 3.358001E+01
34.000000 -36.000000 3.264119E+01
34.000000 -38.000000 3.212204E+01
34.000000 -40.000000 2.930303E+01
36.000000 40.000000 -1.119181E+02
36.000000 38.000000 -1.034904E+02
36.000000 36.000000 -8.610151E+01
36.000000 34.000000 -5.610149E+01
36.000000 32.000000 -2.753770E+01
36.000000 30.000000 -1.767038E+01
36.000000 28.000000 -2.441450E+01
36.000000 26.000000 -3.692985E+01
36.000000 24.000000 -4.500827E+01
36.000000 22.000000 -4.059187E+01
36.000000 20.000000 -2.860894E+01
36.000000 18.000000 -5.784826E+00
36.000000 16.000000 2.608903E+01
36.000000 14.000000 5.987061E+01
36.000000 12.000000 7.820621E+01
36.000000 10.000000 7.130486E+01
36.000000 8.000000 2.972527E+01
36.000000 6.000000 -2.064052E+01
36.000000 4.000000 -6.362066E+01
36.000000 2.000000 -8.536539E+01
36.000000 0.000000 -8.942535E+01
36.000000 -2.000000 -7.367384E+01
36.000000 -4.000000 -4.866473E+01
36.000000 -6.000000 -3.503276E+01
36.000000 -8.000000 -4.790326E+01
36.000000 -10.000000 -6.759490E+01
36.000000 -12.000000 -6.842629E+01
36.000000 -14.000000 -5.650845E+01
36.000000 -16.000000 -4.424953E+01
36.000000 -18.000000 -3.687663E+01
36.000000 -20.000000 -3.294903E+01
36.000000 -22.000000 -2.502934E+01
36.000000 -24.000000 -3.152456E+00
36.000000 -26.000000 2.307174E+01
36.000000 -28.000000 3.895729E+01
36.000000 -30.000000 4.488951E+01
36.000000 -32.000000 4.072311E+01
36.000000 -34.000000 3.473679E+01
36.000000 -36.000000 2.621263E+01
36.000000 -38.000000 1.952698E+01
36.000000 -40.000000 1.375300E+01
38.000000 40.000000 -1.223930E+02
38.000000 38.000000 -1.214906E+02
38.000000 36.000000 -1.080447E+02
38.000000 34.000000 -7.650289E+01
38.000000 32.000000 -3.942147E+01
38.000000 30.000000 -2.027490E+01
38.000000 28.000000 -2.097949E+01
38.000000 26.000000 -3.032033E+01
38.000000 24.000000 -4.069259E+01
38.000000 22.000000 -4.522440E+01
38.000000 20.000000 -4.102202E+01
38.000000 18.000000 -2.063821E+01
38.000000 16.000000 1.522466E+01
38.000000 14.000000 5.486152E+01
38.000000 12.000000 7.741636E+01
38.000000 10.000000 6.985365E+01
38.000000 8.000000 2.403820E+01
38.000000 6.000000 -3.115620E+01
38.000000 4.000000 -7.352136E+01
38.000000 2.000000 -8.851926E+01
38.000000 0.000000 -8.748229E+01
38.000000 -2.000000 -7.223363E+01
38.000000 -4.000000 -5.193447E+01
38.000000 -6.000000 -4.456631E+01
38.000000 -8.000000 -6.160171E+01
38.000000 -10.000000 -8.704416E+01
38.000000 -12.000000 -9.411032E+01
38.000000 -14.000000 -8.668571E+01
38.000000 -16.000000 -7.307239E+01
38.000000 -18.000000 -5.842978E+01
38.000000 -20.000000 -4.512204E+01
38.000000 -22.000000 -3.110437E+01
38.000000 -24.000000 -7.091982E+00
38.000000 -26.000000 1.970606E+01
38.000000 -28.000000 3.528400E+01
38.000000 -30.000000 4.131538E+01
38.000000 -32.000000 3.649128E+01
38.000000 -34.000000 2.885163E+01
38.000000 -36.000000 1.725179E+01
38.000000 -38.000000 6.938722E+00
38.000000 -40.000000 -3.536487E-01
40.000000 40.000000 -1.310383E+02
40.000000 38.000000 -1.386966E+02
40.000000 36.000000 -1.306185E+02
40.000000 34.000000 -9.793247E+01
40.000000 32.000000 -5.107088E+01
40.000000 30.000000 -2.032892E+01
40.000000 28.000000 -1.374702E+01
40.000000 26.000000 -2.004190E+01
40.000000 24.000000 -3.135561E+01
40.000000 22.000000 -4.360982E+01
40.000000 20.000000 -4.792931E+01
40.000000 18.000000 -3.372071E+01
40.000000 16.000000 1.005402E+00
40.000000 14.000000 4.138389E+01
40.000000 12.000000 6.562563E+01
40.000000 10.000000 5.851982E+01
40.000000 8.000000 1.537292E+01
40.000000 6.000000 -3.565527E+01
40.000000 4.000000 -7.034634E+01
40.000000 2.000000 -7.729246E+01
40.000000 0.000000 -7.187226E+01
40.000000 -2.000000 -5.911981E+01
40.000000 -4.000000 -4.489484E+01
40.000000 -6.000000 -4.330735E+01
40.000000 -8.000000 -6.174434E+01
40.000000 -10.000000 -8.736316E+01
40.000000 -12.000000 -9.933972E+01
40.000000 -14.000000 -9.926934E+01
40.000000 -16.000000 -9.092688E+01
40.000000 -18.000000 -7.941686E+01
40.000000 -20.000000 -6.523404E+01
40.000000 -22.000000 -4.778879E+01
40.000000 -24.000000 -2.169027E+01
40.000000 -26.000000 5.301193E+00
40.000000 -28.000000 2.009758E+01
40.000000 -30.000000 2.576672E+01
40.000000 -32.000000 2.207417E+01
40.000000 -34.000000 1.703668E+01
40.000000 -36.000000 7.385351E+00
40.000000 -38.000000 -3.376412E+00
40.000000 -40.000000 -1.154792E+01
42.000000 40.000000 -1.357667E+02
42.000000 38.000000 -1.502717E+02
42.000000 36.000000 -1.484444E+02
42.000000 34.000000 -1.170562E+02
42.000000 32.000000 -6.275147E+01
42.000000 30.000000 -2.128852E+01
42.000000 28.000000 -7.380857E+00
42.000000 26.000000 -1.039949E+01
42.000000 24.000000 -2.098308E+01
42.000000 22.000000 -3.721456E+01
42.000000 20.000000 -4.838635E+01
42.000000 18.000000 -4.099359E+01
42.000000 16.000000 -1.148417E+01
42.000000 14.000000 2.377929E+01
42.000000 12.000000 4.530279E+01
42.000000 10.000000 3.989079E+01
42.000000 8.000000 6.608883E+00
42.000000 6.000000 -3.018151E+01
42.000000 4.000000 -5.211154E+01
42.000000 2.000000 -5.420067E+01
42.000000 0.000000 -4.746851E+01
42.000000 -2.000000 -3.781717E+01
42.000000 -4.000000 -3.018499E+01
42.000000 -6.000000 -3.322635E+01
42.000000 -8.000000 -5.010647E+01
42.000000 -10.000000 -7.107845E+01
42.000000 -12.000000 -8.591592E+01
42.000000 -14.000000 -9.506732E+01
42.000000 -16.000000 -9.973960E+01
42.000000 -18.000000 -9.969480E+01
42.000000 -20.000000 -9.072998E+01
42.000000 -22.000000 -7.242960E+01
42.000000 -24.000000 -4.357026E+01
42.000000 -26.000000 -1.660586E+01
42.000000 -28.000000 -3.013851E+00
42.000000 -30.000000 2.104543E+00
42.000000 -32.000000 1.117769E+00
42.000000 -34.000000 1.646223E+00
42.000000 -36.000000 -2.452395E+00
42.000000 -38.000000 -1.083755E+01
42.000000 -40.000000 -1.894252E+01
44.000000 40.000000 -1.354263E+02
44.000000 38.000000 -1.522881E+02
44.000000 36.000000 -1.562390E+02
44.000000 34.000000 -1.307408E+02
44.000000 32.000000 -7.522759E+01
44.000000 30.000000 -2.660533E+01
44.000000 28.000000 -4.987654E+00
44.000000 26.000000 -3.247931E+00
44.000000 24.000000 -9.991225E+00
44.000000 22.000000 -2.413741E+01
44.000000 20.000000 -3.601830E+01
44.000000 18.000000 -3.392403E+01
44.000000 16.000000 -1.405415E+01
44.000000 14.000000 9.897491E+00
44.000000 12.000000 2.378536E+01
44.000000 10.000000 1.800947E+01
44.000000 8.000000 -4.094954E+00
44.000000 6.000000 -2.520359E+01
44.000000 4.000000 -3.342652E+01
44.000000 2.000000 -3.099535E+01
44.000000 0.000000 -2.477414E+01
44.000000 -2.000000 -1.890561E+01
44.000000 -4.000000 -1.624739E+01
44.000000 -6.000000 -2.114705E+01
44.000000 -8.000000 -3.398442E+01
44.000000 -10.000000 -4.826103E+01
44.000000 -12.000000 -6.497085E+01
44.000000 -14.000000 -8.223432E+01
44.000000 -16.000000 -1.006692E+02
44.000000 -18.000000 -1.131725E+02
44.000000 -20.000000 -1.105397E+02
44.000000 -22.000000 -9.334742E+01
44.000000 -24.000000 -6.376612E+01
44.000000 -26.000000 -3.825390E+01
44.000000 -28.000000 -2.692614E+01
44.000000 -30.000000 -2.260899E+01
44.000000 -32.000000 -2.064668E+01
44.000000 -34.000000 -1.454325E+01
44.000000 -36.000000 -1.245979E+01
44.000000 -38.000000 -1.669066E+01
44.000000 -40.000000 -2.317284E+01
46.000000 40.000000 -1.305082E+02
46.000000 38.000000 -1.460544E+02
46.000000 36.000000 -1.533045E+02
46.000000 34.000000 -1.362597E+02
46.000000 32.000000 -8.558546E+01
46.000000 30.000000 -3.388722E+01
46.000000 28.000000 -5.136549E+00
46.000000 26.000000 1.900202E+00
46.000000 24.000000 1.074318E+00
46.000000 22.000000 -6.347507E+00
46.000000 20.000000 -1.399846E+01
46.000000 18.000000 -1.468812E+01
46.000000 16.000000 -4.351006E+00
46.000000 14.000000 7.610849E+00
46.000000 12.000000 1.110641E+01
46.000000 10.000000 4.547119E-01
46.000000 8.000000 -1.548721E+01
46.000000 6.000000 -2.695428E+01
46.000000 4.000000 -2.614262E+01
46.000000 2.000000 -2.006683E+01
46.000000 0.000000 -1.567141E+01
46.000000 -2.000000 -1.420075E+01
46.000000 -4.000000 -1.356177E+01
46.000000 -6.000000 -1.661674E+01
46.000000 -8.000000 -2.323954E+01
46.000000 -10.000000 -3.081404E+01
46.000000 -12.000000 -4.792621E+01
46.000000 -14.000000 -6.942438E+01
46.000000 -16.000000 -9.407897E+01
46.000000 -18.000000 -1.122920E+02
46.000000 -20.000000 -1.142912E+02
46.000000 -22.000000 -9.984830E+01
46.000000 -24.000000 -7.315207E+01
46.000000 -26.000000 -5.094996E+01
46.000000 -28.000000 -4.424292E+01
46.000000 -30.000000 -4.186610E+01
46.000000 -32.000000 -3.768042E+01
46.000000 -34.000000 -2.811306E+01
46.000000 -36.000000 -2.221196E+01
46.000000 -38.000000 -2.241297E+01
46.000000 -40.000000 -2.635529E+01
48.000000 40.000000 -1.213622E+02
48.000000 38.000000 -1.335008E+02
48.000000 36.000000 -1.405227E+02
48.000000 34.000000 -1.314389E+02
48.000000 32.000000 -9.073934E+01
48.000000 30.000000 -4.174575E+01
48.000000 28.000000 -8.128508E+00
48.000000 26.000000 4.649961E+00
48.000000 24.000000 1.093544E+01
48.000000 22.000000 1.095229E+01
48.000000 20.000000 7.732594E+00
48.000000 18.000000 5.533865E+00
