-18.000000 0.000000 4.255700E+00
-18.000000 -2.000000 4.952272E+00
-18.000000 -4.000000 7.761905E+00
-18.000000 -6.000000 1.045508E+01
-18.000000 -8.000000 1.424447E+01
-18.000000 -10.000000 1.802557E+01
-18.000000 -12.000000 2.302875E+01
-18.000000 -14.000000 2.708706E+01
-18.000000 -16.000000 2.865070E+01
-18.000000 -18.000000 2.604822E+01
-18.000000 -20.000000 1.734668E+01
-18.000000 -22.000000 6.295727E+00
-18.000000 -24.000000 -7.147298E+00
-18.000000 -26.000000 -1.832920E+01
-18.000000 -28.000000 -2.220136E+01
-18.000000 -30.000000 -1.719749E+01
-18.000000 -32.000000 -2.322236E+00
-18.000000 -34.000000 1.127282E+01
-18.000000 -36.000000 6.118276E+00
-18.000000 -38.000000 -9.788320E+00
-18.000000 -40.000000 -3.434093E+01
-16.000000 40.000000 4.067367E+01
-16.000000 38.000000 1.638428E+01
-16.000000 36.000000 -7.949049E+00
-16.000000 34.000000 -3.620756E+01
-16.000000 32.000000 -5.028954E+01
-16.000000 30.000000 -4.514062E+01
-16.000000 28.000000 -2.677777E+01
-16.000000 26.000000 -1.083004E+01
-16.000000 24.000000 4.080765E+00
-16.000000 22.000000 1.298349E+01
-16.000000 20.000000 1.155572E+01
-16.000000 18.000000 1.958267E+01
-16.000000 16.000000 3.569870E+01
-16.000000 14.000000 4.230721E+01
-16.000000 12.000000 3.329205E+01
-16.000000 10.000000 2.006794E+01
-16.000000 8.000000 2.001154E+01
-16.000000 6.000000 2.298070E+01
-16.000000 4.000000 1.827849E+01
-16.000000 2.000000 5.942842E+00
-16.000000 0.000000 -2.860174E+00
-16.000000 -2.000000 -1.499756E+00
-16.000000 -4.000000 2.812979E+00
-16.000000 -6.000000 5.909955E+00
-16.000000 -8.000000 9.956562E+00
-16.000000 -10.000000 1.478680E+01
-16.000000 -12.000000 2.065593E+01
-16.000000 -14.000000 2.858881E+01
-16.000000 -16.000000 3.222300E+01
-16.000000 -18.000000 2.688388E+01
-16.000000 -20.000000 1.324611E+01
-16.000000 -22.000000 -2.288004E+00
-16.000000 -24.000000 -1.585971E+01
-16.000000 -26.000000 -2.579837E+01
-16.000000 -28.000000 -3.016900E+01
-16.000000 -30.000000 -2.365197E+01
-16.000000 -32.000000 -7.046652E+00
-16.000000 -34.000000 6.951449E+00
-16.000000 -36.000000 1.562807E+00
-16.000000 -38.000000 -1.584323E+01
-16.000000 -40.000000 -4.033410E+01
-14.000000 40.000000 3.031971E+01
-14.000000 38.000000 7.764940E+00
-14.000000 36.000000 -1.372226E+01
-14.000000 34.000000 -3.708658E+01
-14.000000 32.000000 -4.585139E+01
-14.000000 30.000000 -3.772470E+01
-14.000000 28.000000 -1.882483E+01
-14.000000 26.000000 -4.658979E+00
-14.000000 24.000000 6.597658E+00
-14.000000 22.000000 1.148804E+01
-14.000000 20.000000 7.999733E+00
-14.000000 18.000000 1.383137E+01
-14.000000 16.000000 2.882596E+01
-14.000000 14.000000 3.693332E+01
-14.000000 12.000000 3.274898E+01
-14.000000 10.000000 2.677371E+01
-14.000000 8.000000 3.115242E+01
-14.000000 6.000000 3.629066E+01
-14.000000 4.000000 2.850446E+01
-14.000000 2.000000 9.388965E+00
-14.000000 0.000000 -5.324251E+00
-14.000000 -2.000000 -9.241055E+00
-14.000000 -4.000000 -7.970772E+00
-14.000000 -6.000000 -5.397304E+00
-14.000000 -8.000000 -4.704123E-01
-14.000000 -10.000000 5.522090E+00
-14.000000 -12.000000 1.375409E+01
-14.000000 -14.000000 2.514913E+01
-14.000000 -16.000000 3.111162E+01
-14.000000 -18.000000 2.476596E+01
-14.000000 -20.000000 8.898273E+00
-14.000000 -22.000000 -7.996186E+00
-14.000000 -24.000000 -1.982544E+01
-14.000000 -26.000000 -2.563842E+01
-14.000000 -28.000000 -2.923393E+01
-14.000000 -30.000000 -2.443695E+01
-14.000000 -32.000000 -1.047680E+01
-14.000000 -34.000000 1.292024E+00
-14.000000 -36.000000 -5.682588E+00
-14.000000 -38.000000 -2.374684E+01
-14.000000 -40.000000 -4.728201E+01
-12.000000 40.000000 2.005314E+01
-12.000000 38.000000 -1.820588E+00
-12.000000 36.000000 -2.037792E+01
-12.000000 34.000000 -3.647941E+01
-12.000000 32.000000 -3.720178E+01
-12.000000 30.000000 -2.405010E+01
-12.000000 28.000000 -5.721151E+00
-12.000000 26.000000 3.856691E+00
-12.000000 24.000000 7.533672E+00
-12.000000 22.000000 3.117283E+00
-12.000000 20.000000 -4.208460E+00
-12.000000 18.000000 1.301374E+00
-12.000000 16.000000 1.971748E+01
-12.000000 14.000000 3.331924E+01
-12.000000 12.000000 3.677521E+01
-12.000000 10.000000 3.937016E+01
-12.000000 8.000000 4.764320E+01
-12.000000 6.000000 5.546415E+01
-12.000000 4.000000 4.549196E+01
-12.000000 2.000000 1.983446E+01
-12.000000 0.000000 -1.097466E+00
-12.000000 -2.000000 -9.719736E+00
-12.000000 -4.000000 -1.307123E+01
-12.000000 -6.000000 -1.425699E+01
-12.000000 -8.000000 -1.046324E+01
-12.000000 -10.000000 -6.306846E+00
-12.000000 -12.000000 1.590498E+00
-12.000000 -14.000000 1.413413E+01
-12.000000 -16.000000 2.249810E+01
-12.000000 -18.000000 1.796454E+01
-12.000000 -20.000000 3.259013E+00
-12.000000 -22.000000 -1.213991E+01
-12.000000 -24.000000 -2.138591E+01
-12.000000 -26.000000 -2.229962E+01
-12.000000 -28.000000 -2.444555E+01
-12.000000 -30.000000 -2.251485E+01
-12.000000 -32.000000 -1.351556E+01
-12.000000 -34.000000 -5.172225E+00
-12.000000 -36.000000 -1.360034E+01
-12.000000 -38.000000 -3.068915E+01
-12.000000 -40.000000 -5.300368E+01
-10.000000 40.000000 9.803385E+00
-10.000000 38.000000 -1.318320E+01
-10.000000 36.000000 -2.920249E+01
-10.000000 34.000000 -3.695405E+01
-10.000000 32.000000 -2.801117E+01
-10.000000 30.000000 -6.787344E+00
-10.000000 28.000000 1.222611E+01
-10.000000 26.000000 1.687232E+01
-10.000000 24.000000 1.228123E+01
-10.000000 22.000000 -3.518585E+00
-10.000000 20.000000 -1.425769E+01
-10.000000 18.000000 -5.513742E+00
-10.000000 16.000000 1.811175E+01
-10.000000 14.000000 3.728478E+01
-10.000000 12.000000 4.577887E+01
-10.000000 10.000000 4.993273E+01
-10.000000 8.000000 5.683025E+01
-10.000000 6.000000 6.495272E+01
-10.000000 4.000000 5.446329E+01
-10.000000 2.000000 2.635897E+01
-10.000000 0.000000 2.652092E+00
-10.000000 -2.000000 -6.833509E+00
-10.000000 -4.000000 -1.212796E+01
-10.000000 -6.000000 -1.647690E+01
-10.000000 -8.000000 -1.513204E+01
-10.000000 -10.000000 -1.479900E+01
-10.000000 -12.000000 -1.050451E+01
-10.000000 -14.000000 -1.838679E-01
-10.000000 -16.000000 8.911712E+00
-10.000000 -18.000000 7.781620E+00
-10.000000 -20.000000 -4.257448E+00
-10.000000 -22.000000 -1.768830E+01
-10.000000 -24.000000 -2.302996E+01
-10.000000 -26.000000 -1.940166E+01
-10.000000 -28.000000 -1.982727E+01
-10.000000 -30.000000 -1.930100E+01
-10.000000 -32.000000 -1.457338E+01
-10.000000 -34.000000 -9.692624E+00
-10.000000 -36.000000 -1.993737E+01
-10.000000 -38.000000 -3.666234E+01
-10.000000 -40.000000 -5.807967E+01
-8.000000 40.000000 -6.620836E-02
-8.000000 38.000000 -2.340988E+01
-8.000000 36.000000 -3.630783E+01
-8.000000 34.000000 -3.617666E+01
-8.000000 32.000000 -1.950645E+01
-8.000000 30.000000 7.495543E+00
-8.000000 28.000000 2.818620E+01
-8.000000 26.000000 3.040391E+01
-8.000000 24.000000 2.062100E+01
-8.000000 22.000000 -1.695959E+00
-8.000000 20.000000 -1.451222E+01
-8.000000 18.000000 -3.337940E+00
-8.000000 16.000000 2.418714E+01
-8.000000 14.000000 4.721653E+01
-8.000000 12.000000 5.649503E+01
-8.000000 10.000000 5.464207E+01
-8.000000 8.000000 5.351579E+01
-8.000000 6.000000 5.944437E+01
-8.000000 4.000000 5.131155E+01
-8.000000 2.000000 2.424429E+01
-8.000000 0.000000 2.095348E+00
-8.000000 -2.000000 -3.554642E+00
-8.000000 -4.000000 -6.673609E+00
-8.000000 -6.000000 -1.267227E+01
-8.000000 -8.000000 -1.615585E+01
-8.000000 -10.000000 -1.949621E+01
-8.000000 -12.000000 -1.691768E+01
-8.000000 -14.000000 -1.065293E+01
-8.000000 -16.000000 -3.353312E+00
-8.000000 -18.000000 -3.420891E+00
-8.000000 -20.000000 -1.437358E+01
-8.000000 -22.000000 -2.581003E+01
-8.000000 -24.000000 -2.635853E+01
-8.000000 -26.000000 -1.869041E+01
-8.000000 -28.000000 -1.676940E+01
-8.000000 -30.000000 -1.589699E+01
-8.000000 -32.000000 -1.323790E+01
-8.000000 -34.000000 -1.152766E+01
-8.000000 -36.000000 -2.395979E+01
-8.000000 -38.000000 -4.075182E+01
-8.000000 -40.000000 -6.180064E+01
-6.000000 40.000000 -9.058563E+00
-6.000000 38.000000 -2.964686E+01
-6.000000 36.000000 -3.860677E+01
-6.000000 34.000000 -3.277395E+01
-6.000000 32.000000 -1.125640E+01
-6.000000 30.000000 1.717448E+01
-6.000000 28.000000 3.806893E+01
-6.000000 26.000000 3.921554E+01
-6.000000 24.000000 2.804637E+01
-6.000000 22.000000 5.644419E+00
-6.000000 20.000000 -7.322706E+00
-6.000000 18.000000 2.652908E+00
-6.000000 16.000000 2.993550E+01
-6.000000 14.000000 5.287552E+01
-6.000000 12.000000 5.959565E+01
-6.000000 10.000000 5.184948E+01
-6.000000 8.000000 4.050279E+01
-6.000000 6.000000 4.723331E+01
-6.000000 4.000000 4.730342E+01
-6.000000 2.000000 2.071903E+01
-6.000000 0.000000 3.198719E-01
-6.000000 -2.000000 -8.380508E-01
-6.000000 -4.000000 -4.516411E-02
-6.000000 -6.000000 -6.810410E+00
-6.000000 -8.000000 -1.460757E+01
-6.000000 -10.000000 -2.097002E+01
-6.000000 -12.000000 -1.796359E+01
-6.000000 -14.000000 -1.381875E+01
-6.000000 -16.000000 -1.004557E+01
-6.000000 -18.000000 -1.349632E+01
-6.000000 -20.000000 -2.543745E+01
-6.000000 -22.000000 -3.512911E+01
-6.000000 -24.000000 -3.073596E+01
-6.000000 -26.000000 -1.872079E+01
-6.000000 -28.000000 -1.417633E+01
-6.000000 -30.000000 -1.226615E+01
-6.000000 -32.000000 -1.036123E+01
-6.000000 -34.000000 -1.143518E+01
-6.000000 -36.000000 -2.617649E+01
-6.000000 -38.000000 -4.260580E+01
-6.000000 -40.000000 -6.316113E+01
-4.000000 40.000000 -1.669573E+01
-4.000000 38.000000 -3.333333E+01
-4.000000 36.000000 -3.888803E+01
-4.000000 34.000000 -3.003389E+01
-4.000000 32.000000 -5.210450E+00
-4.000000 30.000000 2.344802E+01
-4.000000 28.000000 4.268449E+01
-4.000000 26.000000 4.234663E+01
-4.000000 24.000000 3.185329E+01
-4.000000 22.000000 1.129925E+01
-4.000000 20.000000 -1.144140E+00
-4.000000 18.000000 6.791307E+00
-4.000000 16.000000 3.064022E+01
-4.000000 14.000000 5.093138E+01
-4.000000 12.000000 5.586158E+01
-4.000000 10.000000 4.618857E+01
-4.000000 8.000000 3.014880E+01
-4.000000 6.000000 3.882800E+01
-4.000000 4.000000 4.398265E+01
-4.000000 2.000000 1.663439E+01
-4.000000 0.000000 -3.449360E+00
-4.000000 -2.000000 -3.138376E+00
-4.000000 -4.000000 1.494911E+00
-4.000000 -6.000000 -2.791737E+00
-4.000000 -8.000000 -1.049748E+01
-4.000000 -10.000000 -1.674096E+01
-4.000000 -12.000000 -1.372031E+01
-4.000000 -14.000000 -1.039594E+01
-4.000000 -16.000000 -1.078173E+01
-4.000000 -18.000000 -1.916989E+01
-4.000000 -20.000000 -3.287148E+01
-4.000000 -22.000000 -4.027040E+01
-4.000000 -24.000000 -3.137380E+01
-4.000000 -26.000000 -1.527439E+01
-4.000000 -28.000000 -8.835473E+00
-4.000000 -30.000000 -7.233769E+00
-4.000000 -32.000000 -7.349025E+00
-4.000000 -34.000000 -1.093935E+01
-4.000000 -36.000000 -2.804694E+01
-4.000000 -38.000000 -4.452252E+01
-4.000000 -40.000000 -6.358114E+01
-2.000000 40.000000 -1.976188E+01
-2.000000 38.000000 -3.448101E+01
-2.000000 36.000000 -4.001090E+01
-2.000000 34.000000 -3.203761E+01
-2.000000 32.000000 -6.642173E+00
-2.000000 30.000000 2.162159E+01
-2.000000 28.000000 3.972335E+01
-2.000000 26.000000 3.937499E+01
-2.000000 24.000000 3.067733E+01
-2.000000 22.000000 1.278206E+01
-2.000000 20.000000 4.520912E-01
-2.000000 18.000000 6.099405E+00
-2.000000 16.000000 2.719342E+01
-2.000000 14.000000 4.644755E+01
-2.000000 12.000000 5.185409E+01
-2.000000 10.000000 4.459557E+01
-2.000000 8.000000 3.752779E+01
-2.000000 6.000000 4.109509E+01
-2.000000 4.000000 3.455076E+01
-2.000000 2.000000 7.872709E+00
-2.000000 0.000000 -1.028350E+01
-2.000000 -2.000000 -9.168379E+00
-2.000000 -4.000000 -1.606239E+00
-2.000000 -6.000000 -1.552330E+00
-2.000000 -8.000000 -5.155090E+00
-2.000000 -10.000000 -7.317772E+00
-2.000000 -12.000000 -5.967615E+00
-2.000000 -14.000000 -3.719748E+00
-2.000000 -16.000000 -6.586124E+00
-2.000000 -18.000000 -1.726321E+01
-2.000000 -20.000000 -3.061775E+01
-2.000000 -22.000000 -3.540540E+01
-2.000000 -24.000000 -2.497253E+01
-2.000000 -26.000000 -9.042779E+00
-2.000000 -28.000000 -3.702066E+00
-2.000000 -30.000000 -5.269466E+00
-2.000000 -32.000000 -8.057271E+00
-2.000000 -34.000000 -1.165639E+01
-2.000000 -36.000000 -2.844911E+01
-2.000000 -38.000000 -4.486409E+01
-2.000000 -40.000000 -6.235192E+01
0.000000 40.000000 -1.683318E+01
0.000000 38.000000 -3.337946E+01
0.000000 36.000000 -4.326134E+01
0.000000 34.000000 -3.982110E+01
0.000000 32.000000 -1.610278E+01
0.000000 30.000000 1.212684E+01
0.000000 28.000000 3.161665E+01
0.000000 26.000000 3.378771E+01
0.000000 24.000000 2.666863E+01
0.000000 22.000000 9.411628E+00
0.000000 20.000000 -5.801107E+00
0.000000 18.000000 -3.557770E+00
0.000000 16.000000 1.935131E+01
0.000000 14.000000 4.288463E+01
0.000000 12.000000 5.464964E+01
0.000000 10.000000 5.591526E+01
0.000000 8.000000 5.638111E+01
0.000000 6.000000 5.195752E+01
0.000000 4.000000 2.915218E+01
0.000000 2.000000 -2.160948E+00
0.000000 0.000000 -2.041592E+01
0.000000 -2.000000 -1.750221E+01
0.000000 -4.000000 -6.857628E+00
0.000000 -6.000000 -2.899834E+00
0.000000 -8.000000 -3.060948E+00
0.000000 -10.000000 -1.819067E+00
0.000000 -12.000000 2.313480E-01
0.000000 -14.000000 3.674369E+00
0.000000 -16.000000 9.759917E-01
0.000000 -18.000000 -8.207986E+00
0.000000 -20.000000 -1.840710E+01
0.000000 -22.000000 -2.143033E+01
0.000000 -24.000000 -1.251885E+01
0.000000 -26.000000 -1.485471E+00
0.000000 -28.000000 -1.942410E+00
0.000000 -30.000000 -9.561498E+00
0.000000 -32.000000 -1.409288E+01
0.000000 -34.000000 -1.327849E+01
0.000000 -36.000000 -2.568377E+01
0.000000 -38.000000 -4.117092E+01
0.000000 -40.000000 -5.803448E+01
2.000000 40.000000 -1.279959E+01
2.000000 38.000000 -3.233284E+01
2.000000 36.000000 -4.691559E+01
2.000000 34.000000 -4.822260E+01
2.000000 32.000000 -2.636296E+01
2.000000 30.000000 2.918272E+00
2.000000 28.000000 2.492426E+01
2.000000 26.000000 2.933861E+01
2.000000 24.000000 2.244482E+01
2.000000 22.000000 2.845112E+00
2.000000 20.000000 -1.812568E+01
2.000000 18.000000 -1.772336E+01
2.000000 16.000000 1.039946E+01
2.000000 14.000000 4.093574E+01
2.000000 12.000000 6.202168E+01
2.000000 10.000000 7.432780E+01
2.000000 8.000000 7.741675E+01
2.000000 6.000000 6.535164E+01
2.000000 4.000000 2.890837E+01
2.000000 2.000000 -1.152552E+01
2.000000 0.000000 -3.167210E+01
2.000000 -2.000000 -2.627510E+01
2.000000 -4.000000 -1.303569E+01
2.000000 -6.000000 -6.956940E+00
2.000000 -8.000000 -6.220270E+00
2.000000 -10.000000 -4.652189E+00
2.000000 -12.000000 4.263268E-01
2.000000 -14.000000 6.547206E+00
2.000000 -16.000000 6.377454E+00
2.000000 -18.000000 1.141767E+00
2.000000 -20.000000 -5.338693E+00
2.000000 -22.000000 -6.255032E+00
2.000000 -24.000000 1.595109E+00
2.000000 -26.000000 7.405741E+00
2.000000 -28.000000 8.793402E-02
2.000000 -30.000000 -1.277635E+01
2.000000 -32.000000 -1.795275E+01
2.000000 -34.000000 -1.328075E+01
2.000000 -36.000000 -2.152643E+01
2.000000 -38.000000 -3.561665E+01
2.000000 -40.000000 -5.247946E+01
4.000000 40.000000 -1.066397E+01
4.000000 38.000000 -3.141910E+01
4.000000 36.000000 -4.804238E+01
4.000000 34.000000 -5.194788E+01
4.000000 32.000000 -3.199336E+01
4.000000 30.000000 -2.516507E+00
4.000000 28.000000 2.143390E+01
4.000000 26.000000 2.719177E+01
4.000000 24.000000 2.043365E+01
4.000000 22.000000 -2.170683E+00
4.000000 20.000000 -2.710008E+01
4.000000 18.000000 -2.615012E+01
4.000000 16.000000 4.511677E+00
4.000000 14.000000 3.956271E+01
4.000000 12.000000 6.721689E+01
4.000000 10.000000 8.745821E+01
4.000000 8.000000 9.273304E+01
4.000000 6.000000 7.654117E+01
4.000000 4.000000 3.031828E+01
4.000000 2.000000 -1.933365E+01
4.000000 0.000000 -4.276469E+01
4.000000 -2.000000 -3.441598E+01
4.000000 -4.000000 -1.752520E+01
4.000000 -6.000000 -1.017581E+01
4.000000 -8.000000 -1.104060E+01
4.000000 -10.000000 -1.195253E+01
4.000000 -12.000000 -4.798279E+00
4.000000 -14.000000 2.833856E+00
4.000000 -16.000000 5.551438E+00
4.000000 -18.000000 4.018041E+00
4.000000 -20.000000 3.802600E-01
4.000000 -22.000000 2.011788E+00
4.000000 -24.000000 1.085205E+01
4.000000 -26.000000 1.437263E+01
4.000000 -28.000000 3.340886E+00
4.000000 -30.000000 -1.068911E+01
4.000000 -32.000000 -1.474083E+01
4.000000 -34.000000 -9.382019E+00
4.000000 -36.000000 -1.624116E+01
4.000000 -38.000000 -2.966493E+01
4.000000 -40.000000 -4.688185E+01
6.000000 40.000000 -8.524848E+00
6.000000 38.000000 -2.901223E+01
6.000000 36.000000 -4.593901E+01
6.000000 34.000000 -5.059737E+01
6.000000 32.000000 -3.348650E+01
6.000000 30.000000 -5.129656E+00
6.000000 28.000000 1.998166E+01
6.000000 26.000000 2.770375E+01
6.000000 24.000000 2.320266E+01
6.000000 22.000000 6.155148E-01
6.000000 20.000000 -2.556130E+01
6.000000 18.000000 -2.578264E+01
6.000000 16.000000 1.870722E+00
6.000000 14.000000 3.516222E+01
6.000000 12.000000 6.407793E+01
6.000000 10.000000 8.963329E+01
6.000000 8.000000 9.938718E+01
6.000000 6.000000 8.427042E+01
6.000000 4.000000 3.336733E+01
6.000000 2.000000 -2.330752E+01
6.000000 0.000000 -5.133935E+01
6.000000 -2.000000 -4.125571E+01
6.000000 -4.000000 -1.943234E+01
6.000000 -6.000000 -9.934073E+00
6.000000 -8.000000 -1.316870E+01
6.000000 -10.000000 -1.897358E+01
6.000000 -12.000000 -1.315111E+01
6.000000 -14.000000 -5.487198E+00
6.000000 -16.000000 1.007223E-02
6.000000 -18.000000 2.539680E+00
6.000000 -20.000000 1.352779E+00
6.000000 -22.000000 3.660273E+00
6.000000 -24.000000 1.148581E+01
6.000000 -26.000000 1.445790E+01
6.000000 -28.000000 4.405408E+00
6.000000 -30.000000 -7.620280E+00
6.000000 -32.000000 -8.986492E+00
6.000000 -34.000000 -2.297472E+00
6.000000 -36.000000 -7.912972E+00
6.000000 -38.000000 -2.264122E+01
6.000000 -40.000000 -4.057872E+01
8.000000 40.000000 -6.565891E+00
8.000000 38.000000 -2.498739E+01
8.000000 36.000000 -4.002489E+01
8.000000 34.000000 -4.379528E+01
8.000000 32.000000 -3.008841E+01
8.000000 30.000000 -4.777098E+00
8.000000 28.000000 1.900631E+01
8.000000 26.000000 2.878822E+01
8.000000 24.000000 2.933798E+01
8.000000 22.000000 1.205679E+01
8.000000 20.000000 -1.148922E+01
8.000000 18.000000 -1.624510E+01
8.000000 16.000000 2.440025E+00
8.000000 14.000000 2.734260E+01
8.000000 12.000000 5.202346E+01
8.000000 10.000000 7.937738E+01
8.000000 8.000000 9.582434E+01
8.000000 6.000000 8.688439E+01
8.000000 4.000000 3.651065E+01
8.000000 2.000000 -2.568115E+01
8.000000 0.000000 -5.845856E+01
8.000000 -2.000000 -4.709903E+01
8.000000 -4.000000 -2.079152E+01
8.000000 -6.000000 -8.544009E+00
8.000000 -8.000000 -1.221920E+01
8.000000 -10.000000 -2.202226E+01
8.000000 -12.000000 -2.024492E+01
8.000000 -14.000000 -1.114858E+01
8.000000 -16.000000 -5.989804E-01
8.000000 -18.000000 6.364701E+00
8.000000 -20.000000 4.822726E+00
8.000000 -22.000000 2.839910E+00
8.000000 -24.000000 5.285001E+00
8.000000 -26.000000 7.416432E+00
8.000000 -28.000000 1.128648E+00
8.000000 -30.000000 -6.591784E+00
8.000000 -32.000000 -4.407511E+00
8.000000 -34.000000 4.306021E+00
8.000000 -36.000000 6.723630E-01
8.000000 -38.000000 -1.525082E+01
8.000000 -40.000000 -3.384718E+01
10.000000 40.000000 -6.380355E+00
10.000000 38.000000 -1.998289E+01
10.000000 36.000000 -2.924406E+01
10.000000 34.000000 -3.061615E+01
10.000000 32.000000 -1.926747E+01
10.000000 30.000000 -1.984882E-02
10.000000 28.000000 1.796195E+01
10.000000 26.000000 2.671662E+01
10.000000 24.000000 3.133851E+01
10.000000 22.000000 2.228084E+01
10.000000 20.000000 6.139373E+00
10.000000 18.000000 -1.925856E+00
10.000000 16.000000 5.125872E+00
10.000000 14.000000 1.791056E+01
10.000000 12.000000 3.443525E+01
10.000000 10.000000 5.974664E+01
10.000000 8.000000 8.347725E+01
10.000000 6.000000 8.343438E+01
10.000000 4.000000 3.892333E+01
10.000000 2.000000 -2.552101E+01
10.000000 0.000000 -6.207972E+01
10.000000 -2.000000 -4.940839E+01
10.000000 -4.000000 -1.951762E+01
10.000000 -6.000000 -4.117240E+00
10.000000 -8.000000 -6.790825E+00
10.000000 -10.000000 -2.031543E+01
10.000000 -12.000000 -2.229691E+01
10.000000 -14.000000 -8.619159E+00
10.000000 -16.000000 9.612244E+00
10.000000 -18.000000 2.033089E+01
10.000000 -20.000000 1.444383E+01
10.000000 -22.000000 2.334799E+00
10.000000 -24.000000 -4.212653E+00
10.000000 -26.000000 -3.365661E+00
10.000000 -28.000000 -5.412902E+00
10.000000 -30.000000 -7.728202E+00
10.000000 -32.000000 -2.323519E+00
10.000000 -34.000000 6.857454E+00
10.000000 -36.000000 4.182750E+00
10.000000 -38.000000 -9.393229E+00
10.000000 -40.000000 -2.728984E+01
12.000000 40.000000 -5.680919E+00
12.000000 38.000000 -1.437335E+01
12.000000 36.000000 -1.640033E+01
12.000000 34.000000 -1.441127E+01
12.000000 32.000000 -5.063661E+00
12.000000 30.000000 7.673906E+00
12.000000 28.000000 1.822958E+01
12.000000 26.000000 2.138047E+01
12.000000 24.000000 2.545434E+01
12.000000 22.000000 2.341777E+01
12.000000 20.000000 1.504404E+01
12.000000 18.000000 7.847775E+00
12.000000 16.000000 6.784677E+00
12.000000 14.000000 8.905456E+00
12.000000 12.000000 1.659984E+01
12.000000 10.000000 3.749731E+01
12.000000 8.000000 6.661091E+01
12.000000 6.000000 7.597609E+01
12.000000 4.000000 4.288672E+01
12.000000 2.000000 -1.670969E+01
12.000000 0.000000 -5.412343E+01
12.000000 -2.000000 -4.336627E+01
12.000000 -4.000000 -1.161288E+01
12.000000 -6.000000 6.963211E+00
12.000000 -8.000000 2.455369E+00
12.000000 -10.000000 -1.507944E+01
12.000000 -12.000000 -1.830968E+01
12.000000 -14.000000 3.631372E-01
12.000000 -16.000000 2.529990E+01
12.000000 -18.000000 3.738184E+01
12.000000 -20.000000 2.555224E+01
12.000000 -22.000000 2.240304E+00
12.000000 -24.000000 -1.338456E+01
12.000000 -26.000000 -1.462691E+01
12.000000 -28.000000 -1.336964E+01
12.000000 -30.000000 -1.092155E+01
12.000000 -32.000000 -3.185616E+00
12.000000 -34.000000 5.678947E+00
12.000000 -36.000000 3.722522E+00
12.000000 -38.000000 -6.202206E+00
12.000000 -40.000000 -2.238768E+01
14.000000 40.000000 -3.007419E+00
14.000000 38.000000 -9.121164E+00
14.000000 36.000000 -5.615677E+00
14.000000 34.000000 -5.036850E-01
14.000000 32.000000 6.554281E+00
14.000000 30.000000 1.498887E+01
14.000000 28.000000 2.005520E+01
14.000000 26.000000 1.702252E+01
14.000000 24.000000 1.702361E+01
14.000000 22.000000 1.815091E+01
14.000000 20.000000 1.319685E+01
14.000000 18.000000 7.130924E+00
14.000000 16.000000 4.071185E+00
14.000000 14.000000 2.756061E+00
14.000000 12.000000 6.606064E+00
14.000000 10.000000 2.500506E+01
14.000000 8.000000 5.769496E+01
14.000000 6.000000 7.433909E+01
14.000000 4.000000 5.163699E+01
14.000000 2.000000 -2.121183E+00
14.000000 0.000000 -3.955162E+01
14.000000 -2.000000 -3.363849E+01
14.000000 -4.000000 -2.740696E+00
14.000000 -6.000000 1.762431E+01
14.000000 -8.000000 1.162045E+01
14.000000 -10.000000 -7.264310E+00
14.000000 -12.000000 -1.283877E+01
14.000000 -14.000000 8.515909E+00
14.000000 -16.000000 3.852490E+01
14.000000 -18.000000 4.994556E+01
14.000000 -20.000000 3.181364E+01
14.000000 -22.000000 1.059361E+00
14.000000 -24.000000 -1.981665E+01
14.000000 -26.000000 -2.318941E+01
14.000000 -28.000000 -2.030860E+01
14.000000 -30.000000 -1.539668E+01
14.000000 -32.000000 -7.161760E+00
14.000000 -34.000000 1.769764E+00
14.000000 -36.000000 1.838449E+00
14.000000 -38.000000 -5.057113E+00
14.000000 -40.000000 -1.965893E+01
16.000000 40.000000 -1.560312E+00
16.000000 38.000000 -5.090927E+00
16.000000 36.000000 1.653441E+00
16.000000 34.000000 8.340704E+00
16.000000 32.000000 1.482086E+01
16.000000 30.000000 2.106316E+01
16.000000 28.000000 2.302594E+01
16.000000 26.000000 1.798430E+01
16.000000 24.000000 1.449085E+01
16.000000 22.000000 1.370781E+01
16.000000 20.000000 7.527598E+00
16.000000 18.000000 2.709177E+00
16.000000 16.000000 4.257945E+00
16.000000 14.000000 7.295821E+00
16.000000 12.000000 1.257074E+01
16.000000 10.000000 3.047602E+01
16.000000 8.000000 6.237845E+01
16.000000 6.000000 7.989230E+01
16.000000 4.000000 5.977151E+01
16.000000 2.000000 7.979662E+00
16.000000 0.000000 -3.068084E+01
16.000000 -2.000000 -3.080459E+01
16.000000 -4.000000 -3.248710E+00
16.000000 -6.000000 1.829789E+01
16.000000 -8.000000 1.409413E+01
16.000000 -10.000000 -3.387838E+00
16.000000 -12.000000 -1.070675E+01
16.000000 -14.000000 1.320864E+01
16.000000 -16.000000 4.735567E+01
16.000000 -18.000000 5.612996E+01
16.000000 -20.000000 3.122136E+01
16.000000 -22.000000 -2.969858E+00
16.000000 -24.000000 -2.526032E+01
16.000000 -26.000000 -2.901546E+01
16.000000 -28.000000 -2.506934E+01
16.000000 -30.000000 -2.082129E+01
16.000000 -32.000000 -1.474807E+01
16.000000 -34.000000 -5.689215E+00
16.000000 -36.000000 -2.172051E+00
16.000000 -38.000000 -4.091086E+00
16.000000 -40.000000 -1.590437E+01
18.000000 40.000000 -3.809352E+00
18.000000 38.000000 -4.638721E+00
18.000000 36.000000 3.923504E+00
18.000000 34.000000 1.168407E+01
18.000000 32.000000 2.054246E+01
18.000000 30.000000 2.702506E+01
18.000000 28.000000 2.837372E+01
18.000000 26.000000 2.452214E+01
18.000000 24.000000 1.949840E+01
18.000000 22.000000 1.430009E+01
18.000000 20.000000 7.367281E+00
18.000000 18.000000 8.434377E+00
18.000000 16.000000 1.892045E+01
18.000000 14.000000 2.954402E+01
18.000000 12.000000 3.663655E+01
18.000000 10.000000 4.975906E+01
18.000000 8.000000 7.300874E+01
18.000000 6.000000 8.443424E+01
18.000000 4.000000 6.157413E+01
18.000000 2.000000 9.673439E+00
18.000000 0.000000 -3.117722E+01
18.000000 -2.000000 -3.716923E+01
18.000000 -4.000000 -1.642467E+01
18.000000 -6.000000 2.164655E+00
18.000000 -8.000000 3.436041E-01
18.000000 -10.000000 -1.327149E+01
18.000000 -12.000000 -1.512637E+01
18.000000 -14.000000 1.384708E+01
18.000000 -16.000000 5.074547E+01
18.000000 -18.000000 5.556560E+01
18.000000 -20.000000 2.451588E+01
18.000000 -22.000000 -1.116958E+01
18.000000 -24.000000 -3.264506E+01
18.000000 -26.000000 -3.517195E+01
18.000000 -28.000000 -3.009390E+01
18.000000 -30.000000 -2.696982E+01
18.000000 -32.000000 -2.252484E+01
18.000000 -34.000000 -1.243088E+01
18.000000 -36.000000 -5.272770E+00
18.000000 -38.000000 -1.506194E+00
18.000000 -40.000000 -9.889309E+00
20.000000 40.000000 -8.878726E+00
20.000000 38.000000 -1.000150E+01
20.000000 36.000000 -7.723880E-01
20.000000 34.000000 9.926865E+00
20.000000 32.000000 2.317052E+01
20.000000 30.000000 3.264411E+01
20.000000 28.000000 3.650204E+01
20.000000 26.000000 3.568715E+01
20.000000 24.000000 3.237591E+01
20.000000 22.000000 2.432080E+01
20.000000 20.000000 1.640160E+01
20.000000 18.000000 2.178234E+01
20.000000 16.000000 3.897245E+01
20.000000 14.000000 5.574817E+01
20.000000 12.000000 6.429223E+01
20.000000 10.000000 7.229970E+01
20.000000 8.000000 8.543365E+01
20.000000 6.000000 8.885898E+01
20.000000 4.000000 6.100029E+01
20.000000 2.000000 7.541172E+00
20.000000 0.000000 -3.597510E+01
20.000000 -2.000000 -4.814095E+01
20.000000 -4.000000 -3.720386E+01
20.000000 -6.000000 -2.585163E+01
20.000000 -8.000000 -2.641977E+01
20.000000 -10.000000 -3.486326E+01
20.000000 -12.000000 -2.539702E+01
20.000000 -14.000000 9.275790E+00
20.000000 -16.000000 4.564810E+01
20.000000 -18.000000 4.669304E+01
20.000000 -20.000000 1.264577E+01
20.000000 -22.000000 -2.372241E+01
20.000000 -24.000000 -4.342344E+01
20.000000 -26.000000 -4.455040E+01
20.000000 -28.000000 -3.839853E+01
20.000000 -30.000000 -3.313798E+01
20.000000 -32.000000 -2.546612E+01
20.000000 -34.000000 -1.175450E+01
20.000000 -36.000000 -1.763558E+00
20.000000 -38.000000 3.787469E+00
20.000000 -40.000000 -3.681107E+00
22.000000 40.000000 -1.433942E+01
22.000000 38.000000 -1.948128E+01
22.000000 36.000000 -1.145453E+01
22.000000 34.000000 3.460009E+00
22.000000 32.000000 2.256727E+01
22.000000 30.000000 3.709226E+01
22.000000 28.000000 4.601461E+01
22.000000 26.000000 4.879241E+01
22.000000 24.000000 4.960034E+01
22.000000 22.000000 4.026639E+01
22.000000 20.000000 2.845511E+01
22.000000 18.000000 3.022222E+01
22.000000 16.000000 4.724730E+01
22.000000 14.000000 6.598684E+01
22.000000 12.000000 7.649987E+01
22.000000 10.000000 8.596382E+01
22.000000 8.000000 9.540615E+01
22.000000 6.000000 9.508576E+01
22.000000 4.000000 6.289906E+01
22.000000 2.000000 5.754607E+00
22.000000 0.000000 -4.159403E+01
22.000000 -2.000000 -5.870877E+01
22.000000 -4.000000 -5.647792E+01
22.000000 -6.000000 -5.231373E+01
22.000000 -8.000000 -5.081548E+01
22.000000 -10.000000 -5.278578E+01
22.000000 -12.000000 -3.430886E+01
22.000000 -14.000000 4.360459E+00
22.000000 -16.000000 3.692307E+01
22.000000 -18.000000 3.207068E+01
22.000000 -20.000000 -5.031360E+00
22.000000 -22.000000 -4.169091E+01
22.000000 -24.000000 -5.778516E+01
22.000000 -26.000000 -5.597142E+01
22.000000 -28.000000 -4.709791E+01
22.000000 -30.000000 -3.639765E+01
22.000000 -32.000000 -2.230265E+01
22.000000 -34.000000 -3.829836E+00
22.000000 -36.000000 8.170288E+00
22.000000 -38.000000 1.188091E+01
22.000000 -40.000000 2.012074E+00
24.000000 40.000000 -1.801395E+01
24.000000 38.000000 -2.935769E+01
24.000000 36.000000 -2.444562E+01
24.000000 34.000000 -6.136190E+00
24.000000 32.000000 1.939823E+01
24.000000 30.000000 3.973444E+01
24.000000 28.000000 5.333543E+01
24.000000 26.000000 5.792533E+01
24.000000 24.000000 6.154522E+01
24.000000 22.000000 5.093766E+01
24.000000 20.000000 3.470560E+01
24.000000 18.000000 2.875626E+01
24.000000 16.000000 4.044412E+01
24.000000 14.000000 5.669394E+01
24.000000 12.000000 6.796499E+01
24.000000 10.000000 8.127510E+01
24.000000 8.000000 9.493496E+01
24.000000 6.000000 9.729815E+01
24.000000 4.000000 6.316618E+01
24.000000 2.000000 1.389216E+00
24.000000 0.000000 -4.881766E+01
24.000000 -2.000000 -6.671950E+01
24.000000 -4.000000 -6.549390E+01
24.000000 -6.000000 -6.272410E+01
24.000000 -8.000000 -6.002061E+01
24.000000 -10.000000 -5.886485E+01
24.000000 -12.000000 -3.646801E+01
24.000000 -14.000000 3.895280E+00
24.000000 -16.000000 3.180512E+01
24.000000 -18.000000 1.923827E+01
24.000000 -20.000000 -2.278082E+01
24.000000 -22.000000 -6.034150E+01
24.000000 -24.000000 -7.181939E+01
24.000000 -26.000000 -6.417737E+01
24.000000 -28.000000 -5.019428E+01
24.000000 -30.000000 -3.263336E+01
24.000000 -32.000000 -1.255106E+01
24.000000 -34.000000 8.907091E+00
24.000000 -36.000000 2.031066E+01
24.000000 -38.000000 2.007131E+01
24.000000 -40.000000 5.549683E+00
26.000000 40.000000 -2.084265E+01
26.000000 38.000000 -3.739217E+01
26.000000 36.000000 -3.564964E+01
26.000000 34.000000 -1.577949E+01
26.000000 32.000000 1.413068E+01
26.000000 30.000000 3.844864E+01
26.000000 28.000000 5.433205E+01
26.000000 26.000000 5.867913E+01
26.000000 24.000000 6.251383E+01
26.000000 22.000000 5.178182E+01
26.000000 20.000000 3.346064E+01
26.000000 18.000000 2.172360E+01
26.000000 16.000000 2.743396E+01
26.000000 14.000000 3.906283E+01
26.000000 12.000000 4.858108E+01
26.000000 10.000000 6.218327E+01
26.000000 8.000000 8.134455E+01
26.000000 6.000000 8.752226E+01
26.000000 4.000000 5.268834E+01
26.000000 2.000000 -1.147924E+01
26.000000 0.000000 -6.053903E+01
26.000000 -2.000000 -7.319679E+01
26.000000 -4.000000 -6.412281E+01
26.000000 -6.000000 -5.624995E+01
26.000000 -8.000000 -5.402673E+01
26.000000 -10.000000 -5.380754E+01
26.000000 -12.000000 -3.201568E+01
26.000000 -14.000000 8.272624E+00
26.000000 -16.000000 3.236863E+01
26.000000 -18.000000 1.313235E+01
26.000000 -20.000000 -3.363489E+01
26.000000 -22.000000 -7.219506E+01
26.000000 -24.000000 -7.867501E+01
26.000000 -26.000000 -6.252754E+01
26.000000 -28.000000 -4.246660E+01
26.000000 -30.000000 -1.920920E+01
26.000000 -32.000000 5.113181E+00
26.000000 -34.000000 2.625877E+01
26.000000 -36.000000 3.101851E+01
26.000000 -38.000000 2.336269E+01
26.000000 -40.000000 2.744489E+00
28.000000 40.000000 -2.386778E+01
28.000000 38.000000 -4.341758E+01
28.000000 36.000000 -4.362003E+01
28.000000 34.000000 -2.398090E+01
28.000000 32.000000 7.122543E+00
28.000000 30.000000 3.187739E+01
28.000000 28.000000 4.708776E+01
28.000000 26.000000 4.956307E+01
28.000000 24.000000 5.159843E+01
28.000000 22.000000 4.145595E+01
28.000000 20.000000 2.581659E+01
28.000000 18.000000 1.525743E+01
28.000000 16.000000 1.996857E+01
28.000000 14.000000 2.953204E+01
28.000000 12.000000 3.618566E+01
28.000000 10.000000 4.586121E+01
28.000000 8.000000 6.385557E+01
28.000000 6.000000 6.700391E+01
28.000000 4.000000 3.130871E+01
28.000000 2.000000 -3.055586E+01
28.000000 0.000000 -7.493308E+01
28.000000 -2.000000 -7.865948E+01
28.000000 -4.000000 -5.922369E+01
28.000000 -6.000000 -4.507590E+01
28.000000 -8.000000 -4.266765E+01
28.000000 -10.000000 -4.344393E+01
28.000000 -12.000000 -2.316137E+01
28.000000 -14.000000 1.486537E+01
28.000000 -16.000000 3.462262E+01
28.000000 -18.000000 1.267681E+01
28.000000 -20.000000 -3.445352E+01
28.000000 -22.000000 -7.131481E+01
28.000000 -24.000000 -7.326699E+01
28.000000 -26.000000 -5.094359E+01
28.000000 -28.000000 -2.733030E+01
28.000000 -30.000000 -1.094689E+00
28.000000 -32.000000 2.564329E+01
28.000000 -34.000000 4.417671E+01
28.000000 -36.000000 3.813640E+01
28.000000 -38.000000 2.067125E+01
28.000000 -40.000000 -6.246786E+00
30.000000 40.000000 -2.595942E+01
30.000000 38.000000 -4.762079E+01
30.000000 36.000000 -4.977471E+01
30.000000 34.000000 -3.269351E+01
30.000000 32.000000 -2.716915E+00
30.000000 30.000000 2.071544E+01
30.000000 28.000000 3.282867E+01
30.000000 26.000000 3.230950E+01
30.000000 24.000000 3.169604E+01
30.000000 22.000000 2.232174E+01
30.000000 20.000000 1.091454E+01
30.000000 18.000000 7.529243E+00
30.000000 16.000000 1.955472E+01
30.000000 14.000000 3.471034E+01
30.000000 12.000000 4.233972E+01
30.000000 10.000000 4.790265E+01
30.000000 8.000000 5.722808E+01
30.000000 6.000000 4.912673E+01
30.000000 4.000000 8.150014E+00
30.000000 2.000000 -4.937626E+01
30.000000 0.000000 -8.652732E+01
30.000000 -2.000000 -8.134524E+01
30.000000 -4.000000 -5.408423E+01
30.000000 -6.000000 -3.556147E+01
30.000000 -8.000000 -3.347902E+01
30.000000 -10.000000 -3.346257E+01
30.000000 -12.000000 -1.421317E+01
30.000000 -14.000000 1.748255E+01
30.000000 -16.000000 3.302729E+01
30.000000 -18.000000 1.443273E+01
30.000000 -20.000000 -2.598249E+01
30.000000 -22.000000 -5.645286E+01
30.000000 -24.000000 -5.574816E+01
30.000000 -26.000000 -3.530775E+01
30.000000 -28.000000 -1.402997E+01
30.000000 -30.000000 1.166199E+01
30.000000 -32.000000 3.832055E+01
30.000000 -34.000000 5.433534E+01
30.000000 -36.000000 4.035330E+01
30.000000 -38.000000 1.499664E+01
30.000000 -40.000000 -1.714302E+01
32.000000 40.000000 -2.735697E+01
32.000000 38.000000 -5.055966E+01
32.000000 36.000000 -5.466197E+01
32.000000 34.000000 -4.091965E+01
32.000000 32.000000 -1.330280E+01
32.000000 30.000000 7.532501E+00
32.000000 28.000000 1.485266E+01
32.000000 26.000000 1.034990E+01
32.000000 24.000000 5.417863E+00
32.000000 22.000000 -2.970334E+00
32.000000 20.000000 -1.151627E+01
32.000000 18.000000 -6.701622E+00
32.000000 16.000000 1.812788E+01
32.000000 14.000000 4.548524E+01
32.000000 12.000000 6.166104E+01
32.000000 10.000000 6.909409E+01
32.000000 8.000000 6.779203E+01
32.000000 6.000000 4.764305E+01
32.000000 4.000000 -1.863648E+00
32.000000 2.000000 -5.786062E+01
32.000000 0.000000 -8.760192E+01
32.000000 -2.000000 -7.461943E+01
32.000000 -4.000000 -4.411900E+01
32.000000 -6.000000 -2.464698E+01
32.000000 -8.000000 -2.426441E+01
32.000000 -10.000000 -2.717169E+01
32.000000 -12.000000 -1.535346E+01
32.000000 -14.000000 8.368007E+00
32.000000 -16.000000 2.364809E+01
32.000000 -18.000000 1.423134E+01
32.000000 -20.000000 -1.452251E+01
32.000000 -22.000000 -3.643933E+01
32.000000 -24.000000 -3.455479E+01
32.000000 -26.000000 -2.097583E+01
32.000000 -28.000000 -7.042844E+00
32.000000 -30.000000 1.389943E+01
32.000000 -32.000000 3.801843E+01
32.000000 -34.000000 5.319311E+01
32.000000 -36.000000 3.695496E+01
32.000000 -38.000000 8.096037E+00
32.000000 -40.000000 -2.732275E+01
34.000000 40.000000 -3.015695E+01
34.000000 38.000000 -5.360260E+01
34.000000 36.000000 -5.802175E+01
34.000000 34.000000 -4.579933E+01
34.000000 32.000000 -1.928487E+01
34.000000 30.000000 -2.298390E+00
34.000000 28.000000 -1.165583E+00
34.000000 26.000000 -1.089900E+01
34.000000 24.000000 -2.393013E+01
34.000000 22.000000 -3.404114E+01
34.000000 20.000000 -4.141146E+01
34.000000 18.000000 -2.907917E+01
34.000000 16.000000 8.798738E+00
34.000000 14.000000 4.932858E+01
34.000000 12.000000 7.647315E+01
34.000000 10.000000 9.087254E+01
34.000000 8.000000 8.698758E+01
34.000000 6.000000 6.371751E+01
34.000000 4.000000 1.152923E+01
34.000000 2.000000 -4.359675E+01
34.000000 0.000000 -6.925514E+01
34.000000 -2.000000 -5.418619E+01
34.000000 -4.000000 -2.514378E+01
34.000000 -6.000000 -9.355815E+00
34.000000 -8.000000 -1.541193E+01
34.000000 -10.000000 -2.781486E+01
34.000000 -12.000000 -2.692931E+01
34.000000 -14.000000 -1.099352E+01
34.000000 -16.000000 6.887175E+00
34.000000 -18.000000 9.152317E+00
34.000000 -20.000000 -7.149781E+00
34.000000 -22.000000 -2.168667E+01
34.000000 -24.000000 -1.992783E+01
34.000000 -26.000000 -1.270719E+01
34.000000 -28.000000 -7.687090E+00
34.000000 -30.000000 5.700705E+00
34.000000 -32.000000 2.644768E+01
34.000000 -34.000000 4.253450E+01
34.000000 -36.000000 2.807137E+01
34.000000 -38.000000 3.599329E-01
34.000000 -40.000000 -3.540841E+01
36.000000 40.000000 -3.410705E+01
36.000000 38.000000 -5.826495E+01
36.000000 36.000000 -6.255032E+01
36.000000 34.000000 -4.944016E+01
36.000000 32.000000 -2.112555E+01
36.000000 30.000000 -5.471703E+00
36.000000 28.000000 -8.707877E+00
36.000000 26.000000 -2.512654E+01
36.000000 24.000000 -4.772333E+01
36.000000 22.000000 -6.224311E+01
36.000000 20.000000 -7.178790E+01
36.000000 18.000000 -5.562803E+01
36.000000 16.000000 -8.620271E+00
36.000000 14.000000 4.143661E+01
36.000000 12.000000 7.570835E+01
36.000000 10.000000 9.728695E+01
36.000000 8.000000 1.000451E+02
36.000000 6.000000 8.361493E+01
36.000000 4.000000 3.866360E+01
36.000000 2.000000 -1.096316E+01
36.000000 0.000000 -3.444146E+01
36.000000 -2.000000 -2.514874E+01
36.000000 -4.000000 -1.807708E+00
36.000000 -6.000000 7.822127E+00
36.000000 -8.000000 -7.450069E+00
36.000000 -10.000000 -3.093068E+01
36.000000 -12.000000 -4.074013E+01
36.000000 -14.000000 -3.190656E+01
36.000000 -16.000000 -1.227662E+01
36.000000 -18.000000 -1.017715E+00
36.000000 -20.000000 -8.005952E+00
36.000000 -22.000000 -1.783010E+01
36.000000 -24.000000 -1.807894E+01
36.000000 -26.000000 -1.565924E+01
36.000000 -28.000000 -1.525683E+01
36.000000 -30.000000 -6.490759E+00
36.000000 -32.000000 1.127775E+01
36.000000 -34.000000 2.797547E+01
36.000000 -36.000000 1.660236E+01
36.000000 -38.000000 -7.724632E+00
36.000000 -40.000000 -4.128050E+01
38.000000 40.000000 -3.822244E+01
38.000000 38.000000 -6.413936E+01
38.000000 36.000000 -6.952715E+01
38.000000 34.000000 -5.468117E+01
38.000000 32.000000 -2.280214E+01
38.000000 30.000000 -4.749068E+00
38.000000 28.000000 -8.157007E+00
38.000000 26.000000 -2.816429E+01
38.000000 24.000000 -5.593462E+01
38.000000 22.000000 -7.508663E+01
38.000000 20.000000 -9.001606E+01
38.000000 18.000000 -7.666208E+01
38.000000 16.000000 -2.935720E+01
38.000000 14.000000 2.325240E+01
38.000000 12.000000 6.053523E+01
38.000000 10.000000 8.705859E+01
38.000000 8.000000 9.803241E+01
38.000000 6.000000 9.268280E+01
38.000000 4.000000 5.981228E+01
38.000000 2.000000 1.900703E+01
38.000000 0.000000 -2.058931E+00
38.000000 -2.000000 7.750748E-01
38.000000 -4.000000 1.572072E+01
38.000000 -6.000000 1.854851E+01
38.000000 -8.000000 -1.704537E+00
38.000000 -10.000000 -3.126068E+01
38.000000 -12.000000 -4.780199E+01
38.000000 -14.000000 -4.426641E+01
38.000000 -16.000000 -2.641474E+01
38.000000 -18.000000 -1.219281E+01
38.000000 -20.000000 -1.483964E+01
38.000000 -22.000000 -2.325681E+01
38.000000 -24.000000 -2.665305E+01
38.000000 -26.000000 -2.659730E+01
38.000000 -28.000000 -2.453222E+01
38.000000 -30.000000 -1.577198E+01
38.000000 -32.000000 -2.507310E-01
38.000000 -34.000000 1.526936E+01
38.000000 -36.000000 6.132052E+00
38.000000 -38.000000 -1.557744E+01
38.000000 -40.000000 -4.620302E+01
40.000000 40.000000 -4.304938E+01
40.000000 38.000000 -7.018145E+01
40.000000 36.000000 -7.739413E+01
40.000000 34.000000 -6.165172E+01
40.000000 32.000000 -2.623786E+01
40.000000 30.000000 -3.852249E+00
40.000000 28.000000 -2.933537E+00
40.000000 26.000000 -1.941246E+01
40.000000 24.000000 -4.419893E+01
40.000000 22.000000 -6.678300E+01
40.000000 20.000000 -8.678281E+01
40.000000 18.000000 -8.266226E+01
40.000000 16.000000 -4.636503E+01
40.000000 14.000000 -6.014349E-01
40.000000 12.000000 3.379261E+01
40.000000 10.000000 5.914628E+01
40.000000 8.000000 7.410301E+01
40.000000 6.000000 7.800985E+01
40.000000 4.000000 5.895211E+01
40.000000 2.000000 3.001714E+01
40.000000 0.000000 1.372600E+01
40.000000 -2.000000 1.470980E+01
40.000000 -4.000000 2.341165E+01
40.000000 -6.000000 2.164744E+01
40.000000 -8.000000 2.588895E+00
40.000000 -10.000000 -2.556846E+01
40.000000 -12.000000 -4.214342E+01
40.000000 -14.000000 -4.331520E+01
40.000000 -16.000000 -3.177070E+01
40.000000 -18.000000 -2.115611E+01
40.000000 -20.000000 -2.413340E+01
40.000000 -22.000000 -3.219104E+01
40.000000 -24.000000 -3.574807E+01
40.000000 -26.000000 -3.324172E+01
40.000000 -28.000000 -2.843135E+01
40.000000 -30.000000 -1.961886E+01
40.000000 -32.000000 -6.213466E+00
40.000000 -34.000000 7.411876E+00
40.000000 -36.000000 -1.594367E+00
40.000000 -38.000000 -2.287012E+01
40.000000 -40.000000 -5.142967E+01
42.000000 40.000000 -4.693054E+01
42.000000 38.000000 -7.593012E+01
42.000000 36.000000 -8.585551E+01
42.000000 34.000000 -7.103897E+01
42.000000 32.000000 -3.254640E+01
42.000000 30.000000 -3.415138E+00
42.000000 28.000000 6.056955E+00
42.000000 26.000000 -2.618042E+00
42.000000 24.000000 -1.916314E+01
42.000000 22.000000 -4.193852E+01
42.000000 20.000000 -6.546675E+01
42.000000 18.000000 -7.378712E+01
42.000000 16.000000 -5.469748E+01
42.000000 14.000000 -2.320690E+01
42.000000 12.000000 -1.052530E-01
42.000000 10.000000 1.613034E+01
42.000000 8.000000 3.205672E+01
42.000000 6.000000 4.138615E+01
42.000000 4.000000 3.508989E+01
42.000000 2.000000 1.887002E+01
42.000000 0.000000 1.061073E+01
42.000000 -2.000000 1.456698E+01
42.000000 -4.000000 2.266932E+01
42.000000 -6.000000 2.171580E+01
42.000000 -8.000000 9.665008E+00
42.000000 -10.000000 -9.906711E+00
42.000000 -12.000000 -2.440052E+01
42.000000 -14.000000 -3.089835E+01
42.000000 -16.000000 -2.907892E+01
42.000000 -18.000000 -2.776713E+01
42.000000 -20.000000 -3.455249E+01
42.000000 -22.000000 -4.125360E+01
42.000000 -24.000000 -4.051803E+01
42.000000 -26.000000 -3.212823E+01
42.000000 -28.000000 -2.507390E+01
42.000000 -30.000000 -1.727855E+01
42.000000 -32.000000 -6.560178E+00
42.000000 -34.000000 4.617834E+00
42.000000 -36.000000 -5.852980E+00
42.000000 -38.000000 -2.798158E+01
42.000000 -40.000000 -5.594035E+01
44.000000 40.000000 -4.660328E+01
44.000000 38.000000 -7.917461E+01
44.000000 36.000000 -9.380506E+01
44.000000 34.000000 -8.282862E+01
44.000000 32.000000 -4.286945E+01
44.000000 30.000000 -5.419318E+00
44.000000 28.000000 1.504617E+01
44.000000 26.000000 1.519955E+01
44.000000 24.000000 7.348943E+00
44.000000 22.000000 -1.378339E+01
44.000000 20.000000 -4.016059E+01
44.000000 18.000000 -5.869157E+01
44.000000 16.000000 -5.511986E+01
44.000000 14.000000 -3.809738E+01
44.000000 12.000000 -2.650224E+01
44.000000 10.000000 -2.014099E+01
44.000000 8.000000 -6.521548E+00
44.000000 6.000000 2.547026E+00
44.000000 4.000000 2.257998E+00
44.000000 2.000000 -5.848936E+00
44.000000 0.000000 -7.603852E+00
44.000000 -2.000000 1.762691E+00
44.000000 -4.000000 1.490378E+01
44.000000 -6.000000 2.232849E+01
44.000000 -8.000000 2.098558E+01
44.000000 -10.000000 1.141988E+01
44.000000 -12.000000 -4.038979E+00
44.000000 -14.000000 -1.607589E+01
44.000000 -16.000000 -2.453596E+01
44.000000 -18.000000 -3.398715E+01
44.000000 -20.000000 -4.509210E+01
44.000000 -22.000000 -4.889977E+01
44.000000 -24.000000 -4.149538E+01
44.000000 -26.000000 -2.815444E+01
44.000000 -28.000000 -1.860084E+01
44.000000 -30.000000 -1.050037E+01
44.000000 -32.000000 -1.786968E+00
44.000000 -34.000000 6.697854E+00
44.000000 -36.000000 -5.852298E+00
44.000000 -38.000000 -2.894942E+01
44.000000 -40.000000 -5.803575E+01
46.000000 40.000000 -4.149816E+01
46.000000 38.000000 -7.742369E+01
46.000000 36.000000 -9.739579E+01
46.000000 34.000000 -9.337801E+01
46.000000 32.000000 -5.577561E+01
46.000000 30.000000 -1.169083E+01
46.000000 28.000000 2.082006E+01
46.000000 26.000000 3.025364E+01
46.000000 24.000000 2.947053E+01
46.000000 22.000000 8.443854E+00
46.000000 20.000000 -2.170595E+01
46.000000 18.000000 -4.743365E+01
46.000000 16.000000 -5.324764E+01
46.000000 14.000000 -4.596239E+01
46.000000 12.000000 -3.849880E+01
46.000000 10.000000 -3.436315E+01
46.000000 8.000000 -2.413792E+01
46.000000 6.000000 -1.890461E+01
46.000000 4.000000 -2.080171E+01
46.000000 2.000000 -2.844630E+01
46.000000 0.000000 -2.931443E+01
46.000000 -2.000000 -1.535597E+01
46.000000 -4.000000 4.317472E+00
46.000000 -6.000000 2.148916E+01
46.000000 -8.000000 2.875647E+01
46.000000 -10.000000 2.515279E+01
46.000000 -12.000000 7.913523E+00
46.000000 -14.000000 -8.216510E+00
46.000000 -16.000000 -2.376127E+01
46.000000 -18.000000 -3.820610E+01
46.000000 -20.000000 -4.998628E+01
46.000000 -22.000000 -5.169544E+01
46.000000 -24.000000 -4.086333E+01
46.000000 -26.000000 -2.534450E+01
46.000000 -28.000000 -1.386180E+01
46.000000 -30.000000 -4.241240E+00
46.000000 -32.000000 4.850061E+00
46.000000 -34.000000 1.206792E+01
46.000000 -36.000000 -2.021740E+00
46.000000 -38.000000 -2.633541E+01
46.000000 -40.000000 -5.735983E+01
48.000000 40.000000 -3.330299E+01
48.000000 38.000000 -6.968475E+01
48.000000 36.000000 -9.284535E+01
48.000000 34.000000 -9.678275E+01
48.000000 32.000000 -6.583532E+01
48.000000 30.000000 -2.008802E+01
48.000000 28.000000 2.209202E+01
48.000000 26.000000 4.039163E+01
48.000000 24.000000 4.499821E+01
48.000000 22.000000 2.345919E+01
48.000000 20.000000 -1.100440E+01
48.000000 18.000000 -4.226343E+01
48.000000 16.000000 -5.186516E+01
48.000000 14.000000 -4.774742E+01
48.000000 12.000000 -3.936310E+01
48.000000 10.000000 -3.144074E+01
48.000000 8.000000 -2.019843E+01
48.000000 6.000000 -1.560669E+01
48.000000 4.000000 -2.336764E+01
48.000000 2.000000 -3.780266E+01
48.000000 0.000000 -4.239530E+01
48.000000 -2.000000 -2.804561E+01
48.000000 -4.000000 -6.074391E+00
48.000000 -6.000000 1.371459E+01
48.000000 -8.000000 2.360782E+01
48.000000 -10.000000 2.224247E+01
48.000000 -12.000000 6.309031E+00
48.000000 -14.000000 -9.709141E+00
48.000000 -16.000000 -2.438647E+01
48.000000 -18.000000 -3.667643E+01
48.000000 -20.000000 -4.600818E+01
48.000000 -22.000000 -4.810598E+01
48.000000 -24.000000 -3.977030E+01
48.000000 -26.000000 -2.567885E+01
48.000000 -28.000000 -1.382474E+01
48.000000 -30.000000 -2.388861E+00
48.000000 -32.000000 9.420138E+00
48.000000 -34.000000 1.772235E+01
48.000000 -36.000000 3.682295E+00
48.000000 -38.000000 -2.202895E+01
48.000000 -40.000000 -5.525155E+01
50.000000 40.000000 -2.434875E+01
50.000000 38.000000 -5.685955E+01
50.000000 36.000000 -7.987571E+01
50.000000 34.000000 -8.949813E+01
50.000000 32.000000 -6.740704E+01
50.000000 30.000000 -2.723791E+01
50.000000 28.000000 1.806408E+01
50.000000 26.000000 4.312513E+01
50.000000 24.000000 5.240391E+01
50.000000 22.000000 3.239230E+01
50.000000 20.000000 -3.543060E+00
50.000000 18.000000 -3.452653E+01
50.000000 16.000000 -4.229291E+01
50.000000 14.000000 -3.852760E+01
50.000000 12.000000 -3.071529E+01
50.000000 10.000000 -2.041304E+01
50.000000 8.000000 -6.838715E+00
50.000000 6.000000 1.726950E-01
50.000000 4.000000 -1.215179E+01
50.000000 2.000000 -3.542507E+01
50.000000 0.000000 -4.491385E+01
50.000000 -2.000000 -3.296029E+01
50.000000 -4.000000 -1.381781E+01
50.000000 -6.000000 8.443267E-01
50.000000 -8.000000 7.483236E+00
50.000000 -10.000000 5.447183E+00
50.000000 -12.000000 -5.600527E+00
50.000000 -14.000000 -1.692560E+01
50.000000 -16.000000 -2.484243E+01
50.000000 -18.000000 -3.045245E+01
50.000000 -20.000000 -3.612831E+01
50.000000 -22.000000 -4.029269E+01
50.000000 -24.000000 -3.844377E+01
50.000000 -26.000000 -3.000731E+01
50.000000 -28.000000 -1.932173E+01
50.000000 -30.000000 -5.754781E+00
50.000000 -32.000000 9.382720E+00
50.000000 -34.000000 2.078378E+01
50.000000 -36.000000 8.877861E+00
50.000000 -38.000000 -1.813905E+01
50.000000 -40.000000 -5.341635E+01
52.000000 40.000000 -1.475128E+01
52.000000 38.000000 -4.167946E+01
52.000000 36.000000 -6.269368E+01
