-28.000000 -16.000000 5.602440E+01
-28.000000 -18.000000 6.500950E+01
-28.000000 -20.000000 6.936594E+01
-28.000000 -22.000000 6.445406E+01
-28.000000 -24.000000 5.119844E+01
-28.000000 -26.000000 3.689113E+01
-28.000000 -28.000000 2.641326E+01
-28.000000 -30.000000 2.165578E+01
-28.000000 -32.000000 2.462456E+01
-28.000000 -34.000000 3.148886E+01
-28.000000 -36.000000 3.651525E+01
-28.000000 -38.000000 3.634453E+01
-28.000000 -40.000000 3.271102E+01
-26.000000 40.000000 7.576252E+00
-26.000000 38.000000 -3.179996E+00
-26.000000 36.000000 -1.582148E+01
-26.000000 34.000000 -3.220547E+01
-26.000000 32.000000 -4.106264E+01
-26.000000 30.000000 -3.654903E+01
-26.000000 28.000000 -2.753771E+01
-26.000000 26.000000 -2.557778E+01
-26.000000 24.000000 -2.513263E+01
-26.000000 22.000000 -2.526760E+01
-26.000000 20.000000 -3.333645E+01
-26.000000 18.000000 -4.329669E+01
-26.000000 16.000000 -4.196883E+01
-26.000000 14.000000 -2.899774E+01
-26.000000 12.000000 -1.144051E+01
-26.000000 10.000000 1.459969E+00
-26.000000 8.000000 3.422993E+00
-26.000000 6.000000 -1.388718E+00
-26.000000 4.000000 -7.988602E+00
-26.000000 2.000000 -8.471455E+00
-26.000000 0.000000 -4.338477E+00
-26.000000 -2.000000 5.405523E+00
-26.000000 -4.000000 1.858309E+01
-26.000000 -6.000000 3.253330E+01
-26.000000 -8.000000 3.692088E+01
-26.000000 -10.000000 2.992967E+01
-26.000000 -12.000000 2.561543E+01
-26.000000 -14.000000 3.291646E+01
-26.000000 -16.000000 4.597484E+01
-26.000000 -18.000000 5.725859E+01
-26.000000 -20.000000 6.243184E+01
-26.000000 -22.000000 5.955777E+01
-26.000000 -24.000000 4.854072E+01
-26.000000 -26.000000 3.966063E+01
-26.000000 -28.000000 3.422892E+01
-26.000000 -30.000000 3.150796E+01
-26.000000 -32.000000 3.345853E+01
-26.000000 -34.000000 3.730744E+01
-26.000000 -36.000000 3.818752E+01
-26.000000 -38.000000 3.524167E+01
-26.000000 -40.000000 2.913429E+01
-24.000000 40.000000 9.755367E+00
-24.000000 38.000000 -2.055588E-01
-24.000000 36.000000 -1.548179E+01
-24.000000 34.000000 -3.265223E+01
-24.000000 32.000000 -4.245109E+01
-24.000000 30.000000 -3.917675E+01
-24.000000 28.000000 -3.104285E+01
-24.000000 26.000000 -2.677979E+01
-24.000000 24.000000 -2.171021E+01
-24.000000 22.000000 -1.652468E+01
-24.000000 20.000000 -1.694395E+01
-24.000000 18.000000 -2.590962E+01
-24.000000 16.000000 -3.410689E+01
-24.000000 14.000000 -3.271817E+01
-24.000000 12.000000 -2.533756E+01
-24.000000 10.000000 -1.849191E+01
-24.000000 8.000000 -1.635188E+01
-24.000000 6.000000 -1.918501E+01
-24.000000 4.000000 -2.236882E+01
-24.000000 2.000000 -2.241930E+01
-24.000000 0.000000 -2.201888E+01
-24.000000 -2.000000 -1.706502E+01
-24.000000 -4.000000 -8.004468E+00
-24.000000 -6.000000 4.330078E+00
-24.000000 -8.000000 1.161108E+01
-24.000000 -10.000000 8.611949E+00
-24.000000 -12.000000 9.404825E+00
-24.000000 -14.000000 1.955225E+01
-24.000000 -16.000000 3.439803E+01
-24.000000 -18.000000 4.703861E+01
-24.000000 -20.000000 5.382776E+01
-24.000000 -22.000000 5.438189E+01
-24.000000 -24.000000 5.038859E+01
-24.000000 -26.000000 4.754990E+01
-24.000000 -28.000000 4.602283E+01
-24.000000 -30.000000 4.488353E+01
-24.000000 -32.000000 4.502378E+01
-24.000000 -34.000000 4.460620E+01
-24.000000 -36.000000 3.961989E+01
-24.000000 -38.000000 3.416178E+01
-24.000000 -40.000000 2.613704E+01
-22.000000 40.000000 1.115251E+01
-22.000000 38.000000 2.286221E+00
-22.000000 36.000000 -1.335892E+01
-22.000000 34.000000 -3.072407E+01
-22.000000 32.000000 -4.232328E+01
-22.000000 30.000000 -4.154426E+01
-22.000000 28.000000 -3.563165E+01
-22.000000 26.000000 -3.090484E+01
-22.000000 24.000000 -2.306145E+01
-22.000000 22.000000 -1.189927E+01
-22.000000 20.000000 -3.532410E+00
-22.000000 18.000000 -1.102292E+01
-22.000000 16.000000 -2.892800E+01
-22.000000 14.000000 -3.893844E+01
-22.000000 12.000000 -4.092362E+01
-22.000000 10.000000 -3.881227E+01
-22.000000 8.000000 -3.496781E+01
-22.000000 6.000000 -3.523619E+01
-22.000000 4.000000 -3.478152E+01
-22.000000 2.000000 -3.479979E+01
-22.000000 0.000000 -3.835195E+01
-22.000000 -2.000000 -3.789090E+01
-22.000000 -4.000000 -3.091330E+01
-22.000000 -6.000000 -1.728350E+01
-22.000000 -8.000000 -4.679469E+00
-22.000000 -10.000000 -3.479185E-01
-22.000000 -12.000000 4.171883E+00
-22.000000 -14.000000 1.355180E+01
-22.000000 -16.000000 2.674943E+01
-22.000000 -18.000000 3.899989E+01
-22.000000 -20.000000 4.734198E+01
-22.000000 -22.000000 5.070559E+01
-22.000000 -24.000000 5.150300E+01
-22.000000 -26.000000 5.324909E+01
-22.000000 -28.000000 5.393699E+01
-22.000000 -30.000000 5.264111E+01
-22.000000 -32.000000 5.040399E+01
-22.000000 -34.000000 4.767606E+01
-22.000000 -36.000000 4.069004E+01
-22.000000 -38.000000 3.285432E+01
-22.000000 -40.000000 2.392689E+01
-20.000000 40.000000 1.193849E+01
-20.000000 38.000000 3.544945E+00
-20.000000 36.000000 -1.075566E+01
-20.000000 34.000000 -2.738630E+01
-20.000000 32.000000 -4.010828E+01
-20.000000 30.000000 -4.198855E+01
-20.000000 28.000000 -3.931933E+01
-20.000000 26.000000 -3.755009E+01
-20.000000 24.000000 -3.131515E+01
-20.000000 22.000000 -1.767869E+01
-20.000000 20.000000 -5.802048E+00
-20.000000 18.000000 -1.149159E+01
-20.000000 16.000000 -3.160314E+01
-20.000000 14.000000 -4.616864E+01
-20.000000 12.000000 -5.172811E+01
-20.000000 10.000000 -4.905955E+01
-20.000000 8.000000 -4.069533E+01
-20.000000 6.000000 -3.613039E+01
-20.000000 4.000000 -3.501950E+01
-20.000000 2.000000 -3.809950E+01
-20.000000 0.000000 -4.563297E+01
-20.000000 -2.000000 -5.012655E+01
-20.000000 -4.000000 -4.683462E+01
-20.000000 -6.000000 -3.116870E+01
-20.000000 -8.000000 -1.339611E+01
-20.000000 -10.000000 -3.370218E+00
-20.000000 -12.000000 4.793978E+00
-20.000000 -14.000000 1.402131E+01
-20.000000 -16.000000 2.427451E+01
-20.000000 -18.000000 3.345735E+01
-20.000000 -20.000000 4.165032E+01
-20.000000 -22.000000 4.603595E+01
-20.000000 -24.000000 4.895545E+01
-20.000000 -26.000000 5.337152E+01
-20.000000 -28.000000 5.467889E+01
-20.000000 -30.000000 5.141373E+01
-20.000000 -32.000000 4.714386E+01
-20.000000 -34.000000 4.533112E+01
-20.000000 -36.000000 4.024124E+01
-20.000000 -38.000000 3.176144E+01
-20.000000 -40.000000 2.279818E+01
-18.000000 40.000000 1.276725E+01
-18.000000 38.000000 4.198635E+00
-18.000000 36.000000 -8.680058E+00
-18.000000 34.000000 -2.430963E+01
-18.000000 32.000000 -3.730061E+01
-18.000000 30.000000 -4.148781E+01
-18.000000 28.000000 -4.200486E+01
-18.000000 26.000000 -4.467002E+01
-18.000000 24.000000 -4.322354E+01
-18.000000 22.000000 -3.127288E+01
-18.000000 20.000000 -2.074907E+01
-18.000000 18.000000 -2.475863E+01
-18.000000 16.000000 -4.177335E+01
-18.000000 14.000000 -5.663238E+01
-18.000000 12.000000 -6.169888E+01
-18.000000 10.000000 -5.372447E+01
-18.000000 8.000000 -3.915952E+01
-18.000000 6.000000 -2.746087E+01
-18.000000 4.000000 -2.495325E+01
-18.000000 2.000000 -2.879350E+01
-18.000000 0.000000 -3.679905E+01
-18.000000 -2.000000 -4.414900E+01
-18.000000 -4.000000 -4.483580E+01
-18.000000 -6.000000 -3.057198E+01
-18.000000 -8.000000 -1.289792E+01
-18.000000 -10.000000 -2.169665E+00
-18.000000 -12.000000 6.368340E+00
-18.000000 -14.000000 1.428942E+01
-18.000000 -16.000000 2.287275E+01
-18.000000 -18.000000 3.004939E+01
-18.000000 -20.000000 3.688667E+01
-18.000000 -22.000000 3.995498E+01
-18.000000 -24.000000 4.180346E+01
-18.000000 -26.000000 4.737490E+01
-18.000000 -28.000000 4.851216E+01
-18.000000 -30.000000 4.299076E+01
-18.000000 -32.000000 3.826715E+01
-18.000000 -34.000000 3.871099E+01
-18.000000 -36.000000 3.699558E+01
-18.000000 -38.000000 3.047859E+01
-18.000000 -40.000000 2.301326E+01
-16.000000 40.000000 1.207784E+01
-16.000000 38.000000 3.407368E+00
-16.000000 36.000000 -7.763683E+00
-16.000000 34.000000 -2.148262E+01
-16.000000 32.000000 -3.392397E+01
-16.000000 30.000000 -3.865529E+01
-16.000000 28.000000 -4.042379E+01
-16.000000 26.000000 -4.701823E+01
-16.000000 24.000000 -5.037776E+01
-16.000000 22.000000 -4.138161E+01
-16.000000 20.000000 -3.349851E+01
-16.000000 18.000000 -3.910874E+01
-16.000000 16.000000 -5.708830E+01
-16.000000 14.000000 -7.574769E+01
-16.000000 12.000000 -8.269745E+01
-16.000000 10.000000 -7.083855E+01
-16.000000 8.000000 -4.710535E+01
-16.000000 6.000000 -2.478816E+01
-16.000000 4.000000 -1.506113E+01
-16.000000 2.000000 -1.201933E+01
-16.000000 0.000000 -1.352229E+01
-16.000000 -2.000000 -1.891061E+01
-16.000000 -4.000000 -2.141963E+01
-16.000000 -6.000000 -1.309910E+01
-16.000000 -8.000000 -2.306808E+00
-16.000000 -10.000000 2.807775E+00
-16.000000 -12.000000 6.536966E+00
-16.000000 -14.000000 1.228226E+01
-16.000000 -16.000000 2.140303E+01
-16.000000 -18.000000 2.887510E+01
-16.000000 -20.000000 3.358545E+01
-16.000000 -22.000000 3.433621E+01
-16.000000 -24.000000 3.357323E+01
-16.000000 -26.000000 3.657931E+01
-16.000000 -28.000000 3.667006E+01
-16.000000 -30.000000 3.153012E+01
-16.000000 -32.000000 2.874696E+01
-16.000000 -34.000000 3.074019E+01
-16.000000 -36.000000 3.160964E+01
-16.000000 -38.000000 2.872322E+01
-16.000000 -40.000000 2.358746E+01
-14.000000 40.000000 1.003527E+01
-14.000000 38.000000 1.184490E+00
-14.000000 36.000000 -8.238125E+00
-14.000000 34.000000 -1.938462E+01
-14.000000 32.000000 -2.982784E+01
-14.000000 30.000000 -3.437361E+01
-14.000000 28.000000 -3.667911E+01
-14.000000 26.000000 -4.325866E+01
-14.000000 24.000000 -4.629360E+01
-14.000000 22.000000 -3.934920E+01
-14.000000 20.000000 -3.468622E+01
-14.000000 18.000000 -4.511631E+01
-14.000000 16.000000 -7.045525E+01
-14.000000 14.000000 -1.000321E+02
-14.000000 12.000000 -1.166338E+02
-14.000000 10.000000 -1.084457E+02
-14.000000 8.000000 -7.516192E+01
-14.000000 6.000000 -3.898068E+01
-14.000000 4.000000 -1.334268E+01
-14.000000 2.000000 4.447802E+00
-14.000000 0.000000 1.546048E+01
-14.000000 -2.000000 1.540252E+01
-14.000000 -4.000000 1.154981E+01
-14.000000 -6.000000 1.080599E+01
-14.000000 -8.000000 1.241250E+01
-14.000000 -10.000000 1.025730E+01
-14.000000 -12.000000 8.869065E+00
-14.000000 -14.000000 1.405240E+01
-14.000000 -16.000000 2.400274E+01
-14.000000 -18.000000 3.160148E+01
-14.000000 -20.000000 3.446270E+01
-14.000000 -22.000000 3.224117E+01
-14.000000 -24.000000 2.779830E+01
-14.000000 -26.000000 2.563342E+01
-14.000000 -28.000000 2.419769E+01
-14.000000 -30.000000 2.092214E+01
-14.000000 -32.000000 2.084652E+01
-14.000000 -34.000000 2.379144E+01
-14.000000 -36.000000 2.652628E+01
-14.000000 -38.000000 2.672135E+01
-14.000000 -40.000000 2.324621E+01
-12.000000 40.000000 9.767754E+00
-12.000000 38.000000 1.217346E-01
-12.000000 36.000000 -9.307217E+00
-12.000000 34.000000 -1.925327E+01
-12.000000 32.000000 -2.855802E+01
-12.000000 30.000000 -3.378838E+01
-12.000000 28.000000 -3.650386E+01
-12.000000 26.000000 -3.935021E+01
-12.000000 24.000000 -3.622348E+01
-12.000000 22.000000 -2.797127E+01
-12.000000 20.000000 -2.503915E+01
-12.000000 18.000000 -4.065936E+01
-12.000000 16.000000 -7.725048E+01
-12.000000 14.000000 -1.215152E+02
-12.000000 12.000000 -1.517424E+02
-12.000000 10.000000 -1.519432E+02
-12.000000 8.000000 -1.124841E+02
-12.000000 6.000000 -6.335227E+01
-12.000000 4.000000 -1.814082E+01
-12.000000 2.000000 1.498338E+01
-12.000000 0.000000 3.686000E+01
-12.000000 -2.000000 4.058922E+01
-12.000000 -4.000000 3.447495E+01
-12.000000 -6.000000 2.818558E+01
-12.000000 -8.000000 2.484338E+01
-12.000000 -10.000000 2.086847E+01
-12.000000 -12.000000 1.895159E+01
-12.000000 -14.000000 2.349165E+01
-12.000000 -16.000000 3.207140E+01
-12.000000 -18.000000 3.865971E+01
-12.000000 -20.000000 4.010287E+01
-12.000000 -22.000000 3.571291E+01
-12.000000 -24.000000 2.785692E+01
-12.000000 -26.000000 2.097987E+01
-12.000000 -28.000000 1.707264E+01
-12.000000 -30.000000 1.358225E+01
-12.000000 -32.000000 1.444908E+01
-12.000000 -34.000000 1.819539E+01
-12.000000 -36.000000 2.237007E+01
-12.000000 -38.000000 2.431738E+01
-12.000000 -40.000000 2.177159E+01
-10.000000 40.000000 1.207746E+01
-10.000000 38.000000 5.808029E-01
-10.000000 36.000000 -1.025778E+01
-10.000000 34.000000 -2.065704E+01
-10.000000 32.000000 -3.049791E+01
-10.000000 30.000000 -3.649105E+01
-10.000000 28.000000 -3.868377E+01
-10.000000 26.000000 -3.847121E+01
-10.000000 24.000000 -2.955020E+01
-10.000000 22.000000 -1.799565E+01
-10.000000 20.000000 -1.503871E+01
-10.000000 18.000000 -3.440742E+01
-10.000000 16.000000 -8.006537E+01
-10.000000 14.000000 -1.345094E+02
-10.000000 12.000000 -1.735945E+02
-10.000000 10.000000 -1.787320E+02
-10.000000 8.000000 -1.353889E+02
-10.000000 6.000000 -7.924183E+01
-10.000000 4.000000 -2.425708E+01
-10.000000 2.000000 1.447098E+01
-10.000000 0.000000 3.819704E+01
-10.000000 -2.000000 4.302438E+01
-10.000000 -4.000000 3.809390E+01
-10.000000 -6.000000 3.395459E+01
-10.000000 -8.000000 3.237724E+01
-10.000000 -10.000000 3.160027E+01
-10.000000 -12.000000 3.222473E+01
-10.000000 -14.000000 3.662773E+01
-10.000000 -16.000000 4.230555E+01
-10.000000 -18.000000 4.661941E+01
-10.000000 -20.000000 4.766497E+01
-10.000000 -22.000000 4.388956E+01
-10.000000 -24.000000 3.495975E+01
-10.000000 -26.000000 2.525373E+01
-10.000000 -28.000000 1.743533E+01
-10.000000 -30.000000 1.102901E+01
-10.000000 -32.000000 1.060285E+01
-10.000000 -34.000000 1.499515E+01
-10.000000 -36.000000 1.975022E+01
-10.000000 -38.000000 2.180686E+01
-10.000000 -40.000000 1.921458E+01
-8.000000 40.000000 1.630637E+01
-8.000000 38.000000 2.526047E+00
-8.000000 36.000000 -1.010923E+01
-8.000000 34.000000 -2.223035E+01
-8.000000 32.000000 -3.300587E+01
-8.000000 30.000000 -3.923219E+01
-8.000000 28.000000 -4.100038E+01
-8.000000 26.000000 -4.021925E+01
-8.000000 24.000000 -3.035878E+01
-8.000000 22.000000 -1.726157E+01
-8.000000 20.000000 -1.501459E+01
-8.000000 18.000000 -3.658152E+01
-8.000000 16.000000 -8.326307E+01
-8.000000 14.000000 -1.361771E+02
-8.000000 12.000000 -1.726398E+02
-8.000000 10.000000 -1.749753E+02
-8.000000 8.000000 -1.318270E+02
-8.000000 6.000000 -7.750099E+01
-8.000000 4.000000 -2.688726E+01
-8.000000 2.000000 6.318588E+00
-8.000000 0.000000 2.390168E+01
-8.000000 -2.000000 2.733661E+01
-8.000000 -4.000000 2.573019E+01
-8.000000 -6.000000 2.853747E+01
-8.000000 -8.000000 3.312259E+01
-8.000000 -10.000000 3.729172E+01
-8.000000 -12.000000 4.076340E+01
-8.000000 -14.000000 4.531081E+01
-8.000000 -16.000000 4.740208E+01
-8.000000 -18.000000 4.883146E+01
-8.000000 -20.000000 5.114373E+01
-8.000000 -22.000000 5.102701E+01
-8.000000 -24.000000 4.418393E+01
-8.000000 -26.000000 3.432709E+01
-8.000000 -28.000000 2.322279E+01
-8.000000 -30.000000 1.329988E+01
-8.000000 -32.000000 1.104018E+01
-8.000000 -34.000000 1.540153E+01
-8.000000 -36.000000 1.961764E+01
-8.000000 -38.000000 2.042464E+01
-8.000000 -40.000000 1.605906E+01
-6.000000 40.000000 2.207196E+01
-6.000000 38.000000 6.186581E+00
-6.000000 36.000000 -8.174654E+00
-6.000000 34.000000 -2.275698E+01
-6.000000 32.000000 -3.473448E+01
-6.000000 30.000000 -4.023890E+01
-6.000000 28.000000 -4.153273E+01
-6.000000 26.000000 -4.169406E+01
-6.000000 24.000000 -3.476288E+01
-6.000000 22.000000 -2.244324E+01
-6.000000 20.000000 -2.170922E+01
-6.000000 18.000000 -4.407386E+01
-6.000000 16.000000 -8.489067E+01
-6.000000 14.000000 -1.274892E+02
-6.000000 12.000000 -1.535395E+02
-6.000000 10.000000 -1.495609E+02
-6.000000 8.000000 -1.105622E+02
-6.000000 6.000000 -6.247432E+01
-6.000000 4.000000 -2.306912E+01
-6.000000 2.000000 -1.255455E+00
-6.000000 0.000000 7.167618E+00
-6.000000 -2.000000 6.511639E+00
-6.000000 -4.000000 5.813948E+00
-6.000000 -6.000000 1.518949E+01
-6.000000 -8.000000 2.656052E+01
-6.000000 -10.000000 3.502195E+01
-6.000000 -12.000000 3.984811E+01
-6.000000 -14.000000 4.268090E+01
-6.000000 -16.000000 4.116033E+01
-6.000000 -18.000000 4.024070E+01
-6.000000 -20.000000 4.468178E+01
-6.000000 -22.000000 4.992582E+01
-6.000000 -24.000000 4.835931E+01
-6.000000 -26.000000 4.150328E+01
-6.000000 -28.000000 3.005659E+01
-6.000000 -30.000000 1.926802E+01
-6.000000 -32.000000 1.617311E+01
-6.000000 -34.000000 1.969433E+01
-6.000000 -36.000000 2.194103E+01
-6.000000 -38.000000 2.036187E+01
-6.000000 -40.000000 1.317262E+01
-4.000000 40.000000 2.813554E+01
-4.000000 38.000000 1.046177E+01
-4.000000 36.000000 -5.229879E+00
-4.000000 34.000000 -2.197174E+01
-4.000000 32.000000 -3.486207E+01
-4.000000 30.000000 -3.811987E+01
-4.000000 28.000000 -3.719546E+01
-4.000000 26.000000 -3.816288E+01
-4.000000 24.000000 -3.406490E+01
-4.000000 22.000000 -2.250869E+01
-4.000000 20.000000 -2.199246E+01
-4.000000 18.000000 -4.354538E+01
-4.000000 16.000000 -7.819239E+01
-4.000000 14.000000 -1.111163E+02
-4.000000 12.000000 -1.291863E+02
-4.000000 10.000000 -1.219975E+02
-4.000000 8.000000 -8.829081E+01
-4.000000 6.000000 -4.798776E+01
-4.000000 4.000000 -1.895060E+01
-4.000000 2.000000 -6.654514E+00
-4.000000 0.000000 -6.509785E+00
-4.000000 -2.000000 -1.221693E+01
-4.000000 -4.000000 -1.404267E+01
-4.000000 -6.000000 -2.079840E+00
-4.000000 -8.000000 1.396233E+01
-4.000000 -10.000000 2.524435E+01
-4.000000 -12.000000 3.005225E+01
-4.000000 -14.000000 3.120752E+01
-4.000000 -16.000000 2.678304E+01
-4.000000 -18.000000 2.157426E+01
-4.000000 -20.000000 2.704480E+01
-4.000000 -22.000000 3.780090E+01
-4.000000 -24.000000 4.315015E+01
-4.000000 -26.000000 4.077100E+01
-4.000000 -28.000000 3.256750E+01
-4.000000 -30.000000 2.487126E+01
-4.000000 -32.000000 2.334638E+01
-4.000000 -34.000000 2.733480E+01
-4.000000 -36.000000 2.672348E+01
-4.000000 -38.000000 2.113994E+01
-4.000000 -40.000000 1.093169E+01
-2.000000 40.000000 3.336655E+01
-2.000000 38.000000 1.536741E+01
-2.000000 36.000000 -1.530264E+00
-2.000000 34.000000 -2.023676E+01
-2.000000 32.000000 -3.292330E+01
-2.000000 30.000000 -3.356598E+01
-2.000000 28.000000 -2.859006E+01
-2.000000 26.000000 -2.679027E+01
-2.000000 24.000000 -2.102502E+01
-2.000000 22.000000 -1.041534E+01
-2.000000 20.000000 -9.163647E+00
-2.000000 18.000000 -2.808273E+01
-2.000000 16.000000 -6.057080E+01
-2.000000 14.000000 -9.182837E+01
-2.000000 12.000000 -1.104033E+02
-2.000000 10.000000 -1.074087E+02
-2.000000 8.000000 -8.115539E+01
-2.000000 6.000000 -4.792418E+01
-2.000000 4.000000 -2.250185E+01
-2.000000 2.000000 -1.278368E+01
-2.000000 0.000000 -1.583179E+01
-2.000000 -2.000000 -2.409759E+01
-2.000000 -4.000000 -2.795422E+01
-2.000000 -6.000000 -1.779993E+01
-2.000000 -8.000000 -1.006104E+00
-2.000000 -10.000000 1.042734E+01
-2.000000 -12.000000 1.534175E+01
-2.000000 -14.000000 1.702974E+01
-2.000000 -16.000000 1.160998E+01
-2.000000 -18.000000 1.055241E-01
-2.000000 -20.000000 4.896157E+00
-2.000000 -22.000000 1.915027E+01
-2.000000 -24.000000 2.936331E+01
-2.000000 -26.000000 3.120775E+01
-2.000000 -28.000000 2.825604E+01
-2.000000 -30.000000 2.539734E+01
-2.000000 -32.000000 2.741326E+01
-2.000000 -34.000000 3.401218E+01
-2.000000 -36.000000 3.211094E+01
-2.000000 -38.000000 2.280443E+01
-2.000000 -40.000000 9.709453E+00
0.000000 40.000000 3.829624E+01
0.000000 38.000000 2.108476E+01
0.000000 36.000000 3.183100E+00
0.000000 34.000000 -1.688235E+01
0.000000 32.000000 -2.916192E+01
0.000000 30.000000 -2.815445E+01
0.000000 28.000000 -1.916517E+01
0.000000 26.000000 -1.243089E+01
0.000000 24.000000 -1.784199E+00
0.000000 22.000000 8.300289E+00
0.000000 20.000000 1.062062E+01
0.000000 18.000000 -5.539703E+00
0.000000 16.000000 -3.949455E+01
0.000000 14.000000 -7.480283E+01
0.000000 12.000000 -9.987801E+01
0.000000 10.000000 -1.070996E+02
0.000000 8.000000 -9.176074E+01
0.000000 6.000000 -6.361870E+01
0.000000 4.000000 -3.531921E+01
0.000000 2.000000 -2.070034E+01
0.000000 0.000000 -2.030666E+01
0.000000 -2.000000 -2.731115E+01
0.000000 -4.000000 -3.275670E+01
0.000000 -6.000000 -2.541168E+01
0.000000 -8.000000 -1.157214E+01
0.000000 -10.000000 -3.752575E+00
0.000000 -12.000000 3.480644E-01
0.000000 -14.000000 2.185444E+00
0.000000 -16.000000 -1.740690E+00
0.000000 -18.000000 -1.310421E+01
0.000000 -20.000000 -1.129572E+01
0.000000 -22.000000 6.092620E-01
0.000000 -24.000000 1.107271E+01
0.000000 -26.000000 1.637026E+01
0.000000 -28.000000 1.809546E+01
0.000000 -30.000000 1.949303E+01
0.000000 -32.000000 2.517765E+01
0.000000 -34.000000 3.435671E+01
0.000000 -36.000000 3.403527E+01
0.000000 -38.000000 2.462760E+01
0.000000 -40.000000 1.026723E+01
2.000000 40.000000 4.378535E+01
2.000000 38.000000 2.676853E+01
2.000000 36.000000 8.415415E+00
2.000000 34.000000 -1.202937E+01
2.000000 32.000000 -2.414275E+01
2.000000 30.000000 -2.245185E+01
2.000000 28.000000 -1.124277E+01
2.000000 26.000000 -2.505444E+00
2.000000 24.000000 1.026464E+01
2.000000 22.000000 1.937518E+01
2.000000 20.000000 2.046882E+01
2.000000 18.000000 4.971722E+00
2.000000 16.000000 -2.708587E+01
2.000000 14.000000 -6.261442E+01
2.000000 12.000000 -9.202072E+01
2.000000 10.000000 -1.098835E+02
2.000000 8.000000 -1.068797E+02
2.000000 6.000000 -8.326880E+01
2.000000 4.000000 -4.904717E+01
2.000000 2.000000 -2.447117E+01
2.000000 0.000000 -1.739776E+01
2.000000 -2.000000 -2.235231E+01
2.000000 -4.000000 -2.893964E+01
2.000000 -6.000000 -2.435186E+01
2.000000 -8.000000 -1.433301E+01
2.000000 -10.000000 -1.089247E+01
2.000000 -12.000000 -1.041165E+01
2.000000 -14.000000 -1.029264E+01
2.000000 -16.000000 -1.276529E+01
2.000000 -18.000000 -1.943556E+01
2.000000 -20.000000 -2.069474E+01
2.000000 -22.000000 -1.443959E+01
2.000000 -24.000000 -6.075646E+00
2.000000 -26.000000 1.806058E+00
2.000000 -28.000000 5.366867E+00
2.000000 -30.000000 8.796078E+00
2.000000 -32.000000 1.766875E+01
2.000000 -34.000000 3.006681E+01
2.000000 -36.000000 3.271571E+01
2.000000 -38.000000 2.519816E+01
2.000000 -40.000000 1.153799E+01
4.000000 40.000000 4.985529E+01
4.000000 38.000000 3.233511E+01
4.000000 36.000000 1.333125E+01
4.000000 34.000000 -7.948832E+00
4.000000 32.000000 -2.031987E+01
4.000000 30.000000 -1.952447E+01
4.000000 28.000000 -9.570210E+00
4.000000 26.000000 -2.383789E+00
4.000000 24.000000 8.739647E+00
4.000000 22.000000 1.609493E+01
4.000000 20.000000 1.508012E+01
4.000000 18.000000 3.707237E-01
4.000000 16.000000 -2.572891E+01
4.000000 14.000000 -5.745266E+01
4.000000 12.000000 -8.898030E+01
4.000000 10.000000 -1.146539E+02
4.000000 8.000000 -1.184283E+02
4.000000 6.000000 -9.615143E+01
4.000000 4.000000 -5.455663E+01
4.000000 2.000000 -1.833324E+01
4.000000 0.000000 -3.569138E+00
4.000000 -2.000000 -8.271753E+00
4.000000 -4.000000 -1.768899E+01
4.000000 -6.000000 -1.749036E+01
4.000000 -8.000000 -1.114873E+01
4.000000 -10.000000 -1.039445E+01
4.000000 -12.000000 -1.443125E+01
4.000000 -14.000000 -1.738379E+01
4.000000 -16.000000 -1.923648E+01
4.000000 -18.000000 -2.293567E+01
4.000000 -20.000000 -2.472961E+01
4.000000 -22.000000 -2.276228E+01
4.000000 -24.000000 -1.717670E+01
4.000000 -26.000000 -7.930908E+00
4.000000 -28.000000 -4.950719E+00
4.000000 -30.000000 -1.993063E+00
4.000000 -32.000000 9.002510E+00
4.000000 -34.000000 2.505372E+01
4.000000 -36.000000 3.040017E+01
4.000000 -38.000000 2.416458E+01
4.000000 -40.000000 1.103075E+01
6.000000 40.000000 5.560159E+01
6.000000 38.000000 3.695830E+01
6.000000 36.000000 1.646169E+01
6.000000 34.000000 -7.159376E+00
6.000000 32.000000 -2.138731E+01
6.000000 30.000000 -2.245369E+01
6.000000 28.000000 -1.542097E+01
6.000000 26.000000 -1.152045E+01
6.000000 24.000000 -3.442997E+00
6.000000 22.000000 3.385971E+00
6.000000 20.000000 2.231701E+00
6.000000 18.000000 -1.033881E+01
6.000000 16.000000 -3.230437E+01
6.000000 14.000000 -6.086480E+01
6.000000 12.000000 -9.398286E+01
6.000000 10.000000 -1.233542E+02
6.000000 8.000000 -1.271680E+02
6.000000 6.000000 -1.023368E+02
6.000000 4.000000 -5.152519E+01
6.000000 2.000000 -3.832523E+00
6.000000 0.000000 1.851493E+01
6.000000 -2.000000 1.324084E+01
6.000000 -4.000000 -7.947140E-01
6.000000 -6.000000 -6.073410E+00
6.000000 -8.000000 -3.548489E+00
6.000000 -10.000000 -4.561306E+00
6.000000 -12.000000 -1.147918E+01
6.000000 -14.000000 -1.780939E+01
6.000000 -16.000000 -2.020167E+01
6.000000 -18.000000 -2.246403E+01
6.000000 -20.000000 -2.242066E+01
6.000000 -22.000000 -2.168586E+01
6.000000 -24.000000 -1.855766E+01
6.000000 -26.000000 -1.084005E+01
6.000000 -28.000000 -9.400691E+00
6.000000 -30.000000 -7.068462E+00
6.000000 -32.000000 3.797025E+00
6.000000 -34.000000 2.024697E+01
6.000000 -36.000000 2.654915E+01
6.000000 -38.000000 2.148555E+01
6.000000 -40.000000 8.063645E+00
8.000000 40.000000 6.021750E+01
8.000000 38.000000 3.861273E+01
8.000000 36.000000 1.541051E+01
8.000000 34.000000 -1.102913E+01
8.000000 32.000000 -2.735069E+01
8.000000 30.000000 -3.008608E+01
8.000000 28.000000 -2.470572E+01
8.000000 26.000000 -2.354821E+01
8.000000 24.000000 -1.886154E+01
8.000000 22.000000 -1.146188E+01
8.000000 20.000000 -1.135926E+01
8.000000 18.000000 -2.154022E+01
8.000000 16.000000 -4.138775E+01
8.000000 14.000000 -6.746192E+01
8.000000 12.000000 -9.934756E+01
8.000000 10.000000 -1.280214E+02
8.000000 8.000000 -1.288167E+02
8.000000 6.000000 -1.017047E+02
8.000000 4.000000 -4.783529E+01
8.000000 2.000000 5.432579E+00
8.000000 0.000000 3.407004E+01
8.000000 -2.000000 3.143200E+01
8.000000 -4.000000 1.574299E+01
8.000000 -6.000000 6.222092E+00
8.000000 -8.000000 6.670422E+00
8.000000 -10.000000 4.866119E+00
8.000000 -12.000000 -1.984756E+00
8.000000 -14.000000 -8.833665E+00
8.000000 -16.000000 -1.225476E+01
8.000000 -18.000000 -1.497869E+01
8.000000 -20.000000 -1.477699E+01
8.000000 -22.000000 -1.328466E+01
8.000000 -24.000000 -1.142707E+01
8.000000 -26.000000 -7.836908E+00
8.000000 -28.000000 -8.258403E+00
8.000000 -30.000000 -6.176090E+00
8.000000 -32.000000 3.698885E+00
8.000000 -34.000000 1.827211E+01
8.000000 -36.000000 2.293239E+01
8.000000 -38.000000 1.776561E+01
8.000000 -40.000000 3.612485E+00
10.000000 40.000000 6.358538E+01
10.000000 38.000000 3.743018E+01
10.000000 36.000000 9.988463E+00
10.000000 34.000000 -1.929288E+01
10.000000 32.000000 -3.634755E+01
10.000000 30.000000 -4.010352E+01
10.000000 28.000000 -3.473662E+01
10.000000 26.000000 -3.278134E+01
10.000000 24.000000 -2.907647E+01
10.000000 22.000000 -2.095149E+01
10.000000 20.000000 -1.866047E+01
10.000000 18.000000 -2.587179E+01
10.000000 16.000000 -4.491937E+01
10.000000 14.000000 -7.083261E+01
10.000000 12.000000 -1.010119E+02
10.000000 10.000000 -1.261025E+02
10.000000 8.000000 -1.233797E+02
10.000000 6.000000 -9.722179E+01
10.000000 4.000000 -5.131902E+01
10.000000 2.000000 -2.488878E+00
10.000000 0.000000 2.923452E+01
10.000000 -2.000000 3.342032E+01
10.000000 -4.000000 2.275007E+01
10.000000 -6.000000 1.468349E+01
10.000000 -8.000000 1.807907E+01
10.000000 -10.000000 1.944310E+01
10.000000 -12.000000 1.656809E+01
10.000000 -14.000000 1.207590E+01
10.000000 -16.000000 7.166808E+00
10.000000 -18.000000 1.505141E+00
10.000000 -20.000000 -9.093633E-01
10.000000 -22.000000 3.811069E-01
10.000000 -24.000000 1.106268E+00
10.000000 -26.000000 9.325230E-01
10.000000 -28.000000 -2.258646E+00
10.000000 -30.000000 -2.181666E+00
10.000000 -32.000000 6.559652E+00
10.000000 -34.000000 1.915338E+01
10.000000 -36.000000 2.096763E+01
10.000000 -38.000000 1.435477E+01
10.000000 -40.000000 -1.349009E+00
12.000000 40.000000 6.598945E+01
12.000000 38.000000 3.525525E+01
12.000000 36.000000 3.476832E+00
12.000000 34.000000 -2.843618E+01
12.000000 32.000000 -4.567338E+01
12.000000 30.000000 -4.906613E+01
12.000000 28.000000 -4.243024E+01
12.000000 26.000000 -3.685732E+01
12.000000 24.000000 -3.077344E+01
12.000000 22.000000 -2.056170E+01
12.000000 20.000000 -1.579810E+01
12.000000 18.000000 -2.193148E+01
12.000000 16.000000 -4.250769E+01
12.000000 14.000000 -7.052898E+01
12.000000 12.000000 -1.009608E+02
12.000000 10.000000 -1.234625E+02
12.000000 8.000000 -1.205232E+02
12.000000 6.000000 -9.901375E+01
12.000000 4.000000 -6.717268E+01
12.000000 2.000000 -2.899710E+01
12.000000 0.000000 2.069841E+00
12.000000 -2.000000 1.535692E+01
12.000000 -4.000000 1.810818E+01
12.000000 -6.000000 2.353400E+01
12.000000 -8.000000 3.626205E+01
12.000000 -10.000000 4.541479E+01
12.000000 -12.000000 4.798036E+01
12.000000 -14.000000 4.426776E+01
12.000000 -16.000000 3.512160E+01
12.000000 -18.000000 2.401037E+01
12.000000 -20.000000 1.726421E+01
12.000000 -22.000000 1.682464E+01
12.000000 -24.000000 1.679739E+01
12.000000 -26.000000 1.442213E+01
12.000000 -28.000000 7.681300E+00
12.000000 -30.000000 3.767509E+00
12.000000 -32.000000 9.172957E+00
12.000000 -34.000000 1.910176E+01
12.000000 -36.000000 1.872227E+01
12.000000 -38.000000 1.148401E+01
12.000000 -40.000000 -5.439354E+00
14.000000 40.000000 6.751537E+01
14.000000 38.000000 3.353794E+01
14.000000 36.000000 -6.561470E-01
14.000000 34.000000 -3.348564E+01
14.000000 32.000000 -5.017193E+01
14.000000 30.000000 -5.235145E+01
14.000000 28.000000 -4.384408E+01
14.000000 26.000000 -3.496947E+01
14.000000 24.000000 -2.537219E+01
14.000000 22.000000 -1.277120E+01
14.000000 20.000000 -6.579142E+00
14.000000 18.000000 -1.417165E+01
14.000000 16.000000 -3.801993E+01
14.000000 14.000000 -6.916321E+01
14.000000 12.000000 -1.014547E+02
14.000000 10.000000 -1.271783E+02
14.000000 8.000000 -1.311732E+02
14.000000 6.000000 -1.194538E+02
14.000000 4.000000 -9.698538E+01
14.000000 2.000000 -6.422707E+01
14.000000 0.000000 -3.222257E+01
14.000000 -2.000000 -7.652678E+00
14.000000 -4.000000 1.346816E+01
14.000000 -6.000000 3.930766E+01
14.000000 -8.000000 6.522057E+01
14.000000 -10.000000 8.367378E+01
14.000000 -12.000000 8.884072E+01
14.000000 -14.000000 8.208965E+01
14.000000 -16.000000 6.491539E+01
14.000000 -18.000000 4.518828E+01
14.000000 -20.000000 3.228700E+01
14.000000 -22.000000 2.937790E+01
14.000000 -24.000000 3.000400E+01
14.000000 -26.000000 2.789917E+01
14.000000 -28.000000 1.780363E+01
14.000000 -30.000000 9.257267E+00
14.000000 -32.000000 9.792995E+00
14.000000 -34.000000 1.800369E+01
14.000000 -36.000000 1.726738E+01
14.000000 -38.000000 9.569930E+00
14.000000 -40.000000 -8.263977E+00
16.000000 40.000000 6.843921E+01
16.000000 38.000000 3.378667E+01
16.000000 36.000000 7.987499E-02
16.000000 34.000000 -3.138654E+01
16.000000 32.000000 -4.630206E+01
16.000000 30.000000 -4.729450E+01
16.000000 28.000000 -3.824193E+01
16.000000 26.000000 -2.856477E+01
16.000000 24.000000 -1.728332E+01
16.000000 22.000000 -4.664049E+00
16.000000 20.000000 4.132996E-01
16.000000 18.000000 -9.395905E+00
16.000000 16.000000 -3.486830E+01
16.000000 14.000000 -6.853364E+01
16.000000 12.000000 -1.041848E+02
16.000000 10.000000 -1.369084E+02
16.000000 8.000000 -1.500419E+02
16.000000 6.000000 -1.469994E+02
16.000000 4.000000 -1.251994E+02
16.000000 2.000000 -8.965382E+01
16.000000 0.000000 -5.246260E+01
16.000000 -2.000000 -1.710911E+01
16.000000 -4.000000 1.866112E+01
16.000000 -6.000000 6.068878E+01
16.000000 -8.000000 9.784648E+01
16.000000 -10.000000 1.231627E+02
16.000000 -12.000000 1.271462E+02
16.000000 -14.000000 1.133763E+02
16.000000 -16.000000 8.438741E+01
16.000000 -18.000000 5.368894E+01
16.000000 -20.000000 3.441058E+01
16.000000 -22.000000 3.062410E+01
16.000000 -24.000000 3.485400E+01
16.000000 -26.000000 3.685638E+01
16.000000 -28.000000 2.468752E+01
16.000000 -30.000000 1.209194E+01
16.000000 -32.000000 9.228308E+00
16.000000 -34.000000 1.790419E+01
16.000000 -36.000000 1.860499E+01
16.000000 -38.000000 9.727620E+00
16.000000 -40.000000 -9.969257E+00
18.000000 40.000000 7.043566E+01
18.000000 38.000000 3.618125E+01
18.000000 36.000000 4.672490E+00
18.000000 34.000000 -2.328532E+01
18.000000 32.000000 -3.542907E+01
18.000000 30.000000 -3.538665E+01
18.000000 28.000000 -2.664669E+01
18.000000 26.000000 -1.891960E+01
18.000000 24.000000 -1.033521E+01
18.000000 22.000000 -2.746735E-01
18.000000 20.000000 2.158703E+00
18.000000 18.000000 -9.027330E+00
18.000000 16.000000 -3.217177E+01
18.000000 14.000000 -6.451879E+01
18.000000 12.000000 -1.040198E+02
18.000000 10.000000 -1.437990E+02
18.000000 8.000000 -1.647088E+02
18.000000 6.000000 -1.663495E+02
18.000000 4.000000 -1.415723E+02
18.000000 2.000000 -9.941900E+01
18.000000 0.000000 -5.403898E+01
18.000000 -2.000000 -9.825173E+00
18.000000 -4.000000 3.384000E+01
18.000000 -6.000000 8.271866E+01
18.000000 -8.000000 1.251266E+02
18.000000 -10.000000 1.533675E+02
18.000000 -12.000000 1.518221E+02
18.000000 -14.000000 1.265105E+02
18.000000 -16.000000 8.426567E+01
18.000000 -18.000000 4.426206E+01
18.000000 -20.000000 2.167539E+01
18.000000 -22.000000 2.023884E+01
18.000000 -24.000000 3.048422E+01
18.000000 -26.000000 3.752335E+01
18.000000 -28.000000 2.587854E+01
18.000000 -30.000000 1.229079E+01
18.000000 -32.000000 8.814823E+00
18.000000 -34.000000 1.874650E+01
18.000000 -36.000000 2.115146E+01
18.000000 -38.000000 1.172167E+01
18.000000 -40.000000 -9.303096E+00
20.000000 40.000000 7.413314E+01
20.000000 38.000000 4.050506E+01
20.000000 36.000000 1.123440E+01
20.000000 34.000000 -1.289794E+01
20.000000 32.000000 -2.195328E+01
20.000000 30.000000 -2.063671E+01
20.000000 28.000000 -1.197744E+01
20.000000 26.000000 -6.673660E+00
20.000000 24.000000 -2.291663E+00
20.000000 22.000000 3.850362E+00
20.000000 20.000000 3.641680E+00
20.000000 18.000000 -7.784802E+00
20.000000 16.000000 -2.680810E+01
20.000000 14.000000 -5.511995E+01
20.000000 12.000000 -9.576461E+01
20.000000 10.000000 -1.407464E+02
20.000000 8.000000 -1.680063E+02
20.000000 6.000000 -1.730413E+02
20.000000 4.000000 -1.471716E+02
20.000000 2.000000 -1.010662E+02
20.000000 0.000000 -4.940011E+01
20.000000 -2.000000 3.343220E-01
20.000000 -4.000000 4.788873E+01
20.000000 -6.000000 9.859247E+01
20.000000 -8.000000 1.429767E+02
20.000000 -10.000000 1.704809E+02
20.000000 -12.000000 1.591507E+02
20.000000 -14.000000 1.205870E+02
20.000000 -16.000000 6.830937E+01
20.000000 -18.000000 2.392173E+01
20.000000 -20.000000 2.621422E+00
20.000000 -22.000000 5.532363E+00
20.000000 -24.000000 2.100734E+01
20.000000 -26.000000 3.075837E+01
20.000000 -28.000000 2.138604E+01
20.000000 -30.000000 9.297330E+00
20.000000 -32.000000 7.906586E+00
20.000000 -34.000000 2.033522E+01
20.000000 -36.000000 2.441119E+01
20.000000 -38.000000 1.525188E+01
20.000000 -40.000000 -6.542844E+00
22.000000 40.000000 7.856415E+01
22.000000 38.000000 4.694168E+01
22.000000 36.000000 1.933975E+01
22.000000 34.000000 -3.124606E+00
22.000000 32.000000 -9.825805E+00
22.000000 30.000000 -6.618844E+00
22.000000 28.000000 2.697587E+00
22.000000 26.000000 7.515443E+00
22.000000 24.000000 8.761887E+00
22.000000 22.000000 9.363251E+00
22.000000 20.000000 6.558655E+00
22.000000 18.000000 -2.659152E+00
22.000000 16.000000 -1.760382E+01
22.000000 14.000000 -4.204824E+01
22.000000 12.000000 -8.036906E+01
22.000000 10.000000 -1.262418E+02
22.000000 8.000000 -1.593777E+02
22.000000 6.000000 -1.697583E+02
22.000000 4.000000 -1.480341E+02
22.000000 2.000000 -1.025600E+02
22.000000 0.000000 -4.910668E+01
22.000000 -2.000000 2.462577E+00
22.000000 -4.000000 5.225803E+01
22.000000 -6.000000 1.054688E+02
22.000000 -8.000000 1.517594E+02
22.000000 -10.000000 1.765482E+02
22.000000 -12.000000 1.540346E+02
22.000000 -14.000000 1.030093E+02
22.000000 -16.000000 4.505108E+01
22.000000 -18.000000 1.634476E+00
22.000000 -20.000000 -1.395414E+01
22.000000 -22.000000 -5.840755E+00
22.000000 -24.000000 1.328640E+01
22.000000 -26.000000 2.486755E+01
22.000000 -28.000000 1.575013E+01
22.000000 -30.000000 3.789782E+00
22.000000 -32.000000 5.382425E+00
22.000000 -34.000000 2.190645E+01
22.000000 -36.000000 2.826257E+01
22.000000 -38.000000 1.956990E+01
22.000000 -40.000000 -3.407668E+00
24.000000 40.000000 8.407875E+01
24.000000 38.000000 5.352365E+01
24.000000 36.000000 2.653517E+01
24.000000 34.000000 4.829553E+00
24.000000 32.000000 -4.873266E-01
24.000000 30.000000 4.541415E+00
24.000000 28.000000 1.576244E+01
24.000000 26.000000 2.033050E+01
24.000000 24.000000 1.815821E+01
24.000000 22.000000 1.481426E+01
24.000000 20.000000 1.103010E+01
24.000000 18.000000 5.693622E+00
24.000000 16.000000 -5.013586E+00
24.000000 14.000000 -2.685869E+01
24.000000 12.000000 -6.234424E+01
24.000000 10.000000 -1.067087E+02
24.000000 8.000000 -1.459197E+02
24.000000 6.000000 -1.633904E+02
24.000000 4.000000 -1.484747E+02
24.000000 2.000000 -1.069736E+02
24.000000 0.000000 -5.603846E+01
24.000000 -2.000000 -3.993085E+00
24.000000 -4.000000 4.905177E+01
24.000000 -6.000000 1.077851E+02
24.000000 -8.000000 1.558833E+02
24.000000 -10.000000 1.757629E+02
24.000000 -12.000000 1.429081E+02
24.000000 -14.000000 8.148463E+01
24.000000 -16.000000 2.145687E+01
24.000000 -18.000000 -1.558127E+01
24.000000 -20.000000 -2.228477E+01
24.000000 -22.000000 -8.886209E+00
24.000000 -24.000000 1.133420E+01
24.000000 -26.000000 2.252565E+01
24.000000 -28.000000 1.224435E+01
24.000000 -30.000000 4.030952E-01
24.000000 -32.000000 3.819820E+00
24.000000 -34.000000 2.272472E+01
24.000000 -36.000000 3.035532E+01
24.000000 -38.000000 2.242558E+01
24.000000 -40.000000 -6.425714E-01
26.000000 40.000000 9.079623E+01
26.000000 38.000000 5.875681E+01
26.000000 36.000000 3.082994E+01
26.000000 34.000000 1.000653E+01
26.000000 32.000000 5.611436E+00
26.000000 30.000000 1.164095E+01
26.000000 28.000000 2.386922E+01
26.000000 26.000000 2.660155E+01
26.000000 24.000000 2.255394E+01
26.000000 22.000000 2.052070E+01
26.000000 20.000000 1.985890E+01
26.000000 18.000000 1.800152E+01
26.000000 16.000000 8.617097E+00
26.000000 14.000000 -1.405273E+01
26.000000 12.000000 -5.041134E+01
26.000000 10.000000 -9.578104E+01
26.000000 8.000000 -1.367401E+02
26.000000 6.000000 -1.571339E+02
26.000000 4.000000 -1.463267E+02
26.000000 2.000000 -1.093227E+02
26.000000 0.000000 -6.140072E+01
26.000000 -2.000000 -7.753140E+00
26.000000 -4.000000 4.812769E+01
26.000000 -6.000000 1.110364E+02
26.000000 -8.000000 1.602296E+02
26.000000 -10.000000 1.734111E+02
26.000000 -12.000000 1.305695E+02
26.000000 -14.000000 6.288444E+01
26.000000 -16.000000 3.156434E+00
26.000000 -18.000000 -2.625605E+01
26.000000 -20.000000 -2.509476E+01
26.000000 -22.000000 -7.750709E+00
26.000000 -24.000000 1.147492E+01
26.000000 -26.000000 2.028921E+01
26.000000 -28.000000 1.087454E+01
26.000000 -30.000000 1.460914E+00
26.000000 -32.000000 6.004535E+00
26.000000 -34.000000 2.539266E+01
26.000000 -36.000000 3.276680E+01
26.000000 -38.000000 2.396904E+01
26.000000 -40.000000 5.985727E-01
28.000000 40.000000 9.677992E+01
28.000000 38.000000 6.393977E+01
28.000000 36.000000 3.415030E+01
28.000000 34.000000 1.191375E+01
28.000000 32.000000 7.361323E+00
28.000000 30.000000 1.392229E+01
28.000000 28.000000 2.586080E+01
28.000000 26.000000 2.834475E+01
28.000000 24.000000 2.583278E+01
28.000000 22.000000 2.608101E+01
28.000000 20.000000 2.819010E+01
28.000000 18.000000 2.777087E+01
28.000000 16.000000 1.671091E+01
28.000000 14.000000 -9.053419E+00
28.000000 12.000000 -4.828638E+01
28.000000 10.000000 -9.398800E+01
28.000000 8.000000 -1.296365E+02
28.000000 6.000000 -1.463229E+02
28.000000 4.000000 -1.353961E+02
28.000000 2.000000 -1.019774E+02
28.000000 0.000000 -5.683562E+01
28.000000 -2.000000 -2.997370E+00
28.000000 -4.000000 5.427715E+01
28.000000 -6.000000 1.181879E+02
28.000000 -8.000000 1.659347E+02
28.000000 -10.000000 1.736903E+02
28.000000 -12.000000 1.225533E+02
28.000000 -14.000000 4.984312E+01
28.000000 -16.000000 -9.443146E+00
28.000000 -18.000000 -3.370831E+01
28.000000 -20.000000 -2.768811E+01
28.000000 -22.000000 -8.912841E+00
28.000000 -24.000000 9.470446E+00
28.000000 -26.000000 1.831554E+01
28.000000 -28.000000 1.153870E+01
28.000000 -30.000000 4.408777E+00
28.000000 -32.000000 1.072650E+01
28.000000 -34.000000 3.097860E+01
28.000000 -36.000000 3.750700E+01
28.000000 -38.000000 2.597410E+01
28.000000 -40.000000 4.134245E-01
30.000000 40.000000 1.016439E+02
30.000000 38.000000 6.928611E+01
30.000000 36.000000 3.677477E+01
30.000000 34.000000 1.016650E+01
30.000000 32.000000 3.283289E+00
30.000000 30.000000 9.878881E+00
30.000000 28.000000 2.347664E+01
30.000000 26.000000 2.886382E+01
30.000000 24.000000 2.897297E+01
30.000000 22.000000 3.053818E+01
30.000000 20.000000 3.174862E+01
30.000000 18.000000 2.987536E+01
30.000000 16.000000 1.796039E+01
30.000000 14.000000 -9.198082E+00
30.000000 12.000000 -4.834982E+01
30.000000 10.000000 -8.938690E+01
30.000000 8.000000 -1.156846E+02
30.000000 6.000000 -1.242869E+02
30.000000 4.000000 -1.106952E+02
30.000000 2.000000 -8.207922E+01
30.000000 0.000000 -4.351634E+01
30.000000 -2.000000 5.891938E+00
30.000000 -4.000000 6.240313E+01
30.000000 -6.000000 1.252466E+02
30.000000 -8.000000 1.690579E+02
30.000000 -10.000000 1.735231E+02
30.000000 -12.000000 1.186543E+02
30.000000 -14.000000 4.236168E+01
30.000000 -16.000000 -1.795254E+01
30.000000 -18.000000 -4.097930E+01
30.000000 -20.000000 -3.362772E+01
30.000000 -22.000000 -1.428417E+01
30.000000 -24.000000 5.696404E+00
30.000000 -26.000000 1.730068E+01
30.000000 -28.000000 1.372016E+01
30.000000 -30.000000 9.575573E+00
30.000000 -32.000000 1.801321E+01
30.000000 -34.000000 3.727911E+01
30.000000 -36.000000 4.131516E+01
30.000000 -38.000000 2.760761E+01
30.000000 -40.000000 8.608351E-01
32.000000 40.000000 1.063509E+02
32.000000 38.000000 7.353166E+01
32.000000 36.000000 3.782615E+01
32.000000 34.000000 5.335436E+00
32.000000 32.000000 -6.561523E+00
32.000000 30.000000 -1.484600E+00
32.000000 28.000000 1.577736E+01
32.000000 26.000000 2.604627E+01
32.000000 24.000000 3.094623E+01
32.000000 22.000000 3.620848E+01
32.000000 20.000000 3.593943E+01
32.000000 18.000000 3.060057E+01
32.000000 16.000000 1.876036E+01
32.000000 14.000000 -6.744231E+00
32.000000 12.000000 -4.269882E+01
32.000000 10.000000 -7.749791E+01
32.000000 8.000000 -9.279382E+01
32.000000 6.000000 -9.040512E+01
32.000000 4.000000 -7.404600E+01
32.000000 2.000000 -5.367664E+01
32.000000 0.000000 -2.668315E+01
32.000000 -2.000000 1.280602E+01
32.000000 -4.000000 6.425129E+01
32.000000 -6.000000 1.243284E+02
32.000000 -8.000000 1.662004E+02
32.000000 -10.000000 1.696820E+02
32.000000 -12.000000 1.155694E+02
32.000000 -14.000000 3.958294E+01
32.000000 -16.000000 -2.246804E+01
32.000000 -18.000000 -4.806707E+01
32.000000 -20.000000 -4.143411E+01
32.000000 -22.000000 -2.033669E+01
32.000000 -24.000000 2.735887E+00
32.000000 -26.000000 1.774620E+01
32.000000 -28.000000 1.857082E+01
32.000000 -30.000000 1.902371E+01
32.000000 -32.000000 2.835938E+01
32.000000 -34.000000 4.353369E+01
32.000000 -36.000000 4.309453E+01
32.000000 -38.000000 2.766060E+01
32.000000 -40.000000 1.809731E+00
34.000000 40.000000 1.102045E+02
34.000000 38.000000 7.708680E+01
34.000000 36.000000 3.917580E+01
34.000000 34.000000 -4.635372E-01
34.000000 32.000000 -2.038023E+01
34.000000 30.000000 -1.821831E+01
34.000000 28.000000 2.301065E+00
34.000000 26.000000 1.981178E+01
34.000000 24.000000 3.411875E+01
34.000000 22.000000 4.545652E+01
34.000000 20.000000 4.677362E+01
34.000000 18.000000 4.011613E+01
34.000000 16.000000 2.761157E+01
34.000000 14.000000 3.892376E+00
34.000000 12.000000 -3.113497E+01
34.000000 10.000000 -6.224818E+01
34.000000 8.000000 -7.015138E+01
34.000000 6.000000 -6.012705E+01
34.000000 4.000000 -4.210662E+01
34.000000 2.000000 -2.845542E+01
34.000000 0.000000 -1.293982E+01
34.000000 -2.000000 1.392618E+01
34.000000 -4.000000 5.668947E+01
34.000000 -6.000000 1.121916E+02
34.000000 -8.000000 1.546311E+02
34.000000 -10.000000 1.615746E+02
34.000000 -12.000000 1.135005E+02
34.000000 -14.000000 4.178056E+01
34.000000 -16.000000 -1.907965E+01
34.000000 -18.000000 -4.706327E+01
34.000000 -20.000000 -4.127271E+01
34.000000 -22.000000 -1.948205E+01
34.000000 -24.000000 5.111435E+00
34.000000 -26.000000 2.313117E+01
34.000000 -28.000000 2.778616E+01
34.000000 -30.000000 3.035264E+01
34.000000 -32.000000 3.862217E+01
34.000000 -34.000000 4.880185E+01
34.000000 -36.000000 4.370220E+01
34.000000 -38.000000 2.659643E+01
34.000000 -40.000000 2.071102E+00
36.000000 40.000000 1.124450E+02
36.000000 38.000000 8.049257E+01
36.000000 36.000000 4.167587E+01
36.000000 34.000000 -4.153738E+00
36.000000 32.000000 -3.233864E+01
36.000000 30.000000 -3.335374E+01
36.000000 28.000000 -1.019931E+01
36.000000 26.000000 1.452816E+01
36.000000 24.000000 3.859541E+01
36.000000 22.000000 5.676598E+01
36.000000 20.000000 6.235136E+01
36.000000 18.000000 5.565324E+01
36.000000 16.000000 4.066024E+01
36.000000 14.000000 1.595063E+01
36.000000 12.000000 -2.323201E+01
36.000000 10.000000 -5.364456E+01
36.000000 8.000000 -5.677271E+01
36.000000 6.000000 -4.298684E+01
36.000000 4.000000 -2.491386E+01
36.000000 2.000000 -1.441584E+01
36.000000 0.000000 -6.282623E+00
36.000000 -2.000000 9.966284E+00
36.000000 -4.000000 4.258011E+01
36.000000 -6.000000 9.233937E+01
36.000000 -8.000000 1.346019E+02
36.000000 -10.000000 1.467126E+02
36.000000 -12.000000 1.087729E+02
36.000000 -14.000000 4.821955E+01
36.000000 -16.000000 -4.724161E+00
36.000000 -18.000000 -3.021328E+01
36.000000 -20.000000 -2.497972E+01
36.000000 -22.000000 -5.012230E+00
36.000000 -24.000000 1.830637E+01
36.000000 -26.000000 3.569506E+01
36.000000 -28.000000 4.017450E+01
36.000000 -30.000000 4.140979E+01
36.000000 -32.000000 4.647787E+01
36.000000 -34.000000 5.113533E+01
36.000000 -36.000000 4.158595E+01
36.000000 -38.000000 2.439207E+01
36.000000 -40.000000 2.322474E+00
38.000000 40.000000 1.116993E+02
38.000000 38.000000 8.279784E+01
38.000000 36.000000 4.547535E+01
38.000000 34.000000 -1.203493E+00
38.000000 32.000000 -3.320056E+01
38.000000 30.000000 -3.712526E+01
38.000000 28.000000 -1.420400E+01
38.000000 26.000000 1.265870E+01
38.000000 24.000000 4.104331E+01
38.000000 22.000000 6.289266E+01
38.000000 20.000000 7.199763E+01
38.000000 18.000000 6.436828E+01
38.000000 16.000000 4.491617E+01
38.000000 14.000000 1.582432E+01
38.000000 12.000000 -2.497968E+01
38.000000 10.000000 -5.219267E+01
38.000000 8.000000 -5.073578E+01
38.000000 6.000000 -3.656168E+01
38.000000 4.000000 -1.898281E+01
38.000000 2.000000 -9.200106E+00
38.000000 0.000000 -5.043301E+00
38.000000 -2.000000 4.451643E+00
38.000000 -4.000000 2.892534E+01
38.000000 -6.000000 7.190385E+01
38.000000 -8.000000 1.094498E+02
38.000000 -10.000000 1.223597E+02
38.000000 -12.000000 9.551277E+01
38.000000 -14.000000 5.320690E+01
38.000000 -16.000000 1.587480E+01
38.000000 -18.000000 -5.915546E-01
38.000000 -20.000000 5.703232E+00
38.000000 -22.000000 2.267696E+01
38.000000 -24.000000 4.107904E+01
38.000000 -26.000000 5.276179E+01
38.000000 -28.000000 5.302684E+01
38.000000 -30.000000 5.146207E+01
38.000000 -32.000000 5.244646E+01
38.000000 -34.000000 5.158868E+01
38.000000 -36.000000 3.781590E+01
38.000000 -38.000000 2.161329E+01
38.000000 -40.000000 2.902637E+00
40.000000 40.000000 1.064413E+02
40.000000 38.000000 8.310133E+01
40.000000 36.000000 5.153355E+01
40.000000 34.000000 1.063392E+01
40.000000 32.000000 -1.969964E+01
40.000000 30.000000 -2.634510E+01
40.000000 28.000000 -9.428152E+00
40.000000 26.000000 1.256707E+01
40.000000 24.000000 3.811081E+01
40.000000 22.000000 5.828960E+01
40.000000 20.000000 6.702302E+01
40.000000 18.000000 5.928337E+01
40.000000 16.000000 3.766528E+01
40.000000 14.000000 6.421085E+00
40.000000 12.000000 -2.887703E+01
40.000000 10.000000 -5.065849E+01
40.000000 8.000000 -4.659678E+01
40.000000 6.000000 -3.302025E+01
40.000000 4.000000 -1.596685E+01
40.000000 2.000000 -6.423354E+00
40.000000 0.000000 -4.448413E+00
40.000000 -2.000000 -5.192280E-01
40.000000 -4.000000 1.482018E+01
40.000000 -6.000000 4.735980E+01
40.000000 -8.000000 7.760140E+01
40.000000 -10.000000 8.939531E+01
40.000000 -12.000000 7.561897E+01
40.000000 -14.000000 5.431243E+01
40.000000 -16.000000 3.695708E+01
40.000000 -18.000000 3.260551E+01
40.000000 -20.000000 4.128631E+01
40.000000 -22.000000 5.406680E+01
40.000000 -24.000000 6.450326E+01
40.000000 -26.000000 6.854951E+01
40.000000 -28.000000 6.337246E+01
40.000000 -30.000000 5.820277E+01
40.000000 -32.000000 5.637025E+01
40.000000 -34.000000 5.198522E+01
40.000000 -36.000000 3.554612E+01
40.000000 -38.000000 2.045120E+01
40.000000 -40.000000 4.449326E+00
42.000000 40.000000 9.837182E+01
42.000000 38.000000 8.171654E+01
42.000000 36.000000 5.917188E+01
42.000000 34.000000 2.781906E+01
42.000000 32.000000 7.373085E-01
42.000000 30.000000 -9.094900E+00
42.000000 28.000000 -4.096756E-01
42.000000 26.000000 1.244789E+01
42.000000 24.000000 2.963993E+01
42.000000 22.000000 4.569718E+01
