-28.000000 16.000000 -9.543965E+00
-28.000000 14.000000 -7.219046E+00
-28.000000 12.000000 5.481436E+00
-28.000000 10.000000 1.967821E+01
-28.000000 8.000000 2.521553E+01
-28.000000 6.000000 1.889792E+01
-28.000000 4.000000 3.912758E-01
-28.000000 2.000000 -1.923120E+01
-28.000000 0.000000 -2.711233E+01
-28.000000 -2.000000 -1.810425E+01
-28.000000 -4.000000 4.236159E+00
-28.000000 -6.000000 2.490661E+01
-28.000000 -8.000000 2.774343E+01
-28.000000 -10.000000 2.646191E+01
-28.000000 -12.000000 3.099469E+01
-28.000000 -14.000000 3.640598E+01
-28.000000 -16.000000 3.667936E+01
-28.000000 -18.000000 3.328979E+01
-28.000000 -20.000000 3.280845E+01
-28.000000 -22.000000 3.784364E+01
-28.000000 -24.000000 3.966667E+01
-28.000000 -26.000000 3.483637E+01
-28.000000 -28.000000 2.378807E+01
-28.000000 -30.000000 1.822226E+01
-28.000000 -32.000000 2.347018E+01
-28.000000 -34.000000 3.241090E+01
-28.000000 -36.000000 3.582913E+01
-28.000000 -38.000000 3.678699E+01
-28.000000 -40.000000 3.593078E+01
-26.000000 40.000000 1.887691E+00
-26.000000 38.000000 1.078663E+01
-26.000000 36.000000 1.411320E+01
-26.000000 34.000000 9.764475E+00
-26.000000 32.000000 1.026939E+00
-26.000000 30.000000 -3.879054E+00
-26.000000 28.000000 2.538836E+00
-26.000000 26.000000 1.819291E+01
-26.000000 24.000000 3.482286E+01
-26.000000 22.000000 2.892343E+01
-26.000000 20.000000 1.547983E+01
-26.000000 18.000000 1.075311E+00
-26.000000 16.000000 -8.591926E+00
-26.000000 14.000000 -6.936471E+00
-26.000000 12.000000 3.850640E+00
-26.000000 10.000000 1.460565E+01
-26.000000 8.000000 1.852755E+01
-26.000000 6.000000 1.151600E+01
-26.000000 4.000000 -9.454128E+00
-26.000000 2.000000 -2.966542E+01
-26.000000 0.000000 -3.410246E+01
-26.000000 -2.000000 -2.015037E+01
-26.000000 -4.000000 5.814075E+00
-26.000000 -6.000000 2.538177E+01
-26.000000 -8.000000 2.192780E+01
-26.000000 -10.000000 1.588457E+01
-26.000000 -12.000000 2.313323E+01
-26.000000 -14.000000 3.324313E+01
-26.000000 -16.000000 3.403034E+01
-26.000000 -18.000000 2.841460E+01
-26.000000 -20.000000 2.658785E+01
-26.000000 -22.000000 3.368035E+01
-26.000000 -24.000000 3.884013E+01
-26.000000 -26.000000 3.219312E+01
-26.000000 -28.000000 1.947099E+01
-26.000000 -30.000000 1.526047E+01
-26.000000 -32.000000 2.230916E+01
-26.000000 -34.000000 3.251205E+01
-26.000000 -36.000000 3.640854E+01
-26.000000 -38.000000 3.722557E+01
-26.000000 -40.000000 3.650077E+01
-24.000000 40.000000 -4.649263E+00
-24.000000 38.000000 5.118011E+00
-24.000000 36.000000 8.383125E+00
-24.000000 34.000000 4.742756E+00
-24.000000 32.000000 -3.638336E+00
-24.000000 30.000000 -9.285425E+00
-24.000000 28.000000 -4.287275E+00
-24.000000 26.000000 1.050456E+01
-24.000000 24.000000 2.491673E+01
-24.000000 22.000000 2.039048E+01
-24.000000 20.000000 8.265136E+00
-24.000000 18.000000 -2.641216E+00
-24.000000 16.000000 -9.038728E+00
-24.000000 14.000000 -7.225880E+00
-24.000000 12.000000 3.653417E-01
-24.000000 10.000000 7.454833E+00
-24.000000 8.000000 9.302786E+00
-24.000000 6.000000 1.987131E+00
-24.000000 4.000000 -1.831928E+01
-24.000000 2.000000 -3.581796E+01
-24.000000 0.000000 -3.449531E+01
-24.000000 -2.000000 -1.460797E+01
-24.000000 -4.000000 1.234615E+01
-24.000000 -6.000000 2.433881E+01
-24.000000 -8.000000 1.178127E+01
-24.000000 -10.000000 -6.525571E-01
-24.000000 -12.000000 8.371236E+00
-24.000000 -14.000000 2.186063E+01
-24.000000 -16.000000 2.346626E+01
-24.000000 -18.000000 1.619907E+01
-24.000000 -20.000000 1.396807E+01
-24.000000 -22.000000 2.346126E+01
-24.000000 -24.000000 3.357281E+01
-24.000000 -26.000000 2.753636E+01
-24.000000 -28.000000 1.259427E+01
-24.000000 -30.000000 9.783199E+00
-24.000000 -32.000000 1.901358E+01
-24.000000 -34.000000 3.179288E+01
-24.000000 -36.000000 3.717891E+01
-24.000000 -38.000000 3.785421E+01
-24.000000 -40.000000 3.683033E+01
-22.000000 40.000000 -1.481217E+01
-22.000000 38.000000 -6.827938E+00
-22.000000 36.000000 -3.504330E+00
-22.000000 34.000000 -4.295521E+00
-22.000000 32.000000 -8.498489E+00
-22.000000 30.000000 -1.131565E+01
-22.000000 28.000000 -7.652076E+00
-22.000000 26.000000 2.810993E+00
-22.000000 24.000000 1.350301E+01
-22.000000 22.000000 8.485535E+00
-22.000000 20.000000 -3.728858E+00
-22.000000 18.000000 -1.175911E+01
-22.000000 16.000000 -1.403674E+01
-22.000000 14.000000 -1.100213E+01
-22.000000 12.000000 -4.365834E+00
-22.000000 10.000000 -3.402820E-01
-22.000000 8.000000 2.222590E-01
-22.000000 6.000000 -5.653362E+00
-22.000000 4.000000 -2.259615E+01
-22.000000 2.000000 -3.607037E+01
-22.000000 0.000000 -3.124537E+01
-22.000000 -2.000000 -8.217506E+00
-22.000000 -4.000000 2.006713E+01
-22.000000 -6.000000 2.622219E+01
-22.000000 -8.000000 4.267936E+00
-22.000000 -10.000000 -1.605976E+01
-22.000000 -12.000000 -1.016278E+01
-22.000000 -14.000000 1.808341E+00
-22.000000 -16.000000 3.103467E+00
-22.000000 -18.000000 -3.246974E+00
-22.000000 -20.000000 -1.777079E+00
-22.000000 -22.000000 1.192238E+01
-22.000000 -24.000000 2.522055E+01
-22.000000 -26.000000 2.041015E+01
-22.000000 -28.000000 5.669204E+00
-22.000000 -30.000000 2.608675E+00
-22.000000 -32.000000 1.308492E+01
-22.000000 -34.000000 2.826448E+01
-22.000000 -36.000000 3.644761E+01
-22.000000 -38.000000 3.840176E+01
-22.000000 -40.000000 3.704618E+01
-20.000000 40.000000 -2.624024E+01
-20.000000 38.000000 -1.973987E+01
-20.000000 36.000000 -1.619838E+01
-20.000000 34.000000 -1.485619E+01
-20.000000 32.000000 -1.492605E+01
-20.000000 30.000000 -1.501713E+01
-20.000000 28.000000 -1.240163E+01
-20.000000 26.000000 -4.672585E+00
-20.000000 24.000000 2.538527E+00
-20.000000 22.000000 -4.804998E+00
-20.000000 20.000000 -1.731222E+01
-20.000000 18.000000 -2.171340E+01
-20.000000 16.000000 -1.968883E+01
-20.000000 14.000000 -1.567679E+01
-20.000000 12.000000 -9.203930E+00
-20.000000 10.000000 -6.608706E+00
-20.000000 8.000000 -5.788489E+00
-20.000000 6.000000 -9.663267E+00
-20.000000 4.000000 -2.292827E+01
-20.000000 2.000000 -3.259885E+01
-20.000000 0.000000 -2.614424E+01
-20.000000 -2.000000 -2.174058E+00
-20.000000 -4.000000 2.481469E+01
-20.000000 -6.000000 2.563890E+01
-20.000000 -8.000000 -2.740271E+00
-20.000000 -10.000000 -2.931000E+01
-20.000000 -12.000000 -2.971823E+01
-20.000000 -14.000000 -2.219457E+01
-20.000000 -16.000000 -2.087681E+01
-20.000000 -18.000000 -2.404020E+01
-20.000000 -20.000000 -1.735840E+01
-20.000000 -22.000000 1.079763E+00
-20.000000 -24.000000 1.557189E+01
-20.000000 -26.000000 1.255522E+01
-20.000000 -28.000000 -4.504766E-01
-20.000000 -30.000000 -4.008685E+00
-20.000000 -32.000000 5.918330E+00
-20.000000 -34.000000 2.189772E+01
-20.000000 -36.000000 3.317038E+01
-20.000000 -38.000000 3.770034E+01
-20.000000 -40.000000 3.762223E+01
-18.000000 40.000000 -3.517813E+01
-18.000000 38.000000 -3.064324E+01
-18.000000 36.000000 -2.792054E+01
-18.000000 34.000000 -2.645235E+01
-18.000000 32.000000 -2.512469E+01
-18.000000 30.000000 -2.473002E+01
-18.000000 28.000000 -2.283133E+01
-18.000000 26.000000 -1.540535E+01
-18.000000 24.000000 -1.049029E+01
-18.000000 22.000000 -1.870404E+01
-18.000000 20.000000 -2.884382E+01
-18.000000 18.000000 -2.842643E+01
-18.000000 16.000000 -2.196553E+01
-18.000000 14.000000 -1.607147E+01
-18.000000 12.000000 -9.925418E+00
-18.000000 10.000000 -7.266265E+00
-18.000000 8.000000 -6.435677E+00
-18.000000 6.000000 -8.965844E+00
-18.000000 4.000000 -1.959885E+01
-18.000000 2.000000 -2.627165E+01
-18.000000 0.000000 -1.875262E+01
-18.000000 -2.000000 2.946853E+00
-18.000000 -4.000000 2.278661E+01
-18.000000 -6.000000 1.735437E+01
-18.000000 -8.000000 -1.214961E+01
-18.000000 -10.000000 -3.980489E+01
-18.000000 -12.000000 -4.218940E+01
-18.000000 -14.000000 -3.749291E+01
-18.000000 -16.000000 -3.623123E+01
-18.000000 -18.000000 -3.814032E+01
-18.000000 -20.000000 -2.997419E+01
-18.000000 -22.000000 -9.023728E+00
-18.000000 -24.000000 6.871671E+00
-18.000000 -26.000000 5.290318E+00
-18.000000 -28.000000 -7.349383E+00
-18.000000 -30.000000 -1.032564E+01
-18.000000 -32.000000 -1.416530E+00
-18.000000 -34.000000 1.394769E+01
-18.000000 -36.000000 2.784720E+01
-18.000000 -38.000000 3.569383E+01
-18.000000 -40.000000 3.875879E+01
-16.000000 40.000000 -3.595966E+01
-16.000000 38.000000 -3.659360E+01
-16.000000 36.000000 -3.850506E+01
-16.000000 34.000000 -3.937894E+01
-16.000000 32.000000 -4.025866E+01
-16.000000 30.000000 -4.171678E+01
-16.000000 28.000000 -4.035608E+01
-16.000000 26.000000 -3.305011E+01
-16.000000 24.000000 -2.833013E+01
-16.000000 22.000000 -3.178512E+01
-16.000000 20.000000 -3.565970E+01
-16.000000 18.000000 -2.845348E+01
-16.000000 16.000000 -1.767344E+01
-16.000000 14.000000 -9.369859E+00
-16.000000 12.000000 -5.030952E+00
-16.000000 10.000000 -5.585070E+00
-16.000000 8.000000 -8.166233E+00
-16.000000 6.000000 -9.616565E+00
-16.000000 4.000000 -1.509597E+01
-16.000000 2.000000 -1.643192E+01
-16.000000 0.000000 -8.485134E+00
-16.000000 -2.000000 7.046532E+00
-16.000000 -4.000000 1.795155E+01
-16.000000 -6.000000 8.718809E+00
-16.000000 -8.000000 -1.708049E+01
-16.000000 -10.000000 -3.939949E+01
-16.000000 -12.000000 -3.797972E+01
-16.000000 -14.000000 -3.433755E+01
-16.000000 -16.000000 -3.550980E+01
-16.000000 -18.000000 -4.021670E+01
-16.000000 -20.000000 -3.609470E+01
-16.000000 -22.000000 -1.773334E+01
-16.000000 -24.000000 -1.927642E+00
-16.000000 -26.000000 -3.443592E+00
-16.000000 -28.000000 -1.585428E+01
-16.000000 -30.000000 -1.783796E+01
-16.000000 -32.000000 -8.596965E+00
-16.000000 -34.000000 6.737410E+00
-16.000000 -36.000000 2.269649E+01
-16.000000 -38.000000 3.370849E+01
-16.000000 -40.000000 4.058227E+01
-14.000000 40.000000 -2.730921E+01
-14.000000 38.000000 -3.416149E+01
-14.000000 36.000000 -4.358843E+01
-14.000000 34.000000 -5.057252E+01
-14.000000 32.000000 -5.694844E+01
-14.000000 30.000000 -6.205307E+01
-14.000000 28.000000 -6.176810E+01
-14.000000 26.000000 -5.407411E+01
-14.000000 24.000000 -4.643108E+01
-14.000000 22.000000 -4.054413E+01
-14.000000 20.000000 -3.653853E+01
-14.000000 18.000000 -2.261334E+01
-14.000000 16.000000 -1.033963E+01
-14.000000 14.000000 -2.242786E+00
-14.000000 12.000000 -2.672402E+00
-14.000000 10.000000 -1.190113E+01
-14.000000 8.000000 -1.869365E+01
-14.000000 6.000000 -1.678580E+01
-14.000000 4.000000 -1.115517E+01
-14.000000 2.000000 -3.092208E+00
-14.000000 0.000000 6.693912E+00
-14.000000 -2.000000 1.554517E+01
-14.000000 -4.000000 1.970485E+01
-14.000000 -6.000000 9.348307E+00
-14.000000 -8.000000 -9.567495E+00
-14.000000 -10.000000 -2.216102E+01
-14.000000 -12.000000 -1.663759E+01
-14.000000 -14.000000 -1.318618E+01
-14.000000 -16.000000 -1.872092E+01
-14.000000 -18.000000 -3.017424E+01
-14.000000 -20.000000 -3.506680E+01
-14.000000 -22.000000 -2.359811E+01
-14.000000 -24.000000 -1.006865E+01
-14.000000 -26.000000 -1.206030E+01
-14.000000 -28.000000 -2.272662E+01
-14.000000 -30.000000 -2.446459E+01
-14.000000 -32.000000 -1.398459E+01
-14.000000 -34.000000 2.197801E+00
-14.000000 -36.000000 1.913312E+01
-14.000000 -38.000000 3.269617E+01
-14.000000 -40.000000 4.291267E+01
-12.000000 40.000000 -1.273459E+01
-12.000000 38.000000 -2.277726E+01
-12.000000 36.000000 -3.813992E+01
-12.000000 34.000000 -5.401425E+01
-12.000000 32.000000 -6.782996E+01
-12.000000 30.000000 -7.805950E+01
-12.000000 28.000000 -7.971148E+01
-12.000000 26.000000 -6.960714E+01
-12.000000 24.000000 -5.563366E+01
-12.000000 22.000000 -4.007746E+01
-12.000000 20.000000 -2.962519E+01
-12.000000 18.000000 -1.346716E+01
-12.000000 16.000000 -3.654715E+00
-12.000000 14.000000 -2.780666E-01
-12.000000 12.000000 -8.366509E+00
-12.000000 10.000000 -2.775666E+01
-12.000000 8.000000 -3.715582E+01
-12.000000 6.000000 -3.145039E+01
-12.000000 4.000000 -1.203173E+01
-12.000000 2.000000 6.436042E+00
-12.000000 0.000000 1.858706E+01
-12.000000 -2.000000 2.455384E+01
-12.000000 -4.000000 2.826119E+01
-12.000000 -6.000000 2.267657E+01
-12.000000 -8.000000 1.085890E+01
-12.000000 -10.000000 6.028799E+00
-12.000000 -12.000000 1.370071E+01
-12.000000 -14.000000 1.674531E+01
-12.000000 -16.000000 6.728398E+00
-12.000000 -18.000000 -1.216036E+01
-12.000000 -20.000000 -2.566830E+01
-12.000000 -22.000000 -2.082754E+01
-12.000000 -24.000000 -1.072372E+01
-12.000000 -26.000000 -1.310538E+01
-12.000000 -28.000000 -2.355984E+01
-12.000000 -30.000000 -2.607123E+01
-12.000000 -32.000000 -1.490601E+01
-12.000000 -34.000000 1.430965E+00
-12.000000 -36.000000 1.762043E+01
-12.000000 -38.000000 3.219555E+01
-12.000000 -40.000000 4.413193E+01
-10.000000 40.000000 4.358946E+00
-10.000000 38.000000 -4.516523E+00
-10.000000 36.000000 -2.218813E+01
-10.000000 34.000000 -4.510124E+01
-10.000000 32.000000 -6.544473E+01
-10.000000 30.000000 -8.207977E+01
-10.000000 28.000000 -8.587731E+01
-10.000000 26.000000 -7.201186E+01
-10.000000 24.000000 -5.163522E+01
-10.000000 22.000000 -3.071449E+01
-10.000000 20.000000 -1.741053E+01
-10.000000 18.000000 -2.879082E+00
-10.000000 16.000000 4.249628E+00
-10.000000 14.000000 1.850654E+00
-10.000000 12.000000 -1.286643E+01
-10.000000 10.000000 -3.857694E+01
-10.000000 8.000000 -4.972962E+01
-10.000000 6.000000 -4.499221E+01
-10.000000 4.000000 -1.985107E+01
-10.000000 2.000000 1.978877E+00
-10.000000 0.000000 1.294957E+01
-10.000000 -2.000000 1.987322E+01
-10.000000 -4.000000 3.094851E+01
-10.000000 -6.000000 3.796585E+01
-10.000000 -8.000000 3.429820E+01
-10.000000 -10.000000 3.389619E+01
-10.000000 -12.000000 4.086166E+01
-10.000000 -14.000000 4.359697E+01
-10.000000 -16.000000 3.190908E+01
-10.000000 -18.000000 1.015799E+01
-10.000000 -20.000000 -6.257367E+00
-10.000000 -22.000000 -6.240447E+00
-10.000000 -24.000000 -4.195089E-01
-10.000000 -26.000000 -4.652001E+00
-10.000000 -28.000000 -1.614020E+01
-10.000000 -30.000000 -1.861167E+01
-10.000000 -32.000000 -8.598281E+00
-10.000000 -34.000000 5.444703E+00
-10.000000 -36.000000 1.900910E+01
-10.000000 -38.000000 3.122209E+01
-10.000000 -40.000000 4.201797E+01
-8.000000 40.000000 2.185785E+01
-8.000000 38.000000 1.665947E+01
-8.000000 36.000000 3.598499E-01
-8.000000 34.000000 -2.392732E+01
-8.000000 32.000000 -4.721588E+01
-8.000000 30.000000 -6.864937E+01
-8.000000 28.000000 -7.432131E+01
-8.000000 26.000000 -5.894714E+01
-8.000000 24.000000 -3.595576E+01
-8.000000 22.000000 -1.683828E+01
-8.000000 20.000000 -5.967489E+00
-8.000000 18.000000 5.237240E+00
-8.000000 16.000000 1.043019E+01
-8.000000 14.000000 7.312060E+00
-8.000000 12.000000 -5.355036E+00
-8.000000 10.000000 -2.695868E+01
-8.000000 8.000000 -3.616521E+01
-8.000000 6.000000 -3.587548E+01
-8.000000 4.000000 -2.314493E+01
-8.000000 2.000000 -1.351237E+01
-8.000000 0.000000 -1.123700E+01
-8.000000 -2.000000 -4.856732E+00
-8.000000 -4.000000 1.557568E+01
-8.000000 -6.000000 3.887009E+01
-8.000000 -8.000000 4.543978E+01
-8.000000 -10.000000 4.908774E+01
-8.000000 -12.000000 5.517918E+01
-8.000000 -14.000000 5.887424E+01
-8.000000 -16.000000 4.936020E+01
-8.000000 -18.000000 3.140347E+01
-8.000000 -20.000000 1.667766E+01
-8.000000 -22.000000 1.322083E+01
-8.000000 -24.000000 1.528494E+01
-8.000000 -26.000000 8.938203E+00
-8.000000 -28.000000 -2.478610E+00
-8.000000 -30.000000 -3.825815E+00
-8.000000 -32.000000 2.788190E+00
-8.000000 -34.000000 1.317870E+01
-8.000000 -36.000000 2.317937E+01
-8.000000 -38.000000 3.067329E+01
-8.000000 -40.000000 3.728235E+01
-6.000000 40.000000 3.771338E+01
-6.000000 38.000000 3.591262E+01
-6.000000 36.000000 2.445988E+01
-6.000000 34.000000 5.006077E+00
-6.000000 32.000000 -1.652881E+01
-6.000000 30.000000 -3.811411E+01
-6.000000 28.000000 -4.563988E+01
-6.000000 26.000000 -3.325835E+01
-6.000000 24.000000 -1.328673E+01
-6.000000 22.000000 -2.002477E+00
-6.000000 20.000000 2.231745E+00
-6.000000 18.000000 9.076895E+00
-6.000000 16.000000 1.416227E+01
-6.000000 14.000000 1.601922E+01
-6.000000 12.000000 1.406227E+01
-6.000000 10.000000 8.530696E+00
-6.000000 8.000000 4.968637E+00
-6.000000 6.000000 -7.670755E-01
-6.000000 4.000000 -1.103470E+01
-6.000000 2.000000 -2.497449E+01
-6.000000 0.000000 -3.776862E+01
-6.000000 -2.000000 -3.590286E+01
-6.000000 -4.000000 -1.098030E+01
-6.000000 -6.000000 2.408484E+01
-6.000000 -8.000000 3.828412E+01
-6.000000 -10.000000 4.495727E+01
-6.000000 -12.000000 5.259290E+01
-6.000000 -14.000000 5.794467E+01
-6.000000 -16.000000 5.226166E+01
-6.000000 -18.000000 4.007023E+01
-6.000000 -20.000000 2.899912E+01
-6.000000 -22.000000 2.664031E+01
-6.000000 -24.000000 2.873585E+01
-6.000000 -26.000000 2.251901E+01
-6.000000 -28.000000 1.118185E+01
-6.000000 -30.000000 9.395761E+00
-6.000000 -32.000000 1.296181E+01
-6.000000 -34.000000 2.086396E+01
-6.000000 -36.000000 2.787141E+01
-6.000000 -38.000000 3.166526E+01
-6.000000 -40.000000 3.311030E+01
-4.000000 40.000000 4.971762E+01
-4.000000 38.000000 5.050429E+01
-4.000000 36.000000 4.501331E+01
-4.000000 34.000000 3.389443E+01
-4.000000 32.000000 1.870837E+01
-4.000000 30.000000 1.497797E+00
-4.000000 28.000000 -6.803418E+00
-4.000000 26.000000 -3.062668E-01
-4.000000 24.000000 1.258583E+01
-4.000000 22.000000 1.298864E+01
-4.000000 20.000000 9.642302E+00
-4.000000 18.000000 1.253870E+01
-4.000000 16.000000 1.815753E+01
-4.000000 14.000000 2.598011E+01
-4.000000 12.000000 3.623681E+01
-4.000000 10.000000 4.931212E+01
-4.000000 8.000000 5.208140E+01
-4.000000 6.000000 4.107413E+01
-4.000000 4.000000 1.145466E+01
-4.000000 2.000000 -2.275513E+01
-4.000000 0.000000 -4.814927E+01
-4.000000 -2.000000 -5.092589E+01
-4.000000 -4.000000 -2.979345E+01
-4.000000 -6.000000 2.195826E+00
-4.000000 -8.000000 1.757993E+01
-4.000000 -10.000000 2.616411E+01
-4.000000 -12.000000 3.500259E+01
-4.000000 -14.000000 4.150026E+01
-4.000000 -16.000000 3.891449E+01
-4.000000 -18.000000 2.946346E+01
-4.000000 -20.000000 2.195412E+01
-4.000000 -22.000000 2.497695E+01
-4.000000 -24.000000 3.250849E+01
-4.000000 -26.000000 3.024370E+01
-4.000000 -28.000000 1.943844E+01
-4.000000 -30.000000 1.598411E+01
-4.000000 -32.000000 1.771410E+01
-4.000000 -34.000000 2.433960E+01
-4.000000 -36.000000 3.023034E+01
-4.000000 -38.000000 3.295145E+01
-4.000000 -40.000000 3.102917E+01
-2.000000 40.000000 5.633304E+01
-2.000000 38.000000 5.837013E+01
-2.000000 36.000000 5.662361E+01
-2.000000 34.000000 5.345628E+01
-2.000000 32.000000 4.712956E+01
-2.000000 30.000000 3.786392E+01
-2.000000 28.000000 3.160510E+01
-2.000000 26.000000 3.179284E+01
-2.000000 24.000000 3.691085E+01
-2.000000 22.000000 2.841185E+01
-2.000000 20.000000 2.038161E+01
-2.000000 18.000000 1.972828E+01
-2.000000 16.000000 2.337089E+01
-2.000000 14.000000 3.235034E+01
-2.000000 12.000000 4.901935E+01
-2.000000 10.000000 7.398209E+01
-2.000000 8.000000 8.409671E+01
-2.000000 6.000000 7.346345E+01
-2.000000 4.000000 3.469934E+01
-2.000000 2.000000 -9.276321E+00
-2.000000 0.000000 -4.089625E+01
-2.000000 -2.000000 -4.846585E+01
-2.000000 -4.000000 -3.501906E+01
-2.000000 -6.000000 -1.449999E+01
-2.000000 -8.000000 -5.837415E+00
-2.000000 -10.000000 -1.111817E+00
-2.000000 -12.000000 6.522240E+00
-2.000000 -14.000000 1.318000E+01
-2.000000 -16.000000 1.252863E+01
-2.000000 -18.000000 4.117482E+00
-2.000000 -20.000000 -1.076632E+00
-2.000000 -22.000000 9.133665E+00
-2.000000 -24.000000 2.625806E+01
-2.000000 -26.000000 2.997169E+01
-2.000000 -28.000000 2.122055E+01
-2.000000 -30.000000 1.689082E+01
-2.000000 -32.000000 1.706741E+01
-2.000000 -34.000000 2.267324E+01
-2.000000 -36.000000 2.940803E+01
-2.000000 -38.000000 3.290325E+01
-2.000000 -40.000000 2.971849E+01
0.000000 40.000000 5.781899E+01
0.000000 38.000000 5.782160E+01
0.000000 36.000000 5.542285E+01
0.000000 34.000000 5.608982E+01
0.000000 32.000000 5.820176E+01
0.000000 30.000000 5.708113E+01
0.000000 28.000000 5.378222E+01
0.000000 26.000000 5.039256E+01
0.000000 24.000000 5.161358E+01
0.000000 22.000000 3.974239E+01
0.000000 20.000000 3.085198E+01
0.000000 18.000000 2.771072E+01
0.000000 16.000000 2.729355E+01
0.000000 14.000000 3.185253E+01
0.000000 12.000000 4.645119E+01
0.000000 10.000000 7.224409E+01
0.000000 8.000000 8.896274E+01
0.000000 6.000000 8.532605E+01
0.000000 4.000000 5.039243E+01
0.000000 2.000000 8.500402E+00
0.000000 0.000000 -2.336310E+01
0.000000 -2.000000 -3.496099E+01
0.000000 -4.000000 -2.691544E+01
0.000000 -6.000000 -1.910082E+01
0.000000 -8.000000 -2.466093E+01
0.000000 -10.000000 -3.192081E+01
0.000000 -12.000000 -2.711266E+01
0.000000 -14.000000 -2.144842E+01
0.000000 -16.000000 -2.086381E+01
0.000000 -18.000000 -2.590294E+01
0.000000 -20.000000 -2.731081E+01
0.000000 -22.000000 -9.995220E+00
0.000000 -24.000000 1.629234E+01
0.000000 -26.000000 2.579841E+01
0.000000 -28.000000 1.835743E+01
0.000000 -30.000000 1.261788E+01
0.000000 -32.000000 1.335849E+01
0.000000 -34.000000 1.993960E+01
0.000000 -36.000000 2.765310E+01
0.000000 -38.000000 3.102505E+01
0.000000 -40.000000 2.631334E+01
2.000000 40.000000 5.593450E+01
2.000000 38.000000 4.990484E+01
2.000000 36.000000 4.185866E+01
2.000000 34.000000 3.911707E+01
2.000000 32.000000 4.365246E+01
2.000000 30.000000 4.618317E+01
2.000000 28.000000 4.491092E+01
2.000000 26.000000 4.214718E+01
2.000000 24.000000 4.406871E+01
2.000000 22.000000 3.462366E+01
2.000000 20.000000 2.807441E+01
2.000000 18.000000 2.676732E+01
2.000000 16.000000 2.465041E+01
2.000000 14.000000 2.465069E+01
2.000000 12.000000 3.335767E+01
2.000000 10.000000 5.218417E+01
2.000000 8.000000 6.850114E+01
2.000000 6.000000 7.149353E+01
2.000000 4.000000 5.094677E+01
2.000000 2.000000 2.038399E+01
2.000000 0.000000 -3.694867E+00
2.000000 -2.000000 -1.303851E+01
2.000000 -4.000000 -8.681386E+00
2.000000 -6.000000 -1.425644E+01
2.000000 -8.000000 -3.553665E+01
2.000000 -10.000000 -5.557384E+01
2.000000 -12.000000 -5.468455E+01
2.000000 -14.000000 -5.095034E+01
2.000000 -16.000000 -4.827639E+01
2.000000 -18.000000 -4.707745E+01
2.000000 -20.000000 -4.251881E+01
2.000000 -22.000000 -2.114534E+01
2.000000 -24.000000 8.829327E+00
2.000000 -26.000000 2.208912E+01
2.000000 -28.000000 1.439278E+01
2.000000 -30.000000 6.602262E+00
2.000000 -32.000000 9.248317E+00
2.000000 -34.000000 1.849494E+01
2.000000 -36.000000 2.559653E+01
2.000000 -38.000000 2.638662E+01
2.000000 -40.000000 1.904620E+01
4.000000 40.000000 5.016568E+01
4.000000 38.000000 3.601690E+01
4.000000 36.000000 1.899941E+01
4.000000 34.000000 5.483873E+00
4.000000 32.000000 3.647612E+00
4.000000 30.000000 3.840658E+00
4.000000 28.000000 4.289762E+00
4.000000 26.000000 5.744252E+00
4.000000 24.000000 1.019014E+01
4.000000 22.000000 6.904594E+00
4.000000 20.000000 5.001799E+00
4.000000 18.000000 9.366513E+00
4.000000 16.000000 1.070043E+01
4.000000 14.000000 1.220250E+01
4.000000 12.000000 1.971298E+01
4.000000 10.000000 3.135802E+01
4.000000 8.000000 3.798203E+01
4.000000 6.000000 3.863318E+01
4.000000 4.000000 2.931982E+01
4.000000 2.000000 1.286231E+01
4.000000 0.000000 4.373972E+00
4.000000 -2.000000 7.114799E+00
4.000000 -4.000000 1.257188E+01
4.000000 -6.000000 -1.495539E+00
4.000000 -8.000000 -3.170952E+01
4.000000 -10.000000 -5.832180E+01
4.000000 -12.000000 -6.054537E+01
4.000000 -14.000000 -5.780827E+01
4.000000 -16.000000 -5.309872E+01
4.000000 -18.000000 -4.855745E+01
4.000000 -20.000000 -4.148410E+01
4.000000 -22.000000 -2.006654E+01
4.000000 -24.000000 8.556495E+00
4.000000 -26.000000 2.160830E+01
4.000000 -28.000000 1.255697E+01
4.000000 -30.000000 3.566572E+00
4.000000 -32.000000 6.244123E+00
4.000000 -34.000000 1.624198E+01
4.000000 -36.000000 2.150320E+01
4.000000 -38.000000 1.868113E+01
4.000000 -40.000000 8.139286E+00
6.000000 40.000000 3.830424E+01
6.000000 38.000000 1.621381E+01
6.000000 36.000000 -9.710968E+00
6.000000 34.000000 -3.546204E+01
6.000000 32.000000 -4.661982E+01
6.000000 30.000000 -5.094349E+01
6.000000 28.000000 -4.894247E+01
6.000000 26.000000 -4.189130E+01
6.000000 24.000000 -3.614157E+01
6.000000 22.000000 -3.321873E+01
6.000000 20.000000 -2.967918E+01
6.000000 18.000000 -1.864483E+01
6.000000 16.000000 -1.062139E+01
6.000000 14.000000 -3.909008E+00
6.000000 12.000000 4.497279E+00
6.000000 10.000000 9.598658E+00
6.000000 8.000000 4.851357E+00
6.000000 6.000000 -2.681643E+00
6.000000 4.000000 -1.263942E+01
6.000000 2.000000 -1.753208E+01
6.000000 0.000000 -6.258009E+00
6.000000 -2.000000 1.717620E+01
6.000000 -4.000000 3.380007E+01
6.000000 -6.000000 2.190209E+01
6.000000 -8.000000 -8.939699E+00
6.000000 -10.000000 -3.470182E+01
6.000000 -12.000000 -3.731725E+01
6.000000 -14.000000 -3.236006E+01
6.000000 -16.000000 -2.733056E+01
6.000000 -18.000000 -2.783303E+01
6.000000 -20.000000 -2.611648E+01
6.000000 -22.000000 -9.148729E+00
6.000000 -24.000000 1.410697E+01
6.000000 -26.000000 2.300062E+01
6.000000 -28.000000 1.038412E+01
6.000000 -30.000000 6.809711E-01
6.000000 -32.000000 3.753315E+00
6.000000 -34.000000 1.334235E+01
6.000000 -36.000000 1.534489E+01
6.000000 -38.000000 8.781340E+00
6.000000 -40.000000 -4.745083E+00
8.000000 40.000000 2.053081E+01
8.000000 38.000000 -7.001385E+00
8.000000 36.000000 -3.833739E+01
8.000000 34.000000 -7.140418E+01
8.000000 32.000000 -8.907872E+01
8.000000 30.000000 -9.711683E+01
8.000000 28.000000 -9.467636E+01
8.000000 26.000000 -8.226012E+01
8.000000 24.000000 -7.623088E+01
8.000000 22.000000 -7.074042E+01
8.000000 20.000000 -6.448283E+01
8.000000 18.000000 -4.830051E+01
8.000000 16.000000 -3.472872E+01
8.000000 14.000000 -2.359100E+01
8.000000 12.000000 -1.511126E+01
8.000000 10.000000 -1.637489E+01
8.000000 8.000000 -3.032190E+01
8.000000 6.000000 -4.658198E+01
8.000000 4.000000 -6.191699E+01
8.000000 2.000000 -5.945208E+01
8.000000 0.000000 -2.918440E+01
8.000000 -2.000000 1.890898E+01
8.000000 -4.000000 5.455460E+01
8.000000 -6.000000 5.082659E+01
8.000000 -8.000000 2.092626E+01
8.000000 -10.000000 8.287554E-01
8.000000 -12.000000 4.068839E+00
8.000000 -14.000000 1.632249E+01
8.000000 -16.000000 2.094333E+01
8.000000 -18.000000 1.037688E+01
8.000000 -20.000000 -2.874732E-01
8.000000 -22.000000 6.264453E+00
8.000000 -24.000000 1.943011E+01
8.000000 -26.000000 2.074093E+01
8.000000 -28.000000 4.044255E+00
8.000000 -30.000000 -5.676905E+00
8.000000 -32.000000 -8.300781E-02
8.000000 -34.000000 9.933526E+00
8.000000 -36.000000 6.694721E+00
8.000000 -38.000000 -3.088694E+00
8.000000 -40.000000 -1.759997E+01
10.000000 40.000000 -1.082700E+00
10.000000 38.000000 -2.957970E+01
10.000000 36.000000 -6.123600E+01
10.000000 34.000000 -9.472851E+01
10.000000 32.000000 -1.133970E+02
10.000000 30.000000 -1.214620E+02
10.000000 28.000000 -1.183698E+02
10.000000 26.000000 -1.038629E+02
10.000000 24.000000 -9.652391E+01
10.000000 22.000000 -9.062562E+01
10.000000 20.000000 -8.663029E+01
10.000000 18.000000 -7.063185E+01
10.000000 16.000000 -5.626270E+01
10.000000 14.000000 -4.515033E+01
10.000000 12.000000 -3.905270E+01
10.000000 10.000000 -4.613494E+01
10.000000 8.000000 -6.491346E+01
10.000000 6.000000 -8.790354E+01
10.000000 4.000000 -1.080633E+02
10.000000 2.000000 -1.006338E+02
10.000000 0.000000 -5.334490E+01
10.000000 -2.000000 1.782625E+01
10.000000 -4.000000 7.266109E+01
10.000000 -6.000000 7.460388E+01
10.000000 -8.000000 4.157335E+01
10.000000 -10.000000 2.633276E+01
10.000000 -12.000000 4.326636E+01
10.000000 -14.000000 6.875094E+01
10.000000 -16.000000 7.384238E+01
10.000000 -18.000000 5.218804E+01
10.000000 -20.000000 2.664187E+01
10.000000 -22.000000 1.953657E+01
10.000000 -24.000000 2.077973E+01
10.000000 -26.000000 1.470799E+01
10.000000 -28.000000 -3.666368E+00
10.000000 -30.000000 -1.300235E+01
10.000000 -32.000000 -6.131172E+00
10.000000 -34.000000 3.142437E+00
10.000000 -36.000000 -4.727505E+00
10.000000 -38.000000 -1.605087E+01
10.000000 -40.000000 -3.037291E+01
12.000000 40.000000 -2.296653E+01
12.000000 38.000000 -4.853727E+01
12.000000 36.000000 -7.662446E+01
12.000000 34.000000 -1.048364E+02
12.000000 32.000000 -1.184974E+02
12.000000 30.000000 -1.216999E+02
12.000000 28.000000 -1.157942E+02
12.000000 26.000000 -1.008971E+02
12.000000 24.000000 -9.037127E+01
12.000000 22.000000 -8.543304E+01
12.000000 20.000000 -8.682749E+01
12.000000 18.000000 -7.703305E+01
12.000000 16.000000 -6.789659E+01
12.000000 14.000000 -6.304718E+01
12.000000 12.000000 -6.377465E+01
12.000000 10.000000 -7.675834E+01
12.000000 8.000000 -9.674431E+01
12.000000 6.000000 -1.227606E+02
12.000000 4.000000 -1.453674E+02
12.000000 2.000000 -1.330295E+02
12.000000 0.000000 -7.137073E+01
12.000000 -2.000000 1.721940E+01
12.000000 -4.000000 8.179825E+01
12.000000 -6.000000 8.184133E+01
12.000000 -8.000000 4.494679E+01
12.000000 -10.000000 3.134882E+01
12.000000 -12.000000 6.482181E+01
12.000000 -14.000000 1.058625E+02
12.000000 -16.000000 1.149416E+02
12.000000 -18.000000 8.401465E+01
12.000000 -20.000000 4.354952E+01
12.000000 -22.000000 2.505272E+01
12.000000 -24.000000 1.901262E+01
12.000000 -26.000000 7.964846E+00
12.000000 -28.000000 -1.068869E+01
12.000000 -30.000000 -2.028586E+01
12.000000 -32.000000 -1.555205E+01
12.000000 -34.000000 -9.148056E+00
12.000000 -36.000000 -1.759472E+01
12.000000 -38.000000 -2.802176E+01
12.000000 -40.000000 -4.259475E+01
14.000000 40.000000 -4.054889E+01
14.000000 38.000000 -6.105154E+01
14.000000 36.000000 -8.319189E+01
14.000000 34.000000 -1.026730E+02
14.000000 32.000000 -1.088281E+02
14.000000 30.000000 -1.065150E+02
14.000000 28.000000 -9.590699E+01
14.000000 26.000000 -7.837301E+01
14.000000 24.000000 -6.325870E+01
14.000000 22.000000 -6.147102E+01
14.000000 20.000000 -6.836085E+01
14.000000 18.000000 -6.626879E+01
14.000000 16.000000 -6.506968E+01
14.000000 14.000000 -6.891116E+01
14.000000 12.000000 -7.777202E+01
14.000000 10.000000 -9.447529E+01
14.000000 8.000000 -1.153680E+02
14.000000 6.000000 -1.444691E+02
14.000000 4.000000 -1.730520E+02
14.000000 2.000000 -1.627878E+02
14.000000 0.000000 -9.702137E+01
14.000000 -2.000000 1.647811E-01
14.000000 -4.000000 6.824827E+01
14.000000 -6.000000 6.755410E+01
14.000000 -8.000000 3.400432E+01
14.000000 -10.000000 2.516247E+01
14.000000 -12.000000 7.627599E+01
14.000000 -14.000000 1.337225E+02
14.000000 -16.000000 1.460488E+02
14.000000 -18.000000 1.036294E+02
14.000000 -20.000000 4.867386E+01
14.000000 -22.000000 2.218769E+01
14.000000 -24.000000 1.334219E+01
14.000000 -26.000000 -4.604521E-01
14.000000 -28.000000 -2.048847E+01
14.000000 -30.000000 -3.155824E+01
14.000000 -32.000000 -3.083437E+01
14.000000 -34.000000 -2.641854E+01
14.000000 -36.000000 -3.079460E+01
14.000000 -38.000000 -3.812867E+01
14.000000 -40.000000 -5.276577E+01
16.000000 40.000000 -4.967567E+01
16.000000 38.000000 -6.532759E+01
16.000000 36.000000 -8.081940E+01
16.000000 34.000000 -9.173677E+01
16.000000 32.000000 -9.204110E+01
16.000000 30.000000 -8.643154E+01
16.000000 28.000000 -7.152692E+01
16.000000 26.000000 -5.087858E+01
16.000000 24.000000 -3.052986E+01
16.000000 22.000000 -3.138933E+01
16.000000 20.000000 -4.192614E+01
16.000000 18.000000 -4.522350E+01
16.000000 16.000000 -5.012565E+01
16.000000 14.000000 -6.027982E+01
16.000000 12.000000 -7.427978E+01
16.000000 10.000000 -9.213681E+01
16.000000 8.000000 -1.159386E+02
16.000000 6.000000 -1.514192E+02
16.000000 4.000000 -1.906331E+02
16.000000 2.000000 -1.902912E+02
16.000000 0.000000 -1.357427E+02
16.000000 -2.000000 -4.659583E+01
16.000000 -4.000000 2.398972E+01
16.000000 -6.000000 3.680997E+01
16.000000 -8.000000 1.959375E+01
16.000000 -10.000000 2.425148E+01
16.000000 -12.000000 9.347350E+01
16.000000 -14.000000 1.656503E+02
16.000000 -16.000000 1.765463E+02
16.000000 -18.000000 1.190115E+02
16.000000 -20.000000 4.754900E+01
16.000000 -22.000000 1.169918E+01
16.000000 -24.000000 1.385400E+00
16.000000 -26.000000 -1.190479E+01
16.000000 -28.000000 -3.417787E+01
16.000000 -30.000000 -4.811184E+01
16.000000 -32.000000 -5.032055E+01
16.000000 -34.000000 -4.526678E+01
16.000000 -36.000000 -4.425599E+01
16.000000 -38.000000 -4.814974E+01
16.000000 -40.000000 -6.210299E+01
18.000000 40.000000 -4.840963E+01
18.000000 38.000000 -6.226891E+01
18.000000 36.000000 -7.301435E+01
18.000000 34.000000 -7.843578E+01
18.000000 32.000000 -7.525515E+01
18.000000 30.000000 -6.828626E+01
18.000000 28.000000 -5.183494E+01
18.000000 26.000000 -2.997546E+01
18.000000 24.000000 -5.910150E+00
18.000000 22.000000 -7.541348E+00
18.000000 20.000000 -1.886894E+01
18.000000 18.000000 -2.454315E+01
18.000000 16.000000 -3.206955E+01
18.000000 14.000000 -4.470060E+01
18.000000 12.000000 -6.136436E+01
18.000000 10.000000 -8.056095E+01
18.000000 8.000000 -1.082039E+02
18.000000 6.000000 -1.493915E+02
18.000000 4.000000 -1.957366E+02
18.000000 2.000000 -2.056698E+02
18.000000 0.000000 -1.699690E+02
18.000000 -2.000000 -9.807181E+01
18.000000 -4.000000 -2.822418E+01
18.000000 -6.000000 4.842361E+00
18.000000 -8.000000 1.259222E+01
18.000000 -10.000000 3.866844E+01
18.000000 -12.000000 1.225690E+02
18.000000 -14.000000 2.005397E+02
18.000000 -16.000000 2.032191E+02
18.000000 -18.000000 1.299222E+02
18.000000 -20.000000 4.223656E+01
18.000000 -22.000000 -5.587425E+00
18.000000 -24.000000 -1.867184E+01
18.000000 -26.000000 -2.766024E+01
18.000000 -28.000000 -4.859644E+01
18.000000 -30.000000 -6.448202E+01
18.000000 -32.000000 -6.773942E+01
18.000000 -34.000000 -6.223748E+01
18.000000 -36.000000 -5.838101E+01
18.000000 -38.000000 -6.000044E+01
18.000000 -40.000000 -7.247607E+01
20.000000 40.000000 -3.917821E+01
20.000000 38.000000 -5.355617E+01
20.000000 36.000000 -6.257876E+01
20.000000 34.000000 -6.677932E+01
20.000000 32.000000 -6.198344E+01
20.000000 30.000000 -5.556943E+01
20.000000 28.000000 -4.073968E+01
20.000000 26.000000 -1.946683E+01
20.000000 24.000000 4.674291E+00
20.000000 22.000000 2.389371E+00
20.000000 20.000000 -8.463205E+00
20.000000 18.000000 -1.474673E+01
20.000000 16.000000 -2.211165E+01
20.000000 14.000000 -3.441625E+01
20.000000 12.000000 -5.265377E+01
20.000000 10.000000 -7.444235E+01
20.000000 8.000000 -1.031926E+02
20.000000 6.000000 -1.416938E+02
20.000000 4.000000 -1.838188E+02
20.000000 2.000000 -1.985868E+02
20.000000 0.000000 -1.760738E+02
20.000000 -2.000000 -1.188936E+02
20.000000 -4.000000 -5.327488E+01
20.000000 -6.000000 -7.076058E+00
20.000000 -8.000000 1.955738E+01
20.000000 -10.000000 6.482816E+01
20.000000 -12.000000 1.531262E+02
20.000000 -14.000000 2.226339E+02
20.000000 -16.000000 2.117701E+02
20.000000 -18.000000 1.253345E+02
20.000000 -20.000000 2.702827E+01
20.000000 -22.000000 -2.848504E+01
20.000000 -24.000000 -4.288488E+01
20.000000 -26.000000 -4.503227E+01
20.000000 -28.000000 -5.884700E+01
20.000000 -30.000000 -7.407199E+01
20.000000 -32.000000 -7.956834E+01
20.000000 -34.000000 -7.589645E+01
20.000000 -36.000000 -7.166702E+01
20.000000 -38.000000 -7.182438E+01
20.000000 -40.000000 -8.309377E+01
22.000000 40.000000 -2.644969E+01
22.000000 38.000000 -4.173817E+01
22.000000 36.000000 -5.160165E+01
22.000000 34.000000 -5.839664E+01
22.000000 32.000000 -5.432611E+01
22.000000 30.000000 -4.968495E+01
22.000000 28.000000 -3.756940E+01
22.000000 26.000000 -1.897021E+01
22.000000 24.000000 1.125347E+00
22.000000 22.000000 -2.042884E+00
22.000000 20.000000 -1.309027E+01
22.000000 18.000000 -1.966479E+01
22.000000 16.000000 -2.572653E+01
22.000000 14.000000 -3.695986E+01
22.000000 12.000000 -5.458429E+01
22.000000 10.000000 -7.522983E+01
22.000000 8.000000 -9.927619E+01
22.000000 6.000000 -1.264782E+02
22.000000 4.000000 -1.537100E+02
22.000000 2.000000 -1.659714E+02
22.000000 0.000000 -1.490513E+02
22.000000 -2.000000 -9.850069E+01
22.000000 -4.000000 -3.310734E+01
22.000000 -6.000000 1.597734E+01
22.000000 -8.000000 4.163898E+01
22.000000 -10.000000 8.219587E+01
22.000000 -12.000000 1.560882E+02
22.000000 -14.000000 2.098080E+02
22.000000 -16.000000 1.887668E+02
22.000000 -18.000000 9.842169E+01
22.000000 -20.000000 6.463642E-01
22.000000 -22.000000 -5.150679E+01
22.000000 -24.000000 -6.054097E+01
22.000000 -26.000000 -5.433055E+01
22.000000 -28.000000 -5.995895E+01
22.000000 -30.000000 -7.426760E+01
22.000000 -32.000000 -8.392650E+01
22.000000 -34.000000 -8.357551E+01
22.000000 -36.000000 -8.067469E+01
22.000000 -38.000000 -8.051038E+01
22.000000 -40.000000 -9.253976E+01
24.000000 40.000000 -1.364212E+01
24.000000 38.000000 -3.128220E+01
24.000000 36.000000 -4.427571E+01
24.000000 34.000000 -5.500609E+01
24.000000 32.000000 -5.288009E+01
24.000000 30.000000 -4.992488E+01
24.000000 28.000000 -3.949302E+01
24.000000 26.000000 -2.518646E+01
24.000000 24.000000 -1.108901E+01
24.000000 22.000000 -1.573016E+01
24.000000 20.000000 -2.838453E+01
24.000000 18.000000 -3.409012E+01
24.000000 16.000000 -3.731719E+01
24.000000 14.000000 -4.579643E+01
24.000000 12.000000 -6.049218E+01
24.000000 10.000000 -7.807446E+01
24.000000 8.000000 -9.655282E+01
24.000000 6.000000 -1.109646E+02
24.000000 4.000000 -1.205638E+02
24.000000 2.000000 -1.244775E+02
24.000000 0.000000 -1.064809E+02
24.000000 -2.000000 -5.317056E+01
24.000000 -4.000000 2.266848E+01
24.000000 -6.000000 7.076613E+01
24.000000 -8.000000 7.358754E+01
24.000000 -10.000000 8.021221E+01
24.000000 -12.000000 1.194743E+02
24.000000 -14.000000 1.532516E+02
24.000000 -16.000000 1.309769E+02
24.000000 -18.000000 5.385266E+01
24.000000 -20.000000 -2.496071E+01
24.000000 -22.000000 -6.276880E+01
24.000000 -24.000000 -6.197937E+01
24.000000 -26.000000 -4.834214E+01
24.000000 -28.000000 -5.096328E+01
24.000000 -30.000000 -6.577381E+01
24.000000 -32.000000 -7.856249E+01
24.000000 -34.000000 -8.153208E+01
24.000000 -36.000000 -8.267985E+01
24.000000 -38.000000 -8.498831E+01
24.000000 -40.000000 -9.979322E+01
26.000000 40.000000 -2.512787E+00
26.000000 38.000000 -2.472098E+01
26.000000 36.000000 -4.304312E+01
26.000000 34.000000 -5.829414E+01
26.000000 32.000000 -5.774817E+01
26.000000 30.000000 -5.553689E+01
26.000000 28.000000 -4.587966E+01
26.000000 26.000000 -3.461238E+01
26.000000 24.000000 -2.502359E+01
26.000000 22.000000 -3.118335E+01
26.000000 20.000000 -4.398429E+01
26.000000 18.000000 -4.607704E+01
26.000000 16.000000 -4.457758E+01
26.000000 14.000000 -4.844705E+01
26.000000 12.000000 -6.064829E+01
26.000000 10.000000 -7.897230E+01
26.000000 8.000000 -9.676479E+01
26.000000 6.000000 -1.060961E+02
26.000000 4.000000 -1.109706E+02
26.000000 2.000000 -1.087619E+02
26.000000 0.000000 -8.107934E+01
26.000000 -2.000000 -1.165319E+01
26.000000 -4.000000 8.542944E+01
26.000000 -6.000000 1.323288E+02
26.000000 -8.000000 1.010728E+02
26.000000 -10.000000 6.246182E+01
26.000000 -12.000000 6.209205E+01
26.000000 -14.000000 7.673116E+01
26.000000 -16.000000 6.303005E+01
26.000000 -18.000000 1.424621E+01
26.000000 -20.000000 -3.313856E+01
26.000000 -22.000000 -5.224290E+01
26.000000 -24.000000 -4.462833E+01
26.000000 -26.000000 -2.940576E+01
26.000000 -28.000000 -3.476339E+01
26.000000 -30.000000 -4.973187E+01
26.000000 -32.000000 -6.348809E+01
26.000000 -34.000000 -6.914134E+01
26.000000 -36.000000 -7.685054E+01
26.000000 -38.000000 -8.471409E+01
26.000000 -40.000000 -1.038410E+02
28.000000 40.000000 5.729991E+00
28.000000 38.000000 -2.169025E+01
28.000000 36.000000 -4.712913E+01
28.000000 34.000000 -6.799097E+01
28.000000 32.000000 -6.908592E+01
28.000000 30.000000 -6.514634E+01
28.000000 28.000000 -5.458865E+01
28.000000 26.000000 -4.315357E+01
28.000000 24.000000 -3.553252E+01
28.000000 22.000000 -4.085440E+01
28.000000 20.000000 -4.959464E+01
28.000000 18.000000 -4.600333E+01
28.000000 16.000000 -4.069535E+01
28.000000 14.000000 -4.362357E+01
28.000000 12.000000 -5.797055E+01
28.000000 10.000000 -8.146634E+01
28.000000 8.000000 -1.027103E+02
28.000000 6.000000 -1.157606E+02
28.000000 4.000000 -1.275140E+02
28.000000 2.000000 -1.245639E+02
28.000000 0.000000 -8.631692E+01
28.000000 -2.000000 -2.671597E+00
28.000000 -4.000000 9.980642E+01
28.000000 -6.000000 1.423968E+02
28.000000 -8.000000 1.014543E+02
28.000000 -10.000000 4.840172E+01
28.000000 -12.000000 3.345135E+01
28.000000 -14.000000 4.149410E+01
28.000000 -16.000000 3.784768E+01
28.000000 -18.000000 9.953340E+00
28.000000 -20.000000 -1.840233E+01
28.000000 -22.000000 -2.709437E+01
28.000000 -24.000000 -1.824241E+01
28.000000 -26.000000 -7.437050E+00
28.000000 -28.000000 -1.593455E+01
28.000000 -30.000000 -2.938686E+01
28.000000 -32.000000 -4.261592E+01
28.000000 -34.000000 -4.977467E+01
28.000000 -36.000000 -6.388748E+01
28.000000 -38.000000 -7.866491E+01
28.000000 -40.000000 -1.040933E+02
30.000000 40.000000 9.237042E+00
30.000000 38.000000 -2.176670E+01
30.000000 36.000000 -5.333806E+01
30.000000 34.000000 -7.997236E+01
30.000000 32.000000 -8.316807E+01
30.000000 30.000000 -7.685157E+01
30.000000 28.000000 -6.328569E+01
30.000000 26.000000 -4.887801E+01
30.000000 24.000000 -3.939634E+01
30.000000 22.000000 -4.058292E+01
30.000000 20.000000 -4.326359E+01
30.000000 18.000000 -3.511494E+01
30.000000 16.000000 -3.021149E+01
30.000000 14.000000 -3.750510E+01
30.000000 12.000000 -5.898425E+01
30.000000 10.000000 -8.845685E+01
30.000000 8.000000 -1.098142E+02
30.000000 6.000000 -1.261895E+02
30.000000 4.000000 -1.438901E+02
30.000000 2.000000 -1.425837E+02
30.000000 0.000000 -1.026217E+02
30.000000 -2.000000 -2.298097E+01
30.000000 -4.000000 6.015339E+01
30.000000 -6.000000 9.321654E+01
30.000000 -8.000000 6.985528E+01
30.000000 -10.000000 4.158761E+01
30.000000 -12.000000 4.743405E+01
30.000000 -14.000000 6.945808E+01
30.000000 -16.000000 7.290588E+01
30.000000 -18.000000 4.455817E+01
30.000000 -20.000000 9.304399E+00
30.000000 -22.000000 -3.237580E+00
30.000000 -24.000000 5.274191E+00
30.000000 -26.000000 1.213288E+01
30.000000 -28.000000 1.289522E+00
30.000000 -30.000000 -1.047564E+01
30.000000 -32.000000 -2.204883E+01
30.000000 -34.000000 -2.889978E+01
30.000000 -36.000000 -4.705280E+01
30.000000 -38.000000 -6.751703E+01
30.000000 -40.000000 -9.983406E+01
32.000000 40.000000 7.463565E+00
32.000000 38.000000 -2.520185E+01
32.000000 36.000000 -5.920692E+01
32.000000 34.000000 -8.930338E+01
32.000000 32.000000 -9.420967E+01
32.000000 30.000000 -8.702402E+01
32.000000 28.000000 -7.058959E+01
32.000000 26.000000 -5.143154E+01
32.000000 24.000000 -3.654408E+01
32.000000 22.000000 -3.299511E+01
32.000000 20.000000 -3.079600E+01
32.000000 18.000000 -2.115429E+01
32.000000 16.000000 -2.010859E+01
32.000000 14.000000 -3.265422E+01
32.000000 12.000000 -5.978351E+01
32.000000 10.000000 -9.116556E+01
32.000000 8.000000 -1.071758E+02
32.000000 6.000000 -1.195354E+02
32.000000 4.000000 -1.362029E+02
32.000000 2.000000 -1.378650E+02
32.000000 0.000000 -1.049264E+02
32.000000 -2.000000 -4.351626E+01
32.000000 -4.000000 1.445603E+01
32.000000 -6.000000 3.595171E+01
32.000000 -8.000000 2.530111E+01
32.000000 -10.000000 2.394524E+01
32.000000 -12.000000 6.183549E+01
32.000000 -14.000000 1.072853E+02
32.000000 -16.000000 1.193335E+02
32.000000 -18.000000 8.580956E+01
32.000000 -20.000000 3.757278E+01
32.000000 -22.000000 1.578935E+01
32.000000 -24.000000 2.180716E+01
32.000000 -26.000000 2.648365E+01
32.000000 -28.000000 1.408047E+01
32.000000 -30.000000 3.234680E+00
32.000000 -32.000000 -5.829737E+00
32.000000 -34.000000 -1.083671E+01
32.000000 -36.000000 -3.048863E+01
32.000000 -38.000000 -5.379704E+01
32.000000 -40.000000 -9.050289E+01
34.000000 40.000000 3.192375E+00
34.000000 38.000000 -3.095212E+01
34.000000 36.000000 -6.452901E+01
34.000000 34.000000 -9.426236E+01
34.000000 32.000000 -9.897605E+01
34.000000 30.000000 -9.106834E+01
34.000000 28.000000 -7.286709E+01
34.000000 26.000000 -5.058175E+01
34.000000 24.000000 -3.010624E+01
34.000000 22.000000 -2.222491E+01
34.000000 20.000000 -1.886458E+01
34.000000 18.000000 -1.037783E+01
34.000000 16.000000 -1.273369E+01
34.000000 14.000000 -2.862899E+01
34.000000 12.000000 -5.570143E+01
34.000000 10.000000 -8.235486E+01
34.000000 8.000000 -8.982688E+01
34.000000 6.000000 -9.234996E+01
34.000000 4.000000 -1.012809E+02
34.000000 2.000000 -1.040128E+02
34.000000 0.000000 -8.008765E+01
34.000000 -2.000000 -4.136310E+01
34.000000 -4.000000 -7.286601E+00
34.000000 -6.000000 -3.088460E-01
34.000000 -8.000000 -1.566782E+01
34.000000 -10.000000 -1.017462E+01
34.000000 -12.000000 4.910664E+01
34.000000 -14.000000 1.135099E+02
34.000000 -16.000000 1.353593E+02
34.000000 -18.000000 1.014442E+02
34.000000 -20.000000 4.781613E+01
34.000000 -22.000000 2.238789E+01
34.000000 -24.000000 2.925262E+01
34.000000 -26.000000 3.542981E+01
34.000000 -28.000000 2.324826E+01
34.000000 -30.000000 1.251402E+01
34.000000 -32.000000 5.443934E+00
34.000000 -34.000000 2.556879E+00
34.000000 -36.000000 -1.553356E+01
34.000000 -38.000000 -3.925677E+01
34.000000 -40.000000 -7.741512E+01
36.000000 40.000000 -6.351175E-01
36.000000 38.000000 -3.631643E+01
36.000000 36.000000 -6.853372E+01
36.000000 34.000000 -9.436954E+01
36.000000 32.000000 -9.622025E+01
36.000000 30.000000 -8.740533E+01
36.000000 28.000000 -6.865384E+01
36.000000 26.000000 -4.597329E+01
36.000000 24.000000 -2.227629E+01
36.000000 22.000000 -1.129629E+01
36.000000 20.000000 -9.240100E+00
36.000000 18.000000 -3.782440E+00
36.000000 16.000000 -7.783896E+00
36.000000 14.000000 -2.242020E+01
36.000000 12.000000 -4.377555E+01
36.000000 10.000000 -6.154430E+01
36.000000 8.000000 -6.010655E+01
36.000000 6.000000 -5.230267E+01
36.000000 4.000000 -5.391816E+01
36.000000 2.000000 -5.791350E+01
36.000000 0.000000 -4.404953E+01
36.000000 -2.000000 -2.224198E+01
36.000000 -4.000000 -5.417310E+00
36.000000 -6.000000 -1.488561E+01
36.000000 -8.000000 -4.471731E+01
36.000000 -10.000000 -5.251029E+01
36.000000 -12.000000 9.421344E+00
36.000000 -14.000000 8.295200E+01
36.000000 -16.000000 1.108415E+02
36.000000 -18.000000 8.182646E+01
36.000000 -20.000000 3.466917E+01
36.000000 -22.000000 1.607286E+01
36.000000 -24.000000 3.059362E+01
36.000000 -26.000000 4.173418E+01
36.000000 -28.000000 3.138621E+01
36.000000 -30.000000 2.001698E+01
36.000000 -32.000000 1.275070E+01
36.000000 -34.000000 1.094460E+01
36.000000 -36.000000 -3.864658E+00
36.000000 -38.000000 -2.626807E+01
36.000000 -40.000000 -6.383019E+01
38.000000 40.000000 -3.975250E+00
38.000000 38.000000 -3.949421E+01
38.000000 36.000000 -6.874325E+01
38.000000 34.000000 -8.760024E+01
38.000000 32.000000 -8.423572E+01
38.000000 30.000000 -7.490506E+01
38.000000 28.000000 -5.717707E+01
38.000000 26.000000 -3.565045E+01
38.000000 24.000000 -1.148532E+01
38.000000 22.000000 -8.086321E-01
38.000000 20.000000 -1.957384E+00
38.000000 18.000000 -1.461962E+00
38.000000 16.000000 -7.435917E+00
38.000000 14.000000 -1.735766E+01
38.000000 12.000000 -2.943931E+01
38.000000 10.000000 -3.651784E+01
38.000000 8.000000 -2.906867E+01
38.000000 6.000000 -1.694988E+01
38.000000 4.000000 -1.770154E+01
38.000000 2.000000 -2.633253E+01
38.000000 0.000000 -2.286385E+01
38.000000 -2.000000 -9.298925E+00
38.000000 -4.000000 4.029553E+00
38.000000 -6.000000 -1.141146E+01
38.000000 -8.000000 -5.437335E+01
38.000000 -10.000000 -8.370013E+01
38.000000 -12.000000 -3.398640E+01
38.000000 -14.000000 3.583679E+01
38.000000 -16.000000 6.337141E+01
38.000000 -18.000000 4.176756E+01
38.000000 -20.000000 8.429253E+00
38.000000 -22.000000 4.856581E+00
38.000000 -24.000000 2.975003E+01
38.000000 -26.000000 4.557115E+01
38.000000 -28.000000 3.705903E+01
38.000000 -30.000000 2.510309E+01
38.000000 -32.000000 1.673861E+01
38.000000 -34.000000 1.531796E+01
38.000000 -36.000000 2.604805E+00
38.000000 -38.000000 -1.793424E+01
38.000000 -40.000000 -5.269935E+01
40.000000 40.000000 -7.342265E+00
40.000000 38.000000 -3.988239E+01
40.000000 36.000000 -6.404727E+01
40.000000 34.000000 -7.411911E+01
40.000000 32.000000 -6.372624E+01
40.000000 30.000000 -5.289623E+01
40.000000 28.000000 -3.724194E+01
40.000000 26.000000 -1.914952E+01
40.000000 24.000000 2.514977E+00
40.000000 22.000000 9.072961E+00
40.000000 20.000000 2.173923E+00
40.000000 18.000000 -4.083768E+00
40.000000 16.000000 -1.208122E+01
40.000000 14.000000 -1.727620E+01
40.000000 12.000000 -2.000184E+01
40.000000 10.000000 -1.763123E+01
40.000000 8.000000 -1.083441E+01
40.000000 6.000000 -5.435529E+00
40.000000 4.000000 -1.204543E+01
40.000000 2.000000 -2.368831E+01
40.000000 0.000000 -2.787084E+01
40.000000 -2.000000 -1.712008E+01
40.000000 -4.000000 2.767087E+00
40.000000 -6.000000 -4.027684E+00
40.000000 -8.000000 -4.420236E+01
40.000000 -10.000000 -7.692087E+01
40.000000 -12.000000 -4.721570E+01
40.000000 -14.000000 8.642144E-01
40.000000 -16.000000 1.989176E+01
40.000000 -18.000000 4.159847E+00
