-30.000000 36.000000 -4.909611E+00
-30.000000 34.000000 -1.589724E+01
-30.000000 32.000000 -1.545412E+01
-30.000000 30.000000 -1.544588E+01
-30.000000 28.000000 -2.350066E+01
-30.000000 26.000000 -2.968297E+01
-30.000000 24.000000 -1.654865E+01
-30.000000 22.000000 -7.888878E+00
-30.000000 20.000000 -3.779869E+00
-30.000000 18.000000 -4.850307E+00
-30.000000 16.000000 1.114273E-01
-30.000000 14.000000 -2.433041E+00
-30.000000 12.000000 -1.819351E+00
-30.000000 10.000000 1.126899E+01
-30.000000 8.000000 2.518967E+01
-30.000000 6.000000 3.064508E+01
-30.000000 4.000000 4.299647E+01
-30.000000 2.000000 6.006067E+01
-30.000000 0.000000 7.218265E+01
-30.000000 -2.000000 7.015837E+01
-30.000000 -4.000000 6.205223E+01
-30.000000 -6.000000 5.835694E+01
-30.000000 -8.000000 6.359694E+01
-30.000000 -10.000000 7.111057E+01
-30.000000 -12.000000 6.710512E+01
-30.000000 -14.000000 5.839137E+01
-30.000000 -16.000000 4.198411E+01
-30.000000 -18.000000 1.739413E+01
-30.000000 -20.000000 -4.136872E+00
-30.000000 -22.000000 -1.052369E+01
-30.000000 -24.000000 9.402182E+00
-30.000000 -26.000000 3.951554E+01
-30.000000 -28.000000 5.401916E+01
-30.000000 -30.000000 5.086548E+01
-30.000000 -32.000000 2.668615E+01
-30.000000 -34.000000 5.529826E+00
-30.000000 -36.000000 -9.551859E+00
-30.000000 -38.000000 -1.866083E+01
-30.000000 -40.000000 -2.413250E+01
-28.000000 40.000000 2.895477E+01
-28.000000 38.000000 1.663254E+01
-28.000000 36.000000 8.344784E-01
-28.000000 34.000000 -1.075896E+01
-28.000000 32.000000 -6.372692E+00
-28.000000 30.000000 -3.969770E+00
-28.000000 28.000000 -1.689615E+01
-28.000000 26.000000 -3.514765E+01
-28.000000 24.000000 -3.266745E+01
-28.000000 22.000000 -2.027946E+01
-28.000000 20.000000 -1.260574E+01
-28.000000 18.000000 -7.788860E+00
-28.000000 16.000000 2.083817E+00
-28.000000 14.000000 -1.795959E-01
-28.000000 12.000000 1.008438E+00
-28.000000 10.000000 1.593283E+01
-28.000000 8.000000 3.527578E+01
-28.000000 6.000000 4.700180E+01
-28.000000 4.000000 5.287415E+01
-28.000000 2.000000 6.687028E+01
-28.000000 0.000000 7.909124E+01
-28.000000 -2.000000 6.964671E+01
-28.000000 -4.000000 5.130658E+01
-28.000000 -6.000000 4.874444E+01
-28.000000 -8.000000 6.324937E+01
-28.000000 -10.000000 7.619622E+01
-28.000000 -12.000000 6.529343E+01
-28.000000 -14.000000 5.058723E+01
-28.000000 -16.000000 3.712339E+01
-28.000000 -18.000000 1.797724E+01
-28.000000 -20.000000 -2.363409E+00
-28.000000 -22.000000 -1.322275E+01
-28.000000 -24.000000 8.155231E+00
-28.000000 -26.000000 4.058331E+01
-28.000000 -28.000000 5.659615E+01
-28.000000 -30.000000 4.636893E+01
-28.000000 -32.000000 1.456714E+01
-28.000000 -34.000000 -4.930611E-01
-28.000000 -36.000000 -2.851643E+00
-28.000000 -38.000000 -1.130795E+01
-28.000000 -40.000000 -2.133657E+01
-26.000000 40.000000 3.372375E+01
-26.000000 38.000000 2.286261E+01
-26.000000 36.000000 6.003063E+00
-26.000000 34.000000 -6.895967E+00
-26.000000 32.000000 3.426645E+00
-26.000000 30.000000 1.258346E+01
-26.000000 28.000000 -3.765911E+00
-26.000000 26.000000 -3.979417E+01
-26.000000 24.000000 -4.984592E+01
-26.000000 22.000000 -2.742858E+01
-26.000000 20.000000 -1.260324E+01
-26.000000 18.000000 9.004025E+00
-26.000000 16.000000 2.242709E+01
-26.000000 14.000000 1.603291E+01
-26.000000 12.000000 1.478841E+01
-26.000000 10.000000 2.497991E+01
-26.000000 8.000000 4.020944E+01
-26.000000 6.000000 4.979835E+01
-26.000000 4.000000 4.518404E+01
-26.000000 2.000000 6.167448E+01
-26.000000 0.000000 7.718878E+01
-26.000000 -2.000000 5.725817E+01
-26.000000 -4.000000 2.059235E+01
-26.000000 -6.000000 2.381262E+01
-26.000000 -8.000000 5.960374E+01
-26.000000 -10.000000 8.247799E+01
-26.000000 -12.000000 6.082086E+01
-26.000000 -14.000000 3.513777E+01
-26.000000 -16.000000 2.723011E+01
-26.000000 -18.000000 1.695748E+01
-26.000000 -20.000000 -2.953186E+00
-26.000000 -22.000000 -1.830918E+01
-26.000000 -24.000000 1.120311E+01
-26.000000 -26.000000 4.409653E+01
-26.000000 -28.000000 5.536745E+01
-26.000000 -30.000000 3.952849E+01
-26.000000 -32.000000 4.374854E+00
-26.000000 -34.000000 -4.596322E+00
-26.000000 -36.000000 2.657637E+00
-26.000000 -38.000000 -4.986019E+00
-26.000000 -40.000000 -1.865755E+01
-24.000000 40.000000 3.188065E+01
-24.000000 38.000000 2.628279E+01
-24.000000 36.000000 8.348985E+00
-24.000000 34.000000 -4.386221E+00
-24.000000 32.000000 1.495586E+01
-24.000000 30.000000 3.320486E+01
-24.000000 28.000000 1.396647E+01
-24.000000 26.000000 -3.260503E+01
-24.000000 24.000000 -5.007877E+01
-24.000000 22.000000 -1.686418E+01
-24.000000 20.000000 3.465290E+00
-24.000000 18.000000 4.306809E+01
-24.000000 16.000000 6.004022E+01
-24.000000 14.000000 4.622404E+01
-24.000000 12.000000 3.869853E+01
-24.000000 10.000000 3.791044E+01
-24.000000 8.000000 4.084145E+01
-24.000000 6.000000 4.066002E+01
-24.000000 4.000000 2.270757E+01
-24.000000 2.000000 3.347141E+01
-24.000000 0.000000 4.627580E+01
-24.000000 -2.000000 2.660452E+01
-24.000000 -4.000000 -9.507593E+00
-24.000000 -6.000000 2.274971E+00
-24.000000 -8.000000 4.609348E+01
-24.000000 -10.000000 6.997502E+01
-24.000000 -12.000000 5.091793E+01
-24.000000 -14.000000 2.563523E+01
-24.000000 -16.000000 2.078098E+01
-24.000000 -18.000000 1.772840E+01
-24.000000 -20.000000 3.892399E+00
-24.000000 -22.000000 -9.732347E+00
-24.000000 -24.000000 9.987413E+00
-24.000000 -26.000000 3.487018E+01
-24.000000 -28.000000 4.195827E+01
-24.000000 -30.000000 2.922312E+01
-24.000000 -32.000000 3.867799E-01
-24.000000 -34.000000 -9.427893E+00
-24.000000 -36.000000 -2.192607E+00
-24.000000 -38.000000 -7.888529E+00
-24.000000 -40.000000 -1.833544E+01
-22.000000 40.000000 2.584000E+01
-22.000000 38.000000 2.343988E+01
-22.000000 36.000000 1.133267E+01
-22.000000 34.000000 2.664692E+00
-22.000000 32.000000 2.274275E+01
-22.000000 30.000000 3.982036E+01
-22.000000 28.000000 2.140655E+01
-22.000000 26.000000 -2.076087E+01
-22.000000 24.000000 -2.902728E+01
-22.000000 22.000000 9.832815E+00
-22.000000 20.000000 3.452647E+01
-22.000000 18.000000 7.075365E+01
-22.000000 16.000000 9.084371E+01
-22.000000 14.000000 7.843126E+01
-22.000000 12.000000 5.938865E+01
-22.000000 10.000000 4.208355E+01
-22.000000 8.000000 3.317572E+01
-22.000000 6.000000 2.301487E+01
-22.000000 4.000000 3.340950E+00
-22.000000 2.000000 2.938770E+00
-22.000000 0.000000 9.256365E+00
-22.000000 -2.000000 7.317015E+00
-22.000000 -4.000000 -4.082603E-01
-22.000000 -6.000000 1.462517E+01
-22.000000 -8.000000 4.151672E+01
-22.000000 -10.000000 5.571526E+01
-22.000000 -12.000000 4.541524E+01
-22.000000 -14.000000 2.948771E+01
-22.000000 -16.000000 2.411619E+01
-22.000000 -18.000000 1.977589E+01
-22.000000 -20.000000 8.650467E+00
-22.000000 -22.000000 -1.943042E+00
-22.000000 -24.000000 5.754718E+00
-22.000000 -26.000000 2.000508E+01
-22.000000 -28.000000 2.229157E+01
-22.000000 -30.000000 1.404130E+01
-22.000000 -32.000000 -4.755664E+00
-22.000000 -34.000000 -1.411680E+01
-22.000000 -36.000000 -8.968305E+00
-22.000000 -38.000000 -9.961431E+00
-22.000000 -40.000000 -1.696041E+01
-20.000000 40.000000 2.083029E+01
-20.000000 38.000000 1.683761E+01
-20.000000 36.000000 1.290706E+01
-20.000000 34.000000 1.032674E+01
-20.000000 32.000000 2.311293E+01
-20.000000 30.000000 2.957639E+01
-20.000000 28.000000 1.090987E+01
-20.000000 26.000000 -1.850049E+01
-20.000000 24.000000 -7.479023E+00
-20.000000 22.000000 3.316967E+01
-20.000000 20.000000 6.237719E+01
-20.000000 18.000000 8.964604E+01
-20.000000 16.000000 1.095329E+02
-20.000000 14.000000 1.006219E+02
-20.000000 12.000000 6.977756E+01
-20.000000 10.000000 3.610988E+01
-20.000000 8.000000 1.971196E+01
-20.000000 6.000000 4.952564E+00
-20.000000 4.000000 -9.593407E+00
-20.000000 2.000000 -1.029449E+01
-20.000000 0.000000 1.642208E+00
-20.000000 -2.000000 1.771344E+01
-20.000000 -4.000000 2.996862E+01
-20.000000 -6.000000 4.099716E+01
-20.000000 -8.000000 4.695490E+01
-20.000000 -10.000000 4.909572E+01
-20.000000 -12.000000 4.273120E+01
-20.000000 -14.000000 3.450824E+01
-20.000000 -16.000000 3.145906E+01
-20.000000 -18.000000 2.603021E+01
-20.000000 -20.000000 1.446787E+01
-20.000000 -22.000000 2.359813E+00
-20.000000 -24.000000 2.777829E+00
-20.000000 -26.000000 8.836355E+00
-20.000000 -28.000000 6.136159E+00
-20.000000 -30.000000 -8.221140E-01
-20.000000 -32.000000 -1.215521E+01
-20.000000 -34.000000 -1.712916E+01
-20.000000 -36.000000 -1.172404E+01
-20.000000 -38.000000 -1.058673E+01
-20.000000 -40.000000 -1.731999E+01
-18.000000 40.000000 1.747060E+01
-18.000000 38.000000 1.274293E+01
-18.000000 36.000000 1.190688E+01
-18.000000 34.000000 9.012402E+00
-18.000000 32.000000 1.240239E+01
-18.000000 30.000000 1.178969E+01
-18.000000 28.000000 -1.525467E+00
-18.000000 26.000000 -1.670337E+01
-18.000000 24.000000 7.719307E+00
-18.000000 22.000000 4.485557E+01
-18.000000 20.000000 6.916057E+01
-18.000000 18.000000 8.794420E+01
-18.000000 16.000000 1.070497E+02
-18.000000 14.000000 1.053896E+02
-18.000000 12.000000 7.432386E+01
-18.000000 10.000000 3.439178E+01
-18.000000 8.000000 1.692113E+01
-18.000000 6.000000 4.569115E+00
-18.000000 4.000000 -6.965549E+00
-18.000000 2.000000 -5.702278E+00
-18.000000 0.000000 1.394667E+01
-18.000000 -2.000000 3.787526E+01
-18.000000 -4.000000 5.158906E+01
-18.000000 -6.000000 5.176323E+01
-18.000000 -8.000000 4.310760E+01
-18.000000 -10.000000 3.650496E+01
-18.000000 -12.000000 3.642573E+01
-18.000000 -14.000000 3.672595E+01
-18.000000 -16.000000 3.873217E+01
-18.000000 -18.000000 3.714366E+01
-18.000000 -20.000000 2.786817E+01
-18.000000 -22.000000 1.481853E+01
-18.000000 -24.000000 1.077910E+01
-18.000000 -26.000000 9.714835E+00
-18.000000 -28.000000 4.447240E+00
-18.000000 -30.000000 -2.217692E+00
-18.000000 -32.000000 -1.151572E+01
-18.000000 -34.000000 -1.620999E+01
-18.000000 -36.000000 -1.453203E+01
-18.000000 -38.000000 -1.563342E+01
-18.000000 -40.000000 -2.328950E+01
-16.000000 40.000000 1.279878E+01
-16.000000 38.000000 9.030170E+00
-16.000000 36.000000 7.092655E+00
-16.000000 34.000000 8.611698E-01
-16.000000 32.000000 -1.702204E+00
-16.000000 30.000000 -2.966721E+00
-16.000000 28.000000 -4.931324E+00
-16.000000 26.000000 -8.685436E+00
-16.000000 24.000000 1.526169E+01
-16.000000 22.000000 4.026963E+01
-16.000000 20.000000 5.100469E+01
-16.000000 18.000000 6.103644E+01
-16.000000 16.000000 8.460441E+01
-16.000000 14.000000 9.837817E+01
-16.000000 12.000000 8.696428E+01
-16.000000 10.000000 6.250958E+01
-16.000000 8.000000 4.528979E+01
-16.000000 6.000000 2.756866E+01
-16.000000 4.000000 9.003178E+00
-16.000000 2.000000 5.325371E+00
-16.000000 0.000000 1.994751E+01
-16.000000 -2.000000 3.864694E+01
-16.000000 -4.000000 4.599579E+01
-16.000000 -6.000000 4.017976E+01
-16.000000 -8.000000 3.055493E+01
-16.000000 -10.000000 2.465317E+01
-16.000000 -12.000000 2.838159E+01
-16.000000 -14.000000 3.405441E+01
-16.000000 -16.000000 3.977412E+01
-16.000000 -18.000000 4.258426E+01
-16.000000 -20.000000 4.023235E+01
-16.000000 -22.000000 3.377674E+01
-16.000000 -24.000000 2.814125E+01
-16.000000 -26.000000 2.248884E+01
-16.000000 -28.000000 1.583577E+01
-16.000000 -30.000000 9.260158E+00
-16.000000 -32.000000 -2.777510E+00
-16.000000 -34.000000 -1.319862E+01
-16.000000 -36.000000 -1.938085E+01
-16.000000 -38.000000 -2.410697E+01
-16.000000 -40.000000 -3.222982E+01
-14.000000 40.000000 2.468034E+00
-14.000000 38.000000 -4.692078E-01
-14.000000 36.000000 -2.254551E+00
-14.000000 34.000000 -6.053988E+00
-14.000000 32.000000 -4.520271E+00
-14.000000 30.000000 -2.404560E+00
-14.000000 28.000000 1.988144E+00
-14.000000 26.000000 1.044655E+00
-14.000000 24.000000 1.108426E+01
-14.000000 22.000000 2.010456E+01
-14.000000 20.000000 2.100667E+01
-14.000000 18.000000 2.831603E+01
-14.000000 16.000000 6.199811E+01
-14.000000 14.000000 9.652778E+01
-14.000000 12.000000 1.135875E+02
-14.000000 10.000000 1.142955E+02
-14.000000 8.000000 9.491584E+01
-14.000000 6.000000 6.291083E+01
-14.000000 4.000000 2.884732E+01
-14.000000 2.000000 1.480518E+01
-14.000000 0.000000 1.961353E+01
-14.000000 -2.000000 2.982114E+01
-14.000000 -4.000000 3.089863E+01
-14.000000 -6.000000 2.426113E+01
-14.000000 -8.000000 1.795379E+01
-14.000000 -10.000000 1.514320E+01
-14.000000 -12.000000 1.940028E+01
-14.000000 -14.000000 2.555485E+01
-14.000000 -16.000000 3.077945E+01
-14.000000 -18.000000 3.393302E+01
-14.000000 -20.000000 3.774052E+01
-14.000000 -22.000000 3.948211E+01
-14.000000 -24.000000 3.610847E+01
-14.000000 -26.000000 3.107462E+01
-14.000000 -28.000000 2.609938E+01
-14.000000 -30.000000 2.233599E+01
-14.000000 -32.000000 6.448226E+00
-14.000000 -34.000000 -1.087055E+01
-14.000000 -36.000000 -2.257207E+01
-14.000000 -38.000000 -2.975046E+01
-14.000000 -40.000000 -3.875274E+01
-12.000000 40.000000 -1.447740E+01
-12.000000 38.000000 -1.653929E+01
-12.000000 36.000000 -1.395730E+01
-12.000000 34.000000 -7.388996E+00
-12.000000 32.000000 5.773525E+00
-12.000000 30.000000 1.449654E+01
-12.000000 28.000000 1.502335E+01
-12.000000 26.000000 1.641384E+00
-12.000000 24.000000 -6.210064E+00
-12.000000 22.000000 -4.286335E+00
-12.000000 20.000000 -1.106216E+00
-12.000000 18.000000 1.287563E+01
-12.000000 16.000000 5.985368E+01
-12.000000 14.000000 1.121816E+02
-12.000000 12.000000 1.445192E+02
-12.000000 10.000000 1.592943E+02
-12.000000 8.000000 1.389008E+02
-12.000000 6.000000 9.564336E+01
-12.000000 4.000000 4.688972E+01
-12.000000 2.000000 2.449985E+01
-12.000000 0.000000 2.761627E+01
-12.000000 -2.000000 3.555751E+01
-12.000000 -4.000000 3.189380E+01
-12.000000 -6.000000 2.152374E+01
-12.000000 -8.000000 1.258129E+01
-12.000000 -10.000000 7.298222E+00
-12.000000 -12.000000 9.390648E+00
-12.000000 -14.000000 1.223003E+01
-12.000000 -16.000000 1.286335E+01
-12.000000 -18.000000 1.110639E+01
-12.000000 -20.000000 1.316964E+01
-12.000000 -22.000000 1.687846E+01
-12.000000 -24.000000 1.946846E+01
-12.000000 -26.000000 2.036992E+01
-12.000000 -28.000000 2.240166E+01
-12.000000 -30.000000 2.506314E+01
-12.000000 -32.000000 9.599966E+00
-12.000000 -34.000000 -1.000156E+01
-12.000000 -36.000000 -2.162376E+01
-12.000000 -38.000000 -2.850070E+01
-12.000000 -40.000000 -3.746777E+01
-10.000000 40.000000 -3.387637E+01
-10.000000 38.000000 -3.457998E+01
-10.000000 36.000000 -2.481224E+01
-10.000000 34.000000 -5.911640E+00
-10.000000 32.000000 1.995132E+01
-10.000000 30.000000 3.696368E+01
-10.000000 28.000000 2.949545E+01
-10.000000 26.000000 -4.321323E+00
-10.000000 24.000000 -2.753199E+01
-10.000000 22.000000 -2.291210E+01
-10.000000 20.000000 -1.190744E+01
-10.000000 18.000000 1.153447E+01
-10.000000 16.000000 6.772159E+01
-10.000000 14.000000 1.289829E+02
-10.000000 12.000000 1.659162E+02
-10.000000 10.000000 1.848945E+02
-10.000000 8.000000 1.669987E+02
-10.000000 6.000000 1.206168E+02
-10.000000 4.000000 6.316748E+01
-10.000000 2.000000 3.620440E+01
-10.000000 0.000000 4.117939E+01
-10.000000 -2.000000 5.073801E+01
-10.000000 -4.000000 4.527112E+01
-10.000000 -6.000000 2.849607E+01
-10.000000 -8.000000 1.321657E+01
-10.000000 -10.000000 1.834942E+00
-10.000000 -12.000000 -3.128128E-01
-10.000000 -14.000000 -8.656845E-01
-10.000000 -16.000000 -4.165009E+00
-10.000000 -18.000000 -1.031234E+01
-10.000000 -20.000000 -1.660114E+01
-10.000000 -22.000000 -1.824383E+01
-10.000000 -24.000000 -8.192749E+00
-10.000000 -26.000000 -2.025898E+00
-10.000000 -28.000000 5.323505E+00
-10.000000 -30.000000 1.183038E+01
-10.000000 -32.000000 2.189940E+00
-10.000000 -34.000000 -1.199370E+01
-10.000000 -36.000000 -1.881570E+01
-10.000000 -38.000000 -2.162472E+01
-10.000000 -40.000000 -2.764655E+01
-8.000000 40.000000 -4.897705E+01
-8.000000 38.000000 -4.796283E+01
-8.000000 36.000000 -3.483582E+01
-8.000000 34.000000 -9.595560E+00
-8.000000 32.000000 2.555812E+01
-8.000000 30.000000 4.834996E+01
-8.000000 28.000000 3.915895E+01
-8.000000 26.000000 -2.135616E+00
-8.000000 24.000000 -3.201796E+01
-8.000000 22.000000 -2.777897E+01
-8.000000 20.000000 -2.034783E+01
-8.000000 18.000000 -2.438507E-01
-8.000000 16.000000 5.875184E+01
-8.000000 14.000000 1.274269E+02
-8.000000 12.000000 1.734725E+02
-8.000000 10.000000 1.901737E+02
-8.000000 8.000000 1.706444E+02
-8.000000 6.000000 1.250890E+02
-8.000000 4.000000 6.373694E+01
-8.000000 2.000000 3.547596E+01
-8.000000 0.000000 4.201842E+01
-8.000000 -2.000000 5.610396E+01
-8.000000 -4.000000 5.497585E+01
-8.000000 -6.000000 3.381699E+01
-8.000000 -8.000000 1.560339E+01
-8.000000 -10.000000 1.834873E+00
-8.000000 -12.000000 -2.693039E+00
-8.000000 -14.000000 -4.942059E+00
-8.000000 -16.000000 -7.715473E+00
-8.000000 -18.000000 -1.280384E+01
-8.000000 -20.000000 -2.440949E+01
-8.000000 -22.000000 -3.030958E+01
-8.000000 -24.000000 -1.465692E+01
-8.000000 -26.000000 -7.177536E+00
-8.000000 -28.000000 -5.210274E+00
-8.000000 -30.000000 -5.690231E+00
-8.000000 -32.000000 -1.549657E+01
-8.000000 -34.000000 -2.202704E+01
-8.000000 -36.000000 -1.885775E+01
-8.000000 -38.000000 -1.573292E+01
-8.000000 -40.000000 -1.826983E+01
-6.000000 40.000000 -5.484614E+01
-6.000000 38.000000 -5.410119E+01
-6.000000 36.000000 -4.476521E+01
-6.000000 34.000000 -2.178533E+01
-6.000000 32.000000 1.641283E+01
-6.000000 30.000000 4.081223E+01
-6.000000 28.000000 3.433942E+01
-6.000000 26.000000 1.802139E-01
-6.000000 24.000000 -1.894346E+01
-6.000000 22.000000 -1.565561E+01
-6.000000 20.000000 -1.858662E+01
-6.000000 18.000000 -9.297943E+00
-6.000000 16.000000 4.424972E+01
-6.000000 14.000000 1.087514E+02
-6.000000 12.000000 1.529564E+02
-6.000000 10.000000 1.611970E+02
-6.000000 8.000000 1.400423E+02
-6.000000 6.000000 9.095393E+01
-6.000000 4.000000 2.812345E+01
-6.000000 2.000000 4.763641E+00
-6.000000 0.000000 2.097949E+01
-6.000000 -2.000000 4.384682E+01
-6.000000 -4.000000 4.929821E+01
-6.000000 -6.000000 3.342814E+01
-6.000000 -8.000000 2.379532E+01
-6.000000 -10.000000 1.980041E+01
-6.000000 -12.000000 1.943848E+01
-6.000000 -14.000000 1.585006E+01
-6.000000 -16.000000 1.102312E+01
-6.000000 -18.000000 6.491644E+00
-6.000000 -20.000000 -3.854374E+00
-6.000000 -22.000000 -7.526554E+00
-6.000000 -24.000000 1.130954E+01
-6.000000 -26.000000 1.747965E+01
-6.000000 -28.000000 4.242044E+00
-6.000000 -30.000000 -1.448946E+01
-6.000000 -32.000000 -3.839114E+01
-6.000000 -34.000000 -4.006899E+01
-6.000000 -36.000000 -2.251589E+01
-6.000000 -38.000000 -1.527297E+01
-6.000000 -40.000000 -1.813239E+01
-4.000000 40.000000 -5.280812E+01
-4.000000 38.000000 -5.452745E+01
-4.000000 36.000000 -5.317542E+01
-4.000000 34.000000 -3.690927E+01
-4.000000 32.000000 -6.567822E-01
-4.000000 30.000000 2.114660E+01
-4.000000 28.000000 1.158220E+01
-4.000000 26.000000 -2.056947E+01
-4.000000 24.000000 -2.700232E+01
-4.000000 22.000000 -8.898285E+00
-4.000000 20.000000 -2.022755E+00
-4.000000 18.000000 8.286053E+00
-4.000000 16.000000 4.815627E+01
-4.000000 14.000000 9.220609E+01
-4.000000 12.000000 1.218996E+02
-4.000000 10.000000 1.230629E+02
-4.000000 8.000000 9.924301E+01
-4.000000 6.000000 4.074025E+01
-4.000000 4.000000 -2.411993E+01
-4.000000 2.000000 -3.704368E+01
-4.000000 0.000000 -1.081557E+01
-4.000000 -2.000000 1.566203E+01
-4.000000 -4.000000 2.105099E+01
-4.000000 -6.000000 2.222570E+01
-4.000000 -8.000000 3.684013E+01
-4.000000 -10.000000 5.728684E+01
-4.000000 -12.000000 6.387788E+01
-4.000000 -14.000000 5.503823E+01
-4.000000 -16.000000 4.108735E+01
-4.000000 -18.000000 3.681924E+01
-4.000000 -20.000000 2.800521E+01
-4.000000 -22.000000 2.042371E+01
-4.000000 -24.000000 3.834023E+01
-4.000000 -26.000000 4.672678E+01
-4.000000 -28.000000 2.748650E+01
-4.000000 -30.000000 -9.749529E+00
-4.000000 -32.000000 -5.452841E+01
-4.000000 -34.000000 -5.411951E+01
-4.000000 -36.000000 -2.562794E+01
-4.000000 -38.000000 -2.079899E+01
-4.000000 -40.000000 -2.782014E+01
-2.000000 40.000000 -5.019036E+01
-2.000000 38.000000 -5.109053E+01
-2.000000 36.000000 -5.715968E+01
-2.000000 34.000000 -4.890271E+01
-2.000000 32.000000 -1.494453E+01
-2.000000 30.000000 1.505451E+00
-2.000000 28.000000 -1.929681E+01
-2.000000 26.000000 -6.256925E+01
-2.000000 24.000000 -6.352273E+01
-2.000000 22.000000 -1.858661E+01
-2.000000 20.000000 6.118370E+00
-2.000000 18.000000 3.039056E+01
-2.000000 16.000000 6.403744E+01
-2.000000 14.000000 9.143811E+01
-2.000000 12.000000 1.187181E+02
-2.000000 10.000000 1.287392E+02
-2.000000 8.000000 9.651099E+01
-2.000000 6.000000 2.150483E+01
-2.000000 4.000000 -5.994148E+01
-2.000000 2.000000 -6.289016E+01
-2.000000 0.000000 -2.913970E+01
-2.000000 -2.000000 -7.159836E+00
-2.000000 -4.000000 -1.088081E+01
-2.000000 -6.000000 1.081530E+01
-2.000000 -8.000000 5.264652E+01
-2.000000 -10.000000 9.449305E+01
-2.000000 -12.000000 9.688796E+01
-2.000000 -14.000000 7.431356E+01
-2.000000 -16.000000 5.112405E+01
-2.000000 -18.000000 4.718582E+01
-2.000000 -20.000000 3.838323E+01
-2.000000 -22.000000 2.195199E+01
-2.000000 -24.000000 3.631227E+01
-2.000000 -26.000000 5.125307E+01
-2.000000 -28.000000 4.100017E+01
-2.000000 -30.000000 1.125805E+00
-2.000000 -32.000000 -5.189472E+01
-2.000000 -34.000000 -5.607503E+01
-2.000000 -36.000000 -3.204070E+01
-2.000000 -38.000000 -3.007408E+01
-2.000000 -40.000000 -3.641089E+01
0.000000 40.000000 -5.310404E+01
0.000000 38.000000 -4.962060E+01
0.000000 36.000000 -5.807515E+01
0.000000 34.000000 -5.625412E+01
0.000000 32.000000 -2.323095E+01
0.000000 30.000000 -1.066759E+01
0.000000 28.000000 -4.167745E+01
0.000000 26.000000 -9.448627E+01
0.000000 24.000000 -9.431859E+01
0.000000 22.000000 -3.219694E+01
0.000000 20.000000 -1.287327E+00
0.000000 18.000000 3.392573E+01
0.000000 16.000000 7.429623E+01
0.000000 14.000000 1.064818E+02
0.000000 12.000000 1.478684E+02
0.000000 10.000000 1.774593E+02
0.000000 8.000000 1.428577E+02
0.000000 6.000000 5.784799E+01
0.000000 4.000000 -4.365491E+01
0.000000 2.000000 -6.060066E+01
0.000000 0.000000 -3.144672E+01
0.000000 -2.000000 -9.021339E+00
0.000000 -4.000000 -9.292683E+00
0.000000 -6.000000 1.514065E+01
0.000000 -8.000000 5.283331E+01
0.000000 -10.000000 8.447929E+01
0.000000 -12.000000 7.759108E+01
0.000000 -14.000000 5.295853E+01
0.000000 -16.000000 3.038168E+01
0.000000 -18.000000 2.209313E+01
0.000000 -20.000000 1.192931E+01
0.000000 -22.000000 -3.653374E+00
0.000000 -24.000000 8.259413E+00
0.000000 -26.000000 2.637463E+01
0.000000 -28.000000 2.658517E+01
0.000000 -30.000000 3.859620E+00
0.000000 -32.000000 -3.524813E+01
0.000000 -34.000000 -5.038536E+01
0.000000 -36.000000 -4.319132E+01
0.000000 -38.000000 -3.761723E+01
0.000000 -40.000000 -3.441590E+01
2.000000 40.000000 -6.146044E+01
2.000000 38.000000 -5.651529E+01
2.000000 36.000000 -6.258149E+01
2.000000 34.000000 -6.081660E+01
2.000000 32.000000 -3.233094E+01
2.000000 30.000000 -1.999270E+01
2.000000 28.000000 -4.497700E+01
2.000000 26.000000 -8.462543E+01
2.000000 24.000000 -7.962895E+01
2.000000 22.000000 -2.975731E+01
2.000000 20.000000 -7.189617E+00
2.000000 18.000000 2.085218E+01
2.000000 16.000000 7.265304E+01
2.000000 14.000000 1.293749E+02
2.000000 12.000000 1.888098E+02
2.000000 10.000000 2.327281E+02
2.000000 8.000000 2.088778E+02
2.000000 6.000000 1.287403E+02
2.000000 4.000000 1.708831E+01
2.000000 2.000000 -3.474163E+01
2.000000 0.000000 -2.700365E+01
2.000000 -2.000000 -5.612751E+00
2.000000 -4.000000 2.828121E+00
2.000000 -6.000000 1.411352E+01
2.000000 -8.000000 2.707541E+01
2.000000 -10.000000 3.092156E+01
2.000000 -12.000000 1.582870E+01
2.000000 -14.000000 -2.221680E-02
2.000000 -16.000000 -1.346950E+01
2.000000 -18.000000 -2.030621E+01
2.000000 -20.000000 -2.953275E+01
2.000000 -22.000000 -4.054393E+01
2.000000 -24.000000 -2.743924E+01
2.000000 -26.000000 -6.566204E+00
2.000000 -28.000000 3.401013E+00
2.000000 -30.000000 -5.649977E-01
2.000000 -32.000000 -2.392732E+01
2.000000 -34.000000 -4.657710E+01
2.000000 -36.000000 -5.097807E+01
2.000000 -38.000000 -3.988515E+01
2.000000 -40.000000 -2.808343E+01
4.000000 40.000000 -7.193871E+01
4.000000 38.000000 -6.858515E+01
4.000000 36.000000 -6.900699E+01
4.000000 34.000000 -6.104303E+01
4.000000 32.000000 -3.662983E+01
4.000000 30.000000 -2.194043E+01
4.000000 28.000000 -3.275778E+01
4.000000 26.000000 -5.278780E+01
4.000000 24.000000 -4.114835E+01
4.000000 22.000000 -1.111049E+01
4.000000 20.000000 1.046337E+00
4.000000 18.000000 2.256127E+01
4.000000 16.000000 7.843467E+01
4.000000 14.000000 1.473924E+02
4.000000 12.000000 2.152041E+02
4.000000 10.000000 2.641792E+02
4.000000 8.000000 2.507519E+02
4.000000 6.000000 1.813037E+02
4.000000 4.000000 6.561941E+01
4.000000 2.000000 -8.717766E+00
4.000000 0.000000 -1.949997E+01
4.000000 -2.000000 -6.997528E+00
4.000000 -4.000000 -1.385910E+00
4.000000 -6.000000 -2.895027E+00
4.000000 -8.000000 -1.082525E+01
4.000000 -10.000000 -2.984627E+01
4.000000 -12.000000 -4.889191E+01
4.000000 -14.000000 -5.442799E+01
4.000000 -16.000000 -5.373510E+01
4.000000 -18.000000 -5.208994E+01
4.000000 -20.000000 -6.007002E+01
4.000000 -22.000000 -6.802000E+01
4.000000 -24.000000 -5.266290E+01
4.000000 -26.000000 -2.827696E+01
4.000000 -28.000000 -1.082856E+01
4.000000 -30.000000 -5.144255E+00
4.000000 -32.000000 -2.127428E+01
4.000000 -34.000000 -4.628070E+01
4.000000 -36.000000 -5.290159E+01
4.000000 -38.000000 -3.950414E+01
4.000000 -40.000000 -2.566693E+01
6.000000 40.000000 -8.201010E+01
6.000000 38.000000 -7.717788E+01
6.000000 36.000000 -7.055522E+01
6.000000 34.000000 -5.677820E+01
6.000000 32.000000 -3.321428E+01
6.000000 30.000000 -1.218827E+01
6.000000 28.000000 -9.878063E+00
6.000000 26.000000 -2.139205E+01
6.000000 24.000000 -4.698776E+00
6.000000 22.000000 1.257347E+01
6.000000 20.000000 1.444963E+01
6.000000 18.000000 3.033990E+01
6.000000 16.000000 8.184470E+01
6.000000 14.000000 1.460560E+02
6.000000 12.000000 2.077341E+02
6.000000 10.000000 2.548558E+02
6.000000 8.000000 2.520845E+02
6.000000 6.000000 1.952449E+02
6.000000 4.000000 8.169412E+01
6.000000 2.000000 -4.214283E+00
6.000000 0.000000 -2.997249E+01
6.000000 -2.000000 -2.623826E+01
6.000000 -4.000000 -2.232793E+01
6.000000 -6.000000 -2.416063E+01
6.000000 -8.000000 -3.799229E+01
6.000000 -10.000000 -6.406888E+01
6.000000 -12.000000 -7.878431E+01
6.000000 -14.000000 -7.621575E+01
6.000000 -16.000000 -6.503893E+01
6.000000 -18.000000 -5.764111E+01
6.000000 -20.000000 -6.540590E+01
6.000000 -22.000000 -7.275748E+01
6.000000 -24.000000 -5.856062E+01
6.000000 -26.000000 -3.335651E+01
6.000000 -28.000000 -1.377221E+01
6.000000 -30.000000 -5.756393E+00
6.000000 -32.000000 -1.959224E+01
6.000000 -34.000000 -4.523898E+01
6.000000 -36.000000 -5.224706E+01
6.000000 -38.000000 -4.206708E+01
6.000000 -40.000000 -2.947711E+01
8.000000 40.000000 -9.008379E+01
8.000000 38.000000 -7.745409E+01
8.000000 36.000000 -6.406496E+01
8.000000 34.000000 -4.722325E+01
8.000000 32.000000 -2.267344E+01
8.000000 30.000000 3.548257E+00
8.000000 28.000000 1.556198E+01
8.000000 26.000000 7.963455E+00
8.000000 24.000000 2.114346E+01
8.000000 22.000000 2.440397E+01
8.000000 20.000000 1.556479E+01
8.000000 18.000000 2.023577E+01
8.000000 16.000000 6.055651E+01
8.000000 14.000000 1.119202E+02
8.000000 12.000000 1.617547E+02
8.000000 10.000000 2.073532E+02
8.000000 8.000000 2.197040E+02
8.000000 6.000000 1.791693E+02
8.000000 4.000000 7.613017E+01
8.000000 2.000000 -1.858287E+01
8.000000 0.000000 -6.414755E+01
8.000000 -2.000000 -6.415070E+01
8.000000 -4.000000 -4.671851E+01
8.000000 -6.000000 -3.090249E+01
8.000000 -8.000000 -3.518771E+01
8.000000 -10.000000 -5.413597E+01
8.000000 -12.000000 -6.157275E+01
8.000000 -14.000000 -5.502539E+01
8.000000 -16.000000 -4.230868E+01
8.000000 -18.000000 -3.736120E+01
8.000000 -20.000000 -4.684458E+01
8.000000 -22.000000 -5.634668E+01
8.000000 -24.000000 -4.670856E+01
8.000000 -26.000000 -2.452050E+01
8.000000 -28.000000 -6.025724E+00
8.000000 -30.000000 1.211009E+00
8.000000 -32.000000 -1.479169E+01
8.000000 -34.000000 -4.406133E+01
8.000000 -36.000000 -5.471012E+01
8.000000 -38.000000 -4.923178E+01
8.000000 -40.000000 -3.740822E+01
10.000000 40.000000 -9.509749E+01
10.000000 38.000000 -7.146723E+01
10.000000 36.000000 -5.229744E+01
10.000000 34.000000 -3.287432E+01
10.000000 32.000000 -6.801526E+00
10.000000 30.000000 1.750973E+01
10.000000 28.000000 3.170645E+01
10.000000 26.000000 2.779129E+01
10.000000 24.000000 3.216649E+01
10.000000 22.000000 1.931533E+01
10.000000 20.000000 -1.666025E+00
10.000000 18.000000 -8.852444E+00
10.000000 16.000000 1.970389E+01
10.000000 14.000000 5.870621E+01
10.000000 12.000000 9.552154E+01
10.000000 10.000000 1.355827E+02
10.000000 8.000000 1.701535E+02
10.000000 6.000000 1.518914E+02
10.000000 4.000000 6.272995E+01
10.000000 2.000000 -3.561304E+01
10.000000 0.000000 -9.317834E+01
10.000000 -2.000000 -8.965263E+01
10.000000 -4.000000 -5.244323E+01
10.000000 -6.000000 -1.420571E+01
10.000000 -8.000000 -8.197422E+00
10.000000 -10.000000 -1.948315E+01
10.000000 -12.000000 -2.395704E+01
10.000000 -14.000000 -1.464220E+01
10.000000 -16.000000 -1.143169E+00
10.000000 -18.000000 1.375242E+00
10.000000 -20.000000 -1.269942E+01
10.000000 -22.000000 -2.904937E+01
10.000000 -24.000000 -2.603338E+01
10.000000 -26.000000 -9.309025E+00
10.000000 -28.000000 7.253493E+00
10.000000 -30.000000 1.382468E+01
10.000000 -32.000000 -7.707324E+00
10.000000 -34.000000 -4.472381E+01
10.000000 -36.000000 -6.106065E+01
10.000000 -38.000000 -5.795302E+01
10.000000 -40.000000 -4.504333E+01
12.000000 40.000000 -9.970028E+01
12.000000 38.000000 -6.720087E+01
12.000000 36.000000 -4.070616E+01
12.000000 34.000000 -1.816041E+01
12.000000 32.000000 6.754485E+00
12.000000 30.000000 2.542574E+01
12.000000 28.000000 3.383618E+01
12.000000 26.000000 2.882092E+01
12.000000 24.000000 3.037243E+01
12.000000 22.000000 1.002321E+01
12.000000 20.000000 -2.338792E+01
12.000000 18.000000 -3.926048E+01
12.000000 16.000000 -1.495406E+01
12.000000 14.000000 1.648069E+01
12.000000 12.000000 4.189895E+01
12.000000 10.000000 7.241682E+01
12.000000 8.000000 1.260466E+02
12.000000 6.000000 1.284699E+02
12.000000 4.000000 5.278173E+01
12.000000 2.000000 -3.971583E+01
12.000000 0.000000 -9.393724E+01
12.000000 -2.000000 -8.353497E+01
12.000000 -4.000000 -3.277607E+01
12.000000 -6.000000 1.545138E+01
12.000000 -8.000000 2.046105E+01
12.000000 -10.000000 7.329187E+00
12.000000 -12.000000 -1.597633E-01
12.000000 -14.000000 1.364020E+01
12.000000 -16.000000 3.628477E+01
12.000000 -18.000000 4.285813E+01
12.000000 -20.000000 2.454377E+01
12.000000 -22.000000 -8.476315E-01
12.000000 -24.000000 -5.185204E+00
12.000000 -26.000000 5.875617E+00
12.000000 -28.000000 1.891023E+01
12.000000 -30.000000 2.442459E+01
12.000000 -32.000000 -1.001403E+00
12.000000 -34.000000 -4.490462E+01
12.000000 -36.000000 -6.819615E+01
12.000000 -38.000000 -6.551156E+01
12.000000 -40.000000 -4.862027E+01
14.000000 40.000000 -1.057822E+02
14.000000 38.000000 -6.762903E+01
14.000000 36.000000 -3.400040E+01
14.000000 34.000000 -9.267599E+00
14.000000 32.000000 1.208777E+01
14.000000 30.000000 2.421902E+01
14.000000 28.000000 2.290911E+01
14.000000 26.000000 1.297369E+01
14.000000 24.000000 1.535324E+01
14.000000 22.000000 -2.930775E-01
14.000000 20.000000 -3.619997E+01
14.000000 18.000000 -5.466851E+01
14.000000 16.000000 -2.777112E+01
14.000000 14.000000 6.604479E+00
14.000000 12.000000 3.434580E+01
14.000000 10.000000 6.462169E+01
14.000000 8.000000 1.136970E+02
14.000000 6.000000 1.185787E+02
14.000000 4.000000 5.124798E+01
14.000000 2.000000 -2.816037E+01
14.000000 0.000000 -7.115729E+01
14.000000 -2.000000 -5.774384E+01
14.000000 -4.000000 -6.721561E+00
14.000000 -6.000000 3.478946E+01
14.000000 -8.000000 2.898275E+01
14.000000 -10.000000 5.797119E+00
14.000000 -12.000000 -4.526356E+00
14.000000 -14.000000 1.852035E+01
14.000000 -16.000000 5.627308E+01
14.000000 -18.000000 7.085654E+01
14.000000 -20.000000 5.019777E+01
14.000000 -22.000000 1.794740E+01
14.000000 -24.000000 8.926903E+00
14.000000 -26.000000 1.716129E+01
14.000000 -28.000000 2.562461E+01
14.000000 -30.000000 2.847848E+01
14.000000 -32.000000 3.694160E+00
14.000000 -34.000000 -4.113765E+01
14.000000 -36.000000 -7.001565E+01
14.000000 -38.000000 -6.770433E+01
14.000000 -40.000000 -4.670136E+01
16.000000 40.000000 -1.104219E+02
16.000000 38.000000 -7.114341E+01
16.000000 36.000000 -3.664132E+01
16.000000 34.000000 -1.096481E+01
16.000000 32.000000 9.775806E+00
16.000000 30.000000 1.728126E+01
16.000000 28.000000 4.229836E+00
16.000000 26.000000 -1.718441E+01
16.000000 24.000000 -1.567865E+01
16.000000 22.000000 -1.438364E+01
16.000000 20.000000 -3.441736E+01
16.000000 18.000000 -4.553921E+01
16.000000 16.000000 -1.284775E+01
16.000000 14.000000 2.897321E+01
16.000000 12.000000 5.975797E+01
16.000000 10.000000 8.971139E+01
16.000000 8.000000 1.269347E+02
16.000000 6.000000 1.257630E+02
16.000000 4.000000 6.048821E+01
16.000000 2.000000 -7.125801E+00
16.000000 0.000000 -3.846323E+01
16.000000 -2.000000 -2.839434E+01
16.000000 -4.000000 1.256894E+01
16.000000 -6.000000 3.737772E+01
16.000000 -8.000000 1.732453E+01
16.000000 -10.000000 -1.650525E+01
16.000000 -12.000000 -2.387494E+01
16.000000 -14.000000 1.116817E+01
16.000000 -16.000000 6.019775E+01
16.000000 -18.000000 7.823113E+01
16.000000 -20.000000 5.343758E+01
16.000000 -22.000000 1.671598E+01
16.000000 -24.000000 8.275571E+00
16.000000 -26.000000 1.894943E+01
16.000000 -28.000000 2.756521E+01
16.000000 -30.000000 2.767604E+01
16.000000 -32.000000 5.304169E+00
16.000000 -34.000000 -3.172077E+01
16.000000 -36.000000 -5.748356E+01
16.000000 -38.000000 -5.913848E+01
16.000000 -40.000000 -4.174548E+01
18.000000 40.000000 -1.129179E+02
18.000000 38.000000 -7.687424E+01
18.000000 36.000000 -4.537417E+01
18.000000 34.000000 -1.794136E+01
18.000000 32.000000 5.386856E+00
18.000000 30.000000 1.133781E+01
18.000000 28.000000 -1.380751E+01
18.000000 26.000000 -5.132448E+01
18.000000 24.000000 -5.375258E+01
18.000000 22.000000 -3.216796E+01
18.000000 20.000000 -3.216586E+01
18.000000 18.000000 -3.109507E+01
18.000000 16.000000 1.161608E+01
18.000000 14.000000 5.775427E+01
18.000000 12.000000 8.776857E+01
18.000000 10.000000 1.194726E+02
18.000000 8.000000 1.484310E+02
18.000000 6.000000 1.399076E+02
18.000000 4.000000 7.433519E+01
18.000000 2.000000 1.279928E+01
18.000000 0.000000 -1.452456E+01
18.000000 -2.000000 -1.376355E+01
18.000000 -4.000000 9.380112E+00
18.000000 -6.000000 1.922094E+01
18.000000 -8.000000 -2.939199E+00
18.000000 -10.000000 -3.361426E+01
18.000000 -12.000000 -3.201112E+01
18.000000 -14.000000 1.129681E+01
18.000000 -16.000000 6.105355E+01
18.000000 -18.000000 6.950975E+01
18.000000 -20.000000 3.586090E+01
18.000000 -22.000000 -2.250062E+00
18.000000 -24.000000 -5.258348E+00
18.000000 -26.000000 1.333073E+01
18.000000 -28.000000 2.590545E+01
18.000000 -30.000000 2.163069E+01
18.000000 -32.000000 2.692160E+00
18.000000 -34.000000 -1.665006E+01
18.000000 -36.000000 -3.108567E+01
18.000000 -38.000000 -4.357863E+01
18.000000 -40.000000 -3.766747E+01
20.000000 40.000000 -1.156130E+02
20.000000 38.000000 -8.357686E+01
20.000000 36.000000 -5.162549E+01
20.000000 34.000000 -2.123001E+01
20.000000 32.000000 2.160524E+00
20.000000 30.000000 5.385386E+00
20.000000 28.000000 -2.750054E+01
20.000000 26.000000 -7.303841E+01
20.000000 24.000000 -8.050249E+01
20.000000 22.000000 -4.841481E+01
20.000000 20.000000 -3.457410E+01
20.000000 18.000000 -2.128376E+01
20.000000 16.000000 2.454316E+01
20.000000 14.000000 6.981759E+01
20.000000 12.000000 1.025745E+02
20.000000 10.000000 1.420295E+02
20.000000 8.000000 1.697769E+02
20.000000 6.000000 1.522876E+02
20.000000 4.000000 8.055010E+01
20.000000 2.000000 2.530620E+01
20.000000 0.000000 -7.629278E+00
20.000000 -2.000000 -2.552944E+01
20.000000 -4.000000 -2.956311E+01
20.000000 -6.000000 -2.543628E+01
20.000000 -8.000000 -3.077963E+01
20.000000 -10.000000 -4.109618E+01
20.000000 -12.000000 -2.699183E+01
20.000000 -14.000000 1.911992E+01
20.000000 -16.000000 6.258117E+01
20.000000 -18.000000 5.925840E+01
20.000000 -20.000000 1.847111E+01
20.000000 -22.000000 -2.334822E+01
20.000000 -24.000000 -1.884020E+01
20.000000 -26.000000 9.552790E+00
20.000000 -28.000000 2.194792E+01
20.000000 -30.000000 1.070476E+01
20.000000 -32.000000 -3.405423E+00
20.000000 -34.000000 -2.039605E+00
20.000000 -36.000000 -5.960816E+00
20.000000 -38.000000 -3.071897E+01
20.000000 -40.000000 -3.496690E+01
22.000000 40.000000 -1.211060E+02
22.000000 38.000000 -9.021235E+01
22.000000 36.000000 -5.307064E+01
22.000000 34.000000 -2.056565E+01
22.000000 32.000000 1.548579E+00
22.000000 30.000000 3.515874E+00
22.000000 28.000000 -3.088816E+01
22.000000 26.000000 -7.796327E+01
22.000000 24.000000 -8.441729E+01
22.000000 22.000000 -4.785739E+01
22.000000 20.000000 -3.183757E+01
22.000000 18.000000 -1.055721E+01
22.000000 16.000000 2.506919E+01
22.000000 14.000000 6.395284E+01
22.000000 12.000000 1.036344E+02
22.000000 10.000000 1.546416E+02
22.000000 8.000000 1.886436E+02
22.000000 6.000000 1.623375E+02
22.000000 4.000000 7.484876E+01
22.000000 2.000000 2.552586E+01
22.000000 0.000000 -1.548547E+01
22.000000 -2.000000 -5.523331E+01
22.000000 -4.000000 -8.717538E+01
22.000000 -6.000000 -8.150910E+01
22.000000 -8.000000 -6.441025E+01
22.000000 -10.000000 -5.024429E+01
22.000000 -12.000000 -2.214857E+01
22.000000 -14.000000 2.418302E+01
22.000000 -16.000000 6.139748E+01
22.000000 -18.000000 5.277574E+01
22.000000 -20.000000 9.926670E+00
22.000000 -22.000000 -3.679400E+01
22.000000 -24.000000 -3.217754E+01
22.000000 -26.000000 -3.436943E+00
22.000000 -28.000000 8.664820E+00
22.000000 -30.000000 1.889987E+00
22.000000 -32.000000 -5.887402E+00
22.000000 -34.000000 5.249419E-01
22.000000 -36.000000 -1.015239E+00
22.000000 -38.000000 -2.357442E+01
22.000000 -40.000000 -2.933797E+01
24.000000 40.000000 -1.286067E+02
24.000000 38.000000 -9.851926E+01
24.000000 36.000000 -5.717632E+01
24.000000 34.000000 -2.144898E+01
24.000000 32.000000 4.365128E+00
24.000000 30.000000 1.105176E+01
24.000000 28.000000 -1.866302E+01
24.000000 26.000000 -6.260082E+01
24.000000 24.000000 -6.112601E+01
24.000000 22.000000 -2.200749E+01
24.000000 20.000000 -1.242211E+01
24.000000 18.000000 1.047271E+00
24.000000 16.000000 2.331255E+01
24.000000 14.000000 5.097786E+01
24.000000 12.000000 9.048696E+01
24.000000 10.000000 1.461606E+02
24.000000 8.000000 1.874365E+02
24.000000 6.000000 1.682944E+02
24.000000 4.000000 8.562686E+01
24.000000 2.000000 2.688059E+01
24.000000 0.000000 -2.546149E+01
24.000000 -2.000000 -7.482485E+01
24.000000 -4.000000 -1.111263E+02
24.000000 -6.000000 -1.087530E+02
24.000000 -8.000000 -9.198178E+01
24.000000 -10.000000 -7.330676E+01
24.000000 -12.000000 -3.713573E+01
24.000000 -14.000000 1.512906E+01
24.000000 -16.000000 5.034862E+01
24.000000 -18.000000 3.642370E+01
24.000000 -20.000000 -7.953790E+00
24.000000 -22.000000 -5.159087E+01
24.000000 -24.000000 -5.401476E+01
24.000000 -26.000000 -3.484294E+01
24.000000 -28.000000 -1.641221E+01
24.000000 -30.000000 -5.046423E+00
24.000000 -32.000000 -6.392611E+00
24.000000 -34.000000 -9.307714E+00
24.000000 -36.000000 -1.360512E+01
24.000000 -38.000000 -2.007024E+01
24.000000 -40.000000 -2.051690E+01
26.000000 40.000000 -1.332551E+02
26.000000 38.000000 -1.100336E+02
26.000000 36.000000 -7.264372E+01
26.000000 34.000000 -2.906734E+01
26.000000 32.000000 9.434259E+00
26.000000 30.000000 2.423621E+01
26.000000 28.000000 5.039334E+00
26.000000 26.000000 -2.483719E+01
26.000000 24.000000 -1.131362E+01
26.000000 22.000000 2.206691E+01
26.000000 20.000000 2.670075E+01
26.000000 18.000000 2.153669E+01
26.000000 16.000000 2.950344E+01
26.000000 14.000000 4.131241E+01
26.000000 12.000000 6.828319E+01
26.000000 10.000000 1.160949E+02
26.000000 8.000000 1.634547E+02
26.000000 6.000000 1.649684E+02
26.000000 4.000000 1.066411E+02
26.000000 2.000000 3.422254E+01
26.000000 0.000000 -2.390305E+01
26.000000 -2.000000 -6.835676E+01
26.000000 -4.000000 -9.559978E+01
26.000000 -6.000000 -1.031817E+02
26.000000 -8.000000 -1.052774E+02
26.000000 -10.000000 -1.007817E+02
26.000000 -12.000000 -6.845238E+01
26.000000 -14.000000 -1.352514E+01
26.000000 -16.000000 2.187560E+01
26.000000 -18.000000 5.959584E+00
26.000000 -20.000000 -3.918102E+01
26.000000 -22.000000 -7.745779E+01
26.000000 -24.000000 -8.130664E+01
26.000000 -26.000000 -7.242072E+01
26.000000 -28.000000 -4.427650E+01
26.000000 -30.000000 -1.680305E+01
26.000000 -32.000000 -1.437241E+01
26.000000 -34.000000 -2.314809E+01
26.000000 -36.000000 -2.575469E+01
26.000000 -38.000000 -1.825034E+01
26.000000 -40.000000 -1.430998E+01
28.000000 40.000000 -1.367663E+02
28.000000 38.000000 -1.207042E+02
28.000000 36.000000 -8.833426E+01
28.000000 34.000000 -3.639907E+01
28.000000 32.000000 1.595174E+01
28.000000 30.000000 3.977779E+01
28.000000 28.000000 3.002638E+01
28.000000 26.000000 1.055611E+01
28.000000 24.000000 3.379929E+01
28.000000 22.000000 6.158364E+01
28.000000 20.000000 6.318915E+01
28.000000 18.000000 4.646657E+01
28.000000 16.000000 4.407280E+01
28.000000 14.000000 4.806629E+01
28.000000 12.000000 6.409524E+01
28.000000 10.000000 9.736723E+01
28.000000 8.000000 1.413071E+02
28.000000 6.000000 1.519790E+02
28.000000 4.000000 1.032407E+02
28.000000 2.000000 3.178049E+01
28.000000 0.000000 -1.899562E+01
28.000000 -2.000000 -5.026829E+01
28.000000 -4.000000 -6.771982E+01
28.000000 -6.000000 -8.366568E+01
28.000000 -8.000000 -1.079587E+02
28.000000 -10.000000 -1.277266E+02
28.000000 -12.000000 -1.049052E+02
28.000000 -14.000000 -5.331854E+01
28.000000 -16.000000 -1.644877E+01
28.000000 -18.000000 -2.802557E+01
28.000000 -20.000000 -7.160117E+01
28.000000 -22.000000 -1.034253E+02
28.000000 -24.000000 -1.006117E+02
28.000000 -26.000000 -1.003893E+02
28.000000 -28.000000 -6.277275E+01
28.000000 -30.000000 -2.558877E+01
28.000000 -32.000000 -2.276521E+01
28.000000 -34.000000 -3.289184E+01
28.000000 -36.000000 -3.228106E+01
28.000000 -38.000000 -2.056602E+01
28.000000 -40.000000 -1.639362E+01
30.000000 40.000000 -1.429433E+02
30.000000 38.000000 -1.259590E+02
30.000000 36.000000 -9.215554E+01
30.000000 34.000000 -3.607818E+01
30.000000 32.000000 2.244493E+01
30.000000 30.000000 5.273325E+01
30.000000 28.000000 4.690414E+01
30.000000 26.000000 2.592693E+01
30.000000 24.000000 5.397878E+01
30.000000 22.000000 7.881664E+01
30.000000 20.000000 7.672755E+01
30.000000 18.000000 5.660241E+01
30.000000 16.000000 5.483697E+01
30.000000 14.000000 6.420058E+01
30.000000 12.000000 7.971493E+01
30.000000 10.000000 1.010318E+02
30.000000 8.000000 1.290157E+02
30.000000 6.000000 1.280704E+02
30.000000 4.000000 7.023917E+01
30.000000 2.000000 2.553252E+00
30.000000 0.000000 -3.547532E+01
30.000000 -2.000000 -4.767803E+01
30.000000 -4.000000 -5.092855E+01
30.000000 -6.000000 -6.558755E+01
30.000000 -8.000000 -9.961639E+01
30.000000 -10.000000 -1.336831E+02
30.000000 -12.000000 -1.244405E+02
30.000000 -14.000000 -8.590566E+01
30.000000 -16.000000 -5.310935E+01
30.000000 -18.000000 -5.734708E+01
30.000000 -20.000000 -8.956899E+01
30.000000 -22.000000 -1.117102E+02
30.000000 -24.000000 -1.033682E+02
30.000000 -26.000000 -9.726231E+01
30.000000 -28.000000 -6.024492E+01
30.000000 -30.000000 -2.602920E+01
30.000000 -32.000000 -2.440600E+01
30.000000 -34.000000 -3.562988E+01
30.000000 -36.000000 -3.736128E+01
30.000000 -38.000000 -3.078187E+01
30.000000 -40.000000 -2.856021E+01
32.000000 40.000000 -1.447616E+02
32.000000 38.000000 -1.252275E+02
32.000000 36.000000 -9.035318E+01
32.000000 34.000000 -3.450420E+01
32.000000 32.000000 2.542895E+01
32.000000 30.000000 5.393624E+01
32.000000 28.000000 4.884785E+01
32.000000 26.000000 2.722528E+01
32.000000 24.000000 4.880052E+01
32.000000 22.000000 6.568566E+01
32.000000 20.000000 5.813050E+01
32.000000 18.000000 3.700606E+01
32.000000 16.000000 4.424280E+01
32.000000 14.000000 7.210520E+01
32.000000 12.000000 1.026461E+02
32.000000 10.000000 1.257052E+02
32.000000 8.000000 1.292142E+02
32.000000 6.000000 9.762967E+01
32.000000 4.000000 2.250892E+01
32.000000 2.000000 -4.521744E+01
32.000000 0.000000 -7.514935E+01
32.000000 -2.000000 -7.206060E+01
32.000000 -4.000000 -5.698210E+01
32.000000 -6.000000 -5.667682E+01
32.000000 -8.000000 -8.263680E+01
32.000000 -10.000000 -1.155568E+02
32.000000 -12.000000 -1.200565E+02
32.000000 -14.000000 -9.776896E+01
32.000000 -16.000000 -7.385222E+01
32.000000 -18.000000 -7.256819E+01
32.000000 -20.000000 -8.895851E+01
32.000000 -22.000000 -9.807294E+01
32.000000 -24.000000 -8.386683E+01
32.000000 -26.000000 -6.401095E+01
32.000000 -28.000000 -3.669524E+01
32.000000 -30.000000 -1.647383E+01
32.000000 -32.000000 -2.021612E+01
32.000000 -34.000000 -3.524569E+01
32.000000 -36.000000 -4.420695E+01
32.000000 -38.000000 -4.510649E+01
32.000000 -40.000000 -4.657733E+01
34.000000 40.000000 -1.400469E+02
34.000000 38.000000 -1.247697E+02
34.000000 36.000000 -9.389950E+01
34.000000 34.000000 -3.933621E+01
34.000000 32.000000 2.291453E+01
34.000000 30.000000 4.573219E+01
34.000000 28.000000 4.043443E+01
34.000000 26.000000 1.764401E+01
34.000000 24.000000 2.214843E+01
34.000000 22.000000 2.895065E+01
34.000000 20.000000 1.953424E+01
34.000000 18.000000 2.797642E+00
34.000000 16.000000 2.575878E+01
34.000000 14.000000 7.810126E+01
34.000000 12.000000 1.276365E+02
34.000000 10.000000 1.544651E+02
34.000000 8.000000 1.290125E+02
34.000000 6.000000 6.147254E+01
34.000000 4.000000 -3.688154E+01
34.000000 2.000000 -1.060274E+02
34.000000 0.000000 -1.249339E+02
34.000000 -2.000000 -1.041886E+02
34.000000 -4.000000 -7.007753E+01
34.000000 -6.000000 -5.182389E+01
34.000000 -8.000000 -6.648123E+01
34.000000 -10.000000 -9.550444E+01
34.000000 -12.000000 -1.084737E+02
34.000000 -14.000000 -9.541799E+01
34.000000 -16.000000 -7.656532E+01
34.000000 -18.000000 -6.941435E+01
34.000000 -20.000000 -7.424989E+01
34.000000 -22.000000 -7.165452E+01
34.000000 -24.000000 -4.796070E+01
34.000000 -26.000000 -2.168778E+01
34.000000 -28.000000 -3.311285E+00
34.000000 -30.000000 3.904515E+00
34.000000 -32.000000 -1.119233E+01
34.000000 -34.000000 -3.456551E+01
34.000000 -36.000000 -5.270199E+01
34.000000 -38.000000 -5.870393E+01
34.000000 -40.000000 -6.525669E+01
36.000000 40.000000 -1.400401E+02
36.000000 38.000000 -1.328973E+02
36.000000 36.000000 -1.033750E+02
36.000000 34.000000 -4.710672E+01
36.000000 32.000000 1.848392E+01
36.000000 30.000000 4.251104E+01
36.000000 28.000000 3.309750E+01
36.000000 26.000000 -2.896510E+00
36.000000 24.000000 -1.252254E+01
36.000000 22.000000 -6.992635E+00
36.000000 20.000000 -1.368044E+01
36.000000 18.000000 -2.275477E+01
36.000000 16.000000 1.419958E+01
36.000000 14.000000 8.260799E+01
36.000000 12.000000 1.408563E+02
36.000000 10.000000 1.624464E+02
36.000000 8.000000 1.122830E+02
36.000000 6.000000 1.949742E+01
36.000000 4.000000 -9.442419E+01
36.000000 2.000000 -1.580331E+02
36.000000 0.000000 -1.599317E+02
36.000000 -2.000000 -1.198268E+02
36.000000 -4.000000 -7.297357E+01
36.000000 -6.000000 -4.677422E+01
36.000000 -8.000000 -5.834830E+01
36.000000 -10.000000 -8.681084E+01
36.000000 -12.000000 -1.016346E+02
36.000000 -14.000000 -8.928136E+01
36.000000 -16.000000 -7.026177E+01
36.000000 -18.000000 -5.923396E+01
36.000000 -20.000000 -5.874763E+01
36.000000 -22.000000 -4.635633E+01
36.000000 -24.000000 -1.476905E+01
36.000000 -26.000000 1.305590E+01
36.000000 -28.000000 2.555629E+01
36.000000 -30.000000 2.697972E+01
36.000000 -32.000000 3.808155E-01
36.000000 -34.000000 -3.475770E+01
36.000000 -36.000000 -6.091949E+01
36.000000 -38.000000 -6.922362E+01
36.000000 -40.000000 -8.066170E+01
38.000000 40.000000 -1.482788E+02
38.000000 38.000000 -1.498909E+02
38.000000 36.000000 -1.182424E+02
38.000000 34.000000 -5.631230E+01
38.000000 32.000000 1.431601E+01
38.000000 30.000000 4.342942E+01
38.000000 28.000000 2.629197E+01
38.000000 26.000000 -2.623757E+01
38.000000 24.000000 -4.086041E+01
38.000000 22.000000 -2.729003E+01
38.000000 20.000000 -2.983236E+01
38.000000 18.000000 -3.265512E+01
38.000000 16.000000 6.865792E+00
38.000000 14.000000 7.263933E+01
38.000000 12.000000 1.275473E+02
38.000000 10.000000 1.386209E+02
38.000000 8.000000 7.976714E+01
38.000000 6.000000 -1.283898E+01
38.000000 4.000000 -1.151990E+02
38.000000 2.000000 -1.640653E+02
38.000000 0.000000 -1.524095E+02
38.000000 -2.000000 -1.044333E+02
