-18.000000 8.000000 -3.252464E+01
-18.000000 6.000000 -2.283212E+01
-18.000000 4.000000 -2.431892E+01
-18.000000 2.000000 -2.576303E+01
-18.000000 0.000000 -1.737604E+01
-18.000000 -2.000000 3.297225E+00
-18.000000 -4.000000 2.332300E+01
-18.000000 -6.000000 2.923839E+01
-18.000000 -8.000000 3.141040E+01
-18.000000 -10.000000 3.155005E+01
-18.000000 -12.000000 3.649966E+01
-18.000000 -14.000000 5.143316E+01
-18.000000 -16.000000 6.519375E+01
-18.000000 -18.000000 7.265275E+01
-18.000000 -20.000000 7.296695E+01
-18.000000 -22.000000 7.154105E+01
-18.000000 -24.000000 7.354029E+01
-18.000000 -26.000000 7.567577E+01
-18.000000 -28.000000 7.642782E+01
-18.000000 -30.000000 8.015320E+01
-18.000000 -32.000000 8.017732E+01
-18.000000 -34.000000 7.778119E+01
-18.000000 -36.000000 5.843830E+01
-18.000000 -38.000000 3.449227E+01
-18.000000 -40.000000 1.067598E+01
-16.000000 40.000000 -4.723282E+00
-16.000000 38.000000 -1.985121E+01
-16.000000 36.000000 -3.468305E+01
-16.000000 34.000000 -4.028925E+01
-16.000000 32.000000 -2.457985E+01
-16.000000 30.000000 -9.370531E+00
-16.000000 28.000000 -1.052295E+01
-16.000000 26.000000 -2.723462E+01
-16.000000 24.000000 -4.101422E+01
-16.000000 22.000000 -4.259020E+01
-16.000000 20.000000 -4.058472E+01
-16.000000 18.000000 -3.911520E+01
-16.000000 16.000000 -4.393227E+01
-16.000000 14.000000 -5.892667E+01
-16.000000 12.000000 -7.170532E+01
-16.000000 10.000000 -6.932469E+01
-16.000000 8.000000 -4.676381E+01
-16.000000 6.000000 -3.305702E+01
-16.000000 4.000000 -3.757249E+01
-16.000000 2.000000 -3.667797E+01
-16.000000 0.000000 -2.102252E+01
-16.000000 -2.000000 3.661245E+00
-16.000000 -4.000000 2.364625E+01
-16.000000 -6.000000 2.733136E+01
-16.000000 -8.000000 2.873661E+01
-16.000000 -10.000000 2.988334E+01
-16.000000 -12.000000 3.592475E+01
-16.000000 -14.000000 5.109981E+01
-16.000000 -16.000000 6.200999E+01
-16.000000 -18.000000 6.602530E+01
-16.000000 -20.000000 6.765838E+01
-16.000000 -22.000000 6.828664E+01
-16.000000 -24.000000 7.037893E+01
-16.000000 -26.000000 7.219839E+01
-16.000000 -28.000000 7.435297E+01
-16.000000 -30.000000 8.020075E+01
-16.000000 -32.000000 8.097486E+01
-16.000000 -34.000000 7.738959E+01
-16.000000 -36.000000 5.656977E+01
-16.000000 -38.000000 3.205222E+01
-16.000000 -40.000000 8.444556E+00
-14.000000 40.000000 -1.024013E+01
-14.000000 38.000000 -2.363006E+01
-14.000000 36.000000 -3.613341E+01
-14.000000 34.000000 -3.526184E+01
-14.000000 32.000000 -1.367654E+01
-14.000000 30.000000 4.377244E+00
-14.000000 28.000000 3.482347E+00
-14.000000 26.000000 -1.485795E+01
-14.000000 24.000000 -2.878873E+01
-14.000000 22.000000 -3.139505E+01
-14.000000 20.000000 -3.188657E+01
-14.000000 18.000000 -3.124622E+01
-14.000000 16.000000 -3.765011E+01
-14.000000 14.000000 -5.496875E+01
-14.000000 12.000000 -6.940047E+01
-14.000000 10.000000 -6.866526E+01
-14.000000 8.000000 -4.574958E+01
-14.000000 6.000000 -3.055492E+01
-14.000000 4.000000 -3.432825E+01
-14.000000 2.000000 -3.354855E+01
-14.000000 0.000000 -1.987868E+01
-14.000000 -2.000000 2.015815E+00
-14.000000 -4.000000 1.986811E+01
-14.000000 -6.000000 2.456236E+01
-14.000000 -8.000000 2.629305E+01
-14.000000 -10.000000 2.847254E+01
-14.000000 -12.000000 3.101999E+01
-14.000000 -14.000000 3.674942E+01
-14.000000 -16.000000 4.118329E+01
-14.000000 -18.000000 4.547674E+01
-14.000000 -20.000000 5.091593E+01
-14.000000 -22.000000 5.509056E+01
-14.000000 -24.000000 5.642029E+01
-14.000000 -26.000000 5.637155E+01
-14.000000 -28.000000 5.921484E+01
-14.000000 -30.000000 6.691599E+01
-14.000000 -32.000000 7.019573E+01
-14.000000 -34.000000 6.741228E+01
-14.000000 -36.000000 4.788671E+01
-14.000000 -38.000000 2.685566E+01
-14.000000 -40.000000 7.381870E+00
-12.000000 40.000000 -1.554792E+01
-12.000000 38.000000 -2.517127E+01
-12.000000 36.000000 -3.240202E+01
-12.000000 34.000000 -2.639499E+01
-12.000000 32.000000 -5.213951E+00
-12.000000 30.000000 1.042965E+01
-12.000000 28.000000 9.694999E+00
-12.000000 26.000000 -2.380642E+00
-12.000000 24.000000 -1.171558E+01
-12.000000 22.000000 -1.452356E+01
-12.000000 20.000000 -1.212071E+01
-12.000000 18.000000 -8.864452E+00
-12.000000 16.000000 -1.564696E+01
-12.000000 14.000000 -3.337137E+01
-12.000000 12.000000 -4.764070E+01
-12.000000 10.000000 -4.711908E+01
-12.000000 8.000000 -2.659245E+01
-12.000000 6.000000 -1.162687E+01
-12.000000 4.000000 -1.294478E+01
-12.000000 2.000000 -1.757097E+01
-12.000000 0.000000 -1.466554E+01
-12.000000 -2.000000 -2.011712E+00
-12.000000 -4.000000 1.176025E+01
-12.000000 -6.000000 1.798452E+01
-12.000000 -8.000000 2.096889E+01
-12.000000 -10.000000 2.357230E+01
-12.000000 -12.000000 1.995546E+01
-12.000000 -14.000000 1.296496E+01
-12.000000 -16.000000 9.130031E+00
-12.000000 -18.000000 1.467044E+01
-12.000000 -20.000000 2.418177E+01
-12.000000 -22.000000 3.210135E+01
-12.000000 -24.000000 3.256514E+01
-12.000000 -26.000000 3.057483E+01
-12.000000 -28.000000 3.386001E+01
-12.000000 -30.000000 4.346243E+01
-12.000000 -32.000000 5.091978E+01
-12.000000 -34.000000 5.189979E+01
-12.000000 -36.000000 3.670475E+01
-12.000000 -38.000000 2.036615E+01
-12.000000 -40.000000 6.028039E+00
-10.000000 40.000000 -2.002447E+01
-10.000000 38.000000 -2.433505E+01
-10.000000 36.000000 -2.469444E+01
-10.000000 34.000000 -1.556325E+01
-10.000000 32.000000 2.929926E+00
-10.000000 30.000000 1.412701E+01
-10.000000 28.000000 1.126602E+01
-10.000000 26.000000 1.094745E+00
-10.000000 24.000000 -4.595705E+00
-10.000000 22.000000 -1.943847E+00
-10.000000 20.000000 8.869115E+00
-10.000000 18.000000 1.696564E+01
-10.000000 16.000000 1.368123E+01
-10.000000 14.000000 1.679111E+00
-10.000000 12.000000 -7.788090E+00
-10.000000 10.000000 -4.202330E+00
-10.000000 8.000000 1.165453E+01
-10.000000 6.000000 2.096042E+01
-10.000000 4.000000 1.247656E+01
-10.000000 2.000000 -8.044901E-01
-10.000000 0.000000 -6.089417E+00
-10.000000 -2.000000 -3.576131E-01
-10.000000 -4.000000 8.267491E+00
-10.000000 -6.000000 1.085403E+01
-10.000000 -8.000000 1.043533E+01
-10.000000 -10.000000 8.872840E+00
-10.000000 -12.000000 2.206283E-01
-10.000000 -14.000000 -1.274972E+01
-10.000000 -16.000000 -2.146112E+01
-10.000000 -18.000000 -1.784530E+01
-10.000000 -20.000000 -8.084968E+00
-10.000000 -22.000000 9.945493E-01
-10.000000 -24.000000 1.506087E+00
-10.000000 -26.000000 -5.774956E-01
-10.000000 -28.000000 4.298052E+00
-10.000000 -30.000000 1.563698E+01
-10.000000 -32.000000 2.720230E+01
-10.000000 -34.000000 3.330684E+01
-10.000000 -36.000000 2.543201E+01
-10.000000 -38.000000 1.487367E+01
-10.000000 -40.000000 5.727448E+00
-8.000000 40.000000 -2.266515E+01
-8.000000 38.000000 -2.196561E+01
-8.000000 36.000000 -1.701179E+01
-8.000000 34.000000 -6.275851E+00
-8.000000 32.000000 1.043917E+01
-8.000000 30.000000 1.774630E+01
-8.000000 28.000000 9.843525E+00
-8.000000 26.000000 -4.828712E+00
-8.000000 24.000000 -9.906054E+00
-8.000000 22.000000 1.625656E+00
-8.000000 20.000000 2.206284E+01
-8.000000 18.000000 3.686809E+01
-8.000000 16.000000 4.030143E+01
-8.000000 14.000000 3.716843E+01
-8.000000 12.000000 3.477321E+01
-8.000000 10.000000 4.362307E+01
-8.000000 8.000000 5.572364E+01
-8.000000 6.000000 5.730415E+01
-8.000000 4.000000 3.473200E+01
-8.000000 2.000000 1.174540E+01
-8.000000 0.000000 2.613871E+00
-8.000000 -2.000000 6.490116E+00
-8.000000 -4.000000 1.162980E+01
-8.000000 -6.000000 7.665259E+00
-8.000000 -8.000000 -1.403806E+00
-8.000000 -10.000000 -1.188196E+01
-8.000000 -12.000000 -2.286414E+01
-8.000000 -14.000000 -3.325819E+01
-8.000000 -16.000000 -4.083822E+01
-8.000000 -18.000000 -4.182275E+01
-8.000000 -20.000000 -3.682667E+01
-8.000000 -22.000000 -3.107703E+01
-8.000000 -24.000000 -2.969983E+01
-8.000000 -26.000000 -2.902284E+01
-8.000000 -28.000000 -2.200820E+01
-8.000000 -30.000000 -1.035807E+01
-8.000000 -32.000000 3.312353E+00
-8.000000 -34.000000 1.355595E+01
-8.000000 -36.000000 1.463989E+01
-8.000000 -38.000000 1.141762E+01
-8.000000 -40.000000 7.775807E+00
-6.000000 40.000000 -2.355852E+01
-6.000000 38.000000 -1.937910E+01
-6.000000 36.000000 -1.102410E+01
-6.000000 34.000000 3.601189E-01
-6.000000 32.000000 1.491522E+01
-6.000000 30.000000 1.809381E+01
-6.000000 28.000000 4.637230E+00
-6.000000 26.000000 -1.426028E+01
-6.000000 24.000000 -2.077406E+01
-6.000000 22.000000 -3.668626E+00
-6.000000 20.000000 2.264654E+01
-6.000000 18.000000 4.351358E+01
-6.000000 16.000000 5.359840E+01
-6.000000 14.000000 5.837630E+01
-6.000000 12.000000 6.315521E+01
-6.000000 10.000000 7.753079E+01
-6.000000 8.000000 8.869310E+01
-6.000000 6.000000 8.428430E+01
-6.000000 4.000000 5.133054E+01
-6.000000 2.000000 2.008813E+01
-6.000000 0.000000 8.812370E+00
-6.000000 -2.000000 1.415874E+01
-6.000000 -4.000000 1.893688E+01
-6.000000 -6.000000 9.530704E+00
-6.000000 -8.000000 -9.327419E+00
-6.000000 -10.000000 -2.869043E+01
-6.000000 -12.000000 -3.937461E+01
-6.000000 -14.000000 -4.453399E+01
-6.000000 -16.000000 -4.831001E+01
-6.000000 -18.000000 -5.147718E+01
-6.000000 -20.000000 -5.211968E+01
-6.000000 -22.000000 -5.127920E+01
-6.000000 -24.000000 -5.057930E+01
-6.000000 -26.000000 -4.759773E+01
-6.000000 -28.000000 -3.983016E+01
-6.000000 -30.000000 -2.953976E+01
-6.000000 -32.000000 -1.593109E+01
-6.000000 -34.000000 -3.333975E+00
-6.000000 -36.000000 5.588930E+00
-6.000000 -38.000000 9.736175E+00
-6.000000 -40.000000 1.131367E+01
-4.000000 40.000000 -2.268489E+01
-4.000000 38.000000 -1.744432E+01
-4.000000 36.000000 -8.243985E+00
-4.000000 34.000000 3.244295E+00
-4.000000 32.000000 1.441244E+01
-4.000000 30.000000 1.315808E+01
-4.000000 28.000000 -3.642834E+00
-4.000000 26.000000 -2.313766E+01
-4.000000 24.000000 -3.208612E+01
-4.000000 22.000000 -1.669272E+01
-4.000000 20.000000 9.523187E+00
-4.000000 18.000000 3.360168E+01
-4.000000 16.000000 4.788418E+01
-4.000000 14.000000 5.808743E+01
-4.000000 12.000000 6.976596E+01
-4.000000 10.000000 9.039758E+01
-4.000000 8.000000 1.046516E+02
-4.000000 6.000000 9.788721E+01
-4.000000 4.000000 5.909598E+01
-4.000000 2.000000 2.163305E+01
-4.000000 0.000000 1.106929E+01
-4.000000 -2.000000 2.235707E+01
-4.000000 -4.000000 3.080733E+01
-4.000000 -6.000000 1.700102E+01
-4.000000 -8.000000 -1.169961E+01
-4.000000 -10.000000 -3.927329E+01
-4.000000 -12.000000 -4.780423E+01
-4.000000 -14.000000 -4.529419E+01
-4.000000 -16.000000 -4.351780E+01
-4.000000 -18.000000 -4.684974E+01
-4.000000 -20.000000 -5.170810E+01
-4.000000 -22.000000 -5.487088E+01
-4.000000 -24.000000 -5.612546E+01
-4.000000 -26.000000 -5.309875E+01
-4.000000 -28.000000 -4.623769E+01
-4.000000 -30.000000 -3.740052E+01
-4.000000 -32.000000 -2.579346E+01
-4.000000 -34.000000 -1.299354E+01
-4.000000 -36.000000 1.349768E+00
-4.000000 -38.000000 1.093619E+01
-4.000000 -40.000000 1.589388E+01
-2.000000 40.000000 -2.078721E+01
-2.000000 38.000000 -1.675019E+01
-2.000000 36.000000 -9.212043E+00
-2.000000 34.000000 6.878605E-01
-2.000000 32.000000 9.460024E+00
-2.000000 30.000000 6.356997E+00
-2.000000 28.000000 -1.157243E+01
-2.000000 26.000000 -3.288940E+01
-2.000000 24.000000 -4.589625E+01
-2.000000 22.000000 -3.404307E+01
-2.000000 20.000000 -1.107576E+01
-2.000000 18.000000 1.085000E+01
-2.000000 16.000000 2.547242E+01
-2.000000 14.000000 3.868609E+01
-2.000000 12.000000 5.609073E+01
-2.000000 10.000000 8.465594E+01
-2.000000 8.000000 1.063191E+02
-2.000000 6.000000 1.004075E+02
-2.000000 4.000000 5.398226E+01
-2.000000 2.000000 1.283951E+01
-2.000000 0.000000 7.634341E+00
-2.000000 -2.000000 2.890306E+01
-2.000000 -4.000000 4.503591E+01
-2.000000 -6.000000 2.617026E+01
-2.000000 -8.000000 -1.130538E+01
-2.000000 -10.000000 -4.411420E+01
-2.000000 -12.000000 -4.994637E+01
-2.000000 -14.000000 -3.912461E+01
-2.000000 -16.000000 -2.976514E+01
-2.000000 -18.000000 -3.184627E+01
-2.000000 -20.000000 -3.822159E+01
-2.000000 -22.000000 -4.366001E+01
-2.000000 -24.000000 -4.664538E+01
-2.000000 -26.000000 -4.542823E+01
-2.000000 -28.000000 -4.020740E+01
-2.000000 -30.000000 -3.142912E+01
-2.000000 -32.000000 -2.263118E+01
-2.000000 -34.000000 -1.123257E+01
-2.000000 -36.000000 4.529454E+00
-2.000000 -38.000000 1.562968E+01
-2.000000 -40.000000 2.075959E+01
0.000000 40.000000 -1.893739E+01
0.000000 38.000000 -1.751567E+01
0.000000 36.000000 -1.297639E+01
0.000000 34.000000 -6.575755E+00
0.000000 32.000000 1.221359E+00
0.000000 30.000000 -1.904478E-01
0.000000 28.000000 -1.668629E+01
0.000000 26.000000 -4.067993E+01
0.000000 24.000000 -5.722008E+01
0.000000 22.000000 -4.829450E+01
0.000000 20.000000 -3.131227E+01
0.000000 18.000000 -1.695117E+01
0.000000 16.000000 -6.561979E+00
0.000000 14.000000 6.781988E+00
0.000000 12.000000 2.625629E+01
0.000000 10.000000 6.120351E+01
0.000000 8.000000 9.505698E+01
0.000000 6.000000 9.419885E+01
0.000000 4.000000 4.008324E+01
0.000000 2.000000 -3.963660E+00
0.000000 0.000000 -3.617908E+00
0.000000 -2.000000 2.583173E+01
0.000000 -4.000000 4.875154E+01
0.000000 -6.000000 2.899715E+01
0.000000 -8.000000 -8.526266E+00
0.000000 -10.000000 -3.854267E+01
0.000000 -12.000000 -4.205558E+01
0.000000 -14.000000 -2.841743E+01
0.000000 -16.000000 -1.466831E+01
0.000000 -18.000000 -1.337017E+01
0.000000 -20.000000 -1.693578E+01
0.000000 -22.000000 -2.176787E+01
0.000000 -24.000000 -2.566003E+01
0.000000 -26.000000 -2.691656E+01
0.000000 -28.000000 -2.302554E+01
0.000000 -30.000000 -1.374964E+01
0.000000 -32.000000 -5.301590E+00
0.000000 -34.000000 4.815545E+00
0.000000 -36.000000 1.575286E+01
0.000000 -38.000000 2.240212E+01
0.000000 -40.000000 2.438510E+01
2.000000 40.000000 -1.714844E+01
2.000000 38.000000 -1.910071E+01
2.000000 36.000000 -1.821296E+01
2.000000 34.000000 -1.590374E+01
2.000000 32.000000 -9.465816E+00
2.000000 30.000000 -8.595929E+00
2.000000 28.000000 -2.028322E+01
2.000000 26.000000 -3.959219E+01
2.000000 24.000000 -5.514348E+01
2.000000 22.000000 -5.279784E+01
2.000000 20.000000 -4.622739E+01
2.000000 18.000000 -4.182734E+01
2.000000 16.000000 -3.835928E+01
2.000000 14.000000 -2.858218E+01
2.000000 12.000000 -9.092036E+00
2.000000 10.000000 2.843661E+01
2.000000 8.000000 6.844329E+01
2.000000 6.000000 7.273314E+01
2.000000 4.000000 2.598285E+01
2.000000 2.000000 -1.672138E+01
2.000000 0.000000 -2.053840E+01
2.000000 -2.000000 5.352152E+00
2.000000 -4.000000 2.839051E+01
2.000000 -6.000000 2.056064E+01
2.000000 -8.000000 -9.849567E-01
2.000000 -10.000000 -1.852591E+01
2.000000 -12.000000 -2.166868E+01
2.000000 -14.000000 -1.425500E+01
2.000000 -16.000000 -4.674694E+00
2.000000 -18.000000 2.701659E+00
2.000000 -20.000000 6.494435E+00
2.000000 -22.000000 5.564841E+00
2.000000 -24.000000 8.925419E-01
2.000000 -26.000000 -2.601729E+00
2.000000 -28.000000 2.932568E-01
2.000000 -30.000000 1.033661E+01
2.000000 -32.000000 2.112325E+01
2.000000 -34.000000 3.038460E+01
2.000000 -36.000000 3.209488E+01
2.000000 -38.000000 3.016481E+01
2.000000 -40.000000 2.678300E+01
4.000000 40.000000 -1.580778E+01
4.000000 38.000000 -2.063616E+01
4.000000 36.000000 -2.386267E+01
4.000000 34.000000 -2.491676E+01
4.000000 32.000000 -1.899820E+01
4.000000 30.000000 -1.583544E+01
4.000000 28.000000 -2.211350E+01
4.000000 26.000000 -3.336780E+01
4.000000 24.000000 -4.476115E+01
4.000000 22.000000 -4.985515E+01
4.000000 20.000000 -5.257711E+01
4.000000 18.000000 -5.603908E+01
4.000000 16.000000 -5.789901E+01
4.000000 14.000000 -5.341311E+01
4.000000 12.000000 -3.492837E+01
4.000000 10.000000 9.498649E-01
4.000000 8.000000 3.757533E+01
4.000000 6.000000 4.290726E+01
4.000000 4.000000 9.114263E+00
4.000000 2.000000 -2.918342E+01
4.000000 0.000000 -3.970345E+01
4.000000 -2.000000 -2.001297E+01
4.000000 -4.000000 2.629853E+00
4.000000 -6.000000 7.646262E+00
4.000000 -8.000000 4.934936E+00
4.000000 -10.000000 1.643008E+00
4.000000 -12.000000 -1.457060E+00
4.000000 -14.000000 -1.378012E-01
4.000000 -16.000000 3.340752E+00
4.000000 -18.000000 1.608226E+01
4.000000 -20.000000 2.678812E+01
4.000000 -22.000000 2.989787E+01
4.000000 -24.000000 2.474162E+01
4.000000 -26.000000 1.950956E+01
4.000000 -28.000000 2.128273E+01
4.000000 -30.000000 3.311874E+01
4.000000 -32.000000 4.713059E+01
4.000000 -34.000000 5.636285E+01
4.000000 -36.000000 4.931061E+01
4.000000 -38.000000 3.835033E+01
4.000000 -40.000000 2.907612E+01
6.000000 40.000000 -1.508416E+01
6.000000 38.000000 -2.133629E+01
6.000000 36.000000 -2.910334E+01
6.000000 34.000000 -3.330060E+01
6.000000 32.000000 -2.384812E+01
6.000000 30.000000 -1.528014E+01
6.000000 28.000000 -1.914002E+01
6.000000 26.000000 -3.125598E+01
6.000000 24.000000 -4.149259E+01
6.000000 22.000000 -4.482323E+01
6.000000 20.000000 -4.823903E+01
6.000000 18.000000 -5.584643E+01
6.000000 16.000000 -6.008089E+01
6.000000 14.000000 -5.653726E+01
6.000000 12.000000 -3.886234E+01
6.000000 10.000000 -7.820968E+00
6.000000 8.000000 1.942925E+01
6.000000 6.000000 1.833307E+01
6.000000 4.000000 -1.620430E+01
6.000000 2.000000 -4.955159E+01
6.000000 0.000000 -5.552473E+01
6.000000 -2.000000 -3.343171E+01
6.000000 -4.000000 -9.263179E+00
6.000000 -6.000000 -4.353743E-01
6.000000 -8.000000 3.084941E+00
6.000000 -10.000000 5.288424E+00
6.000000 -12.000000 4.986407E+00
6.000000 -14.000000 1.031880E+01
6.000000 -16.000000 1.630821E+01
6.000000 -18.000000 2.935478E+01
6.000000 -20.000000 3.994820E+01
6.000000 -22.000000 4.350995E+01
6.000000 -24.000000 3.839207E+01
6.000000 -26.000000 3.258643E+01
6.000000 -28.000000 3.385049E+01
6.000000 -30.000000 4.651307E+01
6.000000 -32.000000 6.307398E+01
6.000000 -34.000000 7.338527E+01
6.000000 -36.000000 6.224761E+01
6.000000 -38.000000 4.617034E+01
6.000000 -40.000000 3.316597E+01
8.000000 40.000000 -1.384579E+01
8.000000 38.000000 -1.965737E+01
8.000000 36.000000 -3.208432E+01
8.000000 34.000000 -4.023137E+01
8.000000 32.000000 -2.428617E+01
8.000000 30.000000 -8.219006E+00
8.000000 28.000000 -1.256870E+01
8.000000 26.000000 -3.124515E+01
8.000000 24.000000 -4.094967E+01
8.000000 22.000000 -3.561217E+01
8.000000 20.000000 -3.478017E+01
8.000000 18.000000 -4.268629E+01
8.000000 16.000000 -4.696706E+01
8.000000 14.000000 -4.237670E+01
8.000000 12.000000 -2.778901E+01
8.000000 10.000000 -3.595965E+00
8.000000 8.000000 1.228275E+01
8.000000 6.000000 1.596654E+00
8.000000 4.000000 -4.020749E+01
8.000000 2.000000 -6.912489E+01
8.000000 0.000000 -6.386390E+01
8.000000 -2.000000 -3.312045E+01
8.000000 -4.000000 -7.042913E+00
8.000000 -6.000000 -2.357557E+00
8.000000 -8.000000 -4.669727E+00
8.000000 -10.000000 -5.034237E+00
8.000000 -12.000000 -1.968040E-01
8.000000 -14.000000 1.516890E+01
8.000000 -16.000000 3.051371E+01
8.000000 -18.000000 4.238519E+01
8.000000 -20.000000 4.824378E+01
8.000000 -22.000000 4.782399E+01
8.000000 -24.000000 4.083750E+01
8.000000 -26.000000 3.427526E+01
8.000000 -28.000000 3.574538E+01
8.000000 -30.000000 4.746005E+01
8.000000 -32.000000 6.374129E+01
8.000000 -34.000000 7.490021E+01
8.000000 -36.000000 6.608543E+01
8.000000 -38.000000 5.196243E+01
8.000000 -40.000000 3.992661E+01
10.000000 40.000000 -1.184282E+01
10.000000 38.000000 -1.619616E+01
10.000000 36.000000 -2.987825E+01
10.000000 34.000000 -3.909263E+01
10.000000 32.000000 -2.037729E+01
10.000000 30.000000 -2.176670E+00
10.000000 28.000000 -7.203296E+00
10.000000 26.000000 -2.576445E+01
10.000000 24.000000 -3.190890E+01
10.000000 22.000000 -2.131456E+01
10.000000 20.000000 -1.589306E+01
10.000000 18.000000 -1.960984E+01
10.000000 16.000000 -2.388791E+01
10.000000 14.000000 -2.190245E+01
10.000000 12.000000 -1.431398E+01
10.000000 10.000000 -8.506804E-01
10.000000 8.000000 2.625017E+00
10.000000 6.000000 -1.535205E+01
10.000000 4.000000 -5.448867E+01
10.000000 2.000000 -7.550793E+01
10.000000 0.000000 -6.147709E+01
10.000000 -2.000000 -2.518836E+01
10.000000 -4.000000 1.153768E+00
10.000000 -6.000000 -9.357691E-01
10.000000 -8.000000 -1.534574E+01
10.000000 -10.000000 -2.157857E+01
10.000000 -12.000000 -9.390633E+00
10.000000 -14.000000 1.578414E+01
10.000000 -16.000000 4.019387E+01
10.000000 -18.000000 5.447671E+01
10.000000 -20.000000 5.637254E+01
10.000000 -22.000000 4.964234E+01
10.000000 -24.000000 3.663749E+01
10.000000 -26.000000 2.644595E+01
10.000000 -28.000000 2.661545E+01
10.000000 -30.000000 3.630964E+01
10.000000 -32.000000 5.131347E+01
10.000000 -34.000000 6.372745E+01
10.000000 -36.000000 6.155424E+01
10.000000 -38.000000 5.371139E+01
10.000000 -40.000000 4.659333E+01
12.000000 40.000000 -1.014664E+01
12.000000 38.000000 -1.312382E+01
12.000000 36.000000 -2.204100E+01
12.000000 34.000000 -2.591714E+01
12.000000 32.000000 -1.000998E+01
12.000000 30.000000 3.736657E+00
12.000000 28.000000 -2.514820E-01
12.000000 26.000000 -1.261077E+01
12.000000 24.000000 -1.543693E+01
12.000000 22.000000 -5.838600E+00
12.000000 20.000000 3.985374E+00
12.000000 18.000000 7.170601E+00
12.000000 16.000000 3.447664E+00
12.000000 14.000000 -5.687809E-01
12.000000 12.000000 -3.372047E+00
12.000000 10.000000 -4.497947E+00
12.000000 8.000000 -1.451168E+01
12.000000 6.000000 -3.834055E+01
12.000000 4.000000 -6.987274E+01
12.000000 2.000000 -7.855180E+01
12.000000 0.000000 -5.299165E+01
12.000000 -2.000000 -9.480258E+00
12.000000 -4.000000 1.577095E+01
12.000000 -6.000000 1.882648E-01
12.000000 -8.000000 -3.172701E+01
12.000000 -10.000000 -4.572833E+01
12.000000 -12.000000 -2.262252E+01
12.000000 -14.000000 1.948373E+01
12.000000 -16.000000 5.668636E+01
12.000000 -18.000000 7.347714E+01
12.000000 -20.000000 6.764250E+01
12.000000 -22.000000 5.048176E+01
12.000000 -24.000000 2.809953E+01
12.000000 -26.000000 1.208128E+01
12.000000 -28.000000 8.847819E+00
12.000000 -30.000000 1.585133E+01
12.000000 -32.000000 3.052197E+01
12.000000 -34.000000 4.579579E+01
12.000000 -36.000000 5.225635E+01
12.000000 -38.000000 5.180785E+01
12.000000 -40.000000 5.125957E+01
14.000000 40.000000 -9.042396E+00
14.000000 38.000000 -9.093349E+00
14.000000 36.000000 -1.150742E+01
14.000000 34.000000 -8.957138E+00
14.000000 32.000000 7.061894E+00
14.000000 30.000000 1.872690E+01
14.000000 28.000000 1.381935E+01
14.000000 26.000000 5.326242E-01
14.000000 24.000000 -2.940777E+00
14.000000 22.000000 7.814747E+00
14.000000 20.000000 2.311009E+01
14.000000 18.000000 3.216046E+01
14.000000 16.000000 3.068645E+01
14.000000 14.000000 2.187099E+01
14.000000 12.000000 6.845345E+00
14.000000 10.000000 -1.127100E+01
14.000000 8.000000 -3.657034E+01
14.000000 6.000000 -6.842797E+01
14.000000 4.000000 -9.730933E+01
14.000000 2.000000 -9.061053E+01
14.000000 0.000000 -4.519364E+01
14.000000 -2.000000 1.031828E+01
14.000000 -4.000000 3.303658E+01
14.000000 -6.000000 -2.536412E+00
14.000000 -8.000000 -5.446201E+01
14.000000 -10.000000 -7.856549E+01
14.000000 -12.000000 -3.864513E+01
14.000000 -14.000000 3.373928E+01
14.000000 -16.000000 9.147710E+01
14.000000 -18.000000 1.050539E+02
14.000000 -20.000000 8.291095E+01
14.000000 -22.000000 4.888099E+01
14.000000 -24.000000 1.513582E+01
14.000000 -26.000000 -6.268185E+00
14.000000 -28.000000 -1.183302E+01
14.000000 -30.000000 -7.527593E+00
14.000000 -32.000000 6.925316E+00
14.000000 -34.000000 2.542086E+01
14.000000 -36.000000 4.103195E+01
14.000000 -38.000000 4.850930E+01
14.000000 -40.000000 5.428790E+01
16.000000 40.000000 -7.714288E+00
16.000000 38.000000 -3.046979E+00
16.000000 36.000000 -2.744131E-01
16.000000 34.000000 6.157048E+00
16.000000 32.000000 2.618404E+01
16.000000 30.000000 3.969799E+01
16.000000 28.000000 3.066574E+01
16.000000 26.000000 9.676792E+00
16.000000 24.000000 3.611747E+00
16.000000 22.000000 1.720644E+01
16.000000 20.000000 3.734562E+01
16.000000 18.000000 5.227724E+01
16.000000 16.000000 5.387858E+01
16.000000 14.000000 4.167956E+01
16.000000 12.000000 1.438250E+01
16.000000 10.000000 -2.051571E+01
16.000000 8.000000 -5.912299E+01
16.000000 6.000000 -9.768702E+01
16.000000 4.000000 -1.262088E+02
16.000000 2.000000 -1.069714E+02
16.000000 0.000000 -4.389655E+01
16.000000 -2.000000 2.134014E+01
16.000000 -4.000000 4.056137E+01
16.000000 -6.000000 -1.126290E+01
16.000000 -8.000000 -7.537792E+01
16.000000 -10.000000 -1.010034E+02
16.000000 -12.000000 -4.012251E+01
16.000000 -14.000000 6.043935E+01
16.000000 -16.000000 1.334344E+02
16.000000 -18.000000 1.387094E+02
16.000000 -20.000000 9.696957E+01
16.000000 -22.000000 4.409974E+01
16.000000 -24.000000 -6.819282E-01
16.000000 -26.000000 -2.499109E+01
16.000000 -28.000000 -3.034453E+01
16.000000 -30.000000 -2.744859E+01
16.000000 -32.000000 -1.289618E+01
16.000000 -34.000000 8.037142E+00
16.000000 -36.000000 3.083232E+01
16.000000 -38.000000 4.521066E+01
16.000000 -40.000000 5.546640E+01
18.000000 40.000000 -5.066243E+00
18.000000 38.000000 2.844601E+00
18.000000 36.000000 9.597132E+00
18.000000 34.000000 2.000107E+01
18.000000 32.000000 4.255530E+01
18.000000 30.000000 5.544786E+01
18.000000 28.000000 4.225724E+01
18.000000 26.000000 1.631390E+01
18.000000 24.000000 6.355987E+00
18.000000 22.000000 1.908967E+01
18.000000 20.000000 4.287217E+01
18.000000 18.000000 6.476824E+01
18.000000 16.000000 7.038994E+01
18.000000 14.000000 5.573645E+01
18.000000 12.000000 1.817619E+01
18.000000 10.000000 -3.121448E+01
18.000000 8.000000 -7.887625E+01
18.000000 6.000000 -1.195728E+02
18.000000 4.000000 -1.393773E+02
18.000000 2.000000 -1.129553E+02
18.000000 0.000000 -4.866437E+01
18.000000 -2.000000 1.419729E+01
18.000000 -4.000000 2.909623E+01
18.000000 -6.000000 -2.458630E+01
18.000000 -8.000000 -8.533504E+01
18.000000 -10.000000 -9.678517E+01
18.000000 -12.000000 -1.611793E+01
18.000000 -14.000000 9.561811E+01
18.000000 -16.000000 1.671883E+02
18.000000 -18.000000 1.608423E+02
18.000000 -20.000000 1.014959E+02
18.000000 -22.000000 3.418662E+01
18.000000 -24.000000 -1.671623E+01
18.000000 -26.000000 -3.992601E+01
18.000000 -28.000000 -4.318470E+01
18.000000 -30.000000 -3.965262E+01
18.000000 -32.000000 -2.454808E+01
18.000000 -34.000000 -2.320055E+00
18.000000 -36.000000 2.416187E+01
18.000000 -38.000000 4.241539E+01
18.000000 -40.000000 5.499904E+01
20.000000 40.000000 -3.648472E-01
20.000000 38.000000 6.867925E+00
20.000000 36.000000 1.488102E+01
20.000000 34.000000 2.981470E+01
20.000000 32.000000 5.298213E+01
20.000000 30.000000 6.288610E+01
20.000000 28.000000 4.673911E+01
20.000000 26.000000 1.928993E+01
20.000000 24.000000 3.627355E+00
20.000000 22.000000 1.305667E+01
20.000000 20.000000 3.980040E+01
20.000000 18.000000 6.854518E+01
20.000000 16.000000 7.947814E+01
20.000000 14.000000 6.464494E+01
20.000000 12.000000 2.106645E+01
20.000000 10.000000 -3.731604E+01
20.000000 8.000000 -8.845535E+01
20.000000 6.000000 -1.255118E+02
20.000000 4.000000 -1.364387E+02
20.000000 2.000000 -1.109577E+02
20.000000 0.000000 -5.472888E+01
20.000000 -2.000000 1.523376E+00
20.000000 -4.000000 1.349369E+01
20.000000 -6.000000 -3.664660E+01
20.000000 -8.000000 -8.859367E+01
20.000000 -10.000000 -8.334286E+01
20.000000 -12.000000 1.470458E+01
20.000000 -14.000000 1.338067E+02
20.000000 -16.000000 1.955574E+02
20.000000 -18.000000 1.693782E+02
20.000000 -20.000000 9.136858E+01
20.000000 -22.000000 1.527277E+01
20.000000 -24.000000 -3.314233E+01
20.000000 -26.000000 -4.863503E+01
20.000000 -28.000000 -4.705845E+01
20.000000 -30.000000 -4.123359E+01
20.000000 -32.000000 -2.647937E+01
20.000000 -34.000000 -4.880707E+00
20.000000 -36.000000 2.209333E+01
20.000000 -38.000000 4.128191E+01
20.000000 -40.000000 5.407752E+01
22.000000 40.000000 5.143775E+00
22.000000 38.000000 1.029399E+01
22.000000 36.000000 1.528657E+01
22.000000 34.000000 3.002292E+01
22.000000 32.000000 5.672861E+01
22.000000 30.000000 6.854913E+01
22.000000 28.000000 4.845922E+01
22.000000 26.000000 1.453894E+01
22.000000 24.000000 -7.404963E+00
22.000000 22.000000 2.904734E+00
22.000000 20.000000 3.219608E+01
22.000000 18.000000 6.495399E+01
22.000000 16.000000 8.133241E+01
22.000000 14.000000 7.005455E+01
22.000000 12.000000 2.528730E+01
22.000000 10.000000 -3.720920E+01
22.000000 8.000000 -8.723767E+01
22.000000 6.000000 -1.148345E+02
22.000000 4.000000 -1.224171E+02
22.000000 2.000000 -1.050161E+02
22.000000 0.000000 -5.574378E+01
22.000000 -2.000000 -4.630932E+00
22.000000 -4.000000 4.161372E+00
22.000000 -6.000000 -4.392105E+01
22.000000 -8.000000 -8.636957E+01
22.000000 -10.000000 -6.994965E+01
22.000000 -12.000000 3.833962E+01
22.000000 -14.000000 1.624508E+02
22.000000 -16.000000 2.120658E+02
22.000000 -18.000000 1.616366E+02
22.000000 -20.000000 6.718864E+01
22.000000 -22.000000 -1.102886E+01
22.000000 -24.000000 -4.904408E+01
22.000000 -26.000000 -5.105954E+01
22.000000 -28.000000 -4.160642E+01
22.000000 -30.000000 -3.116245E+01
22.000000 -32.000000 -1.754503E+01
22.000000 -34.000000 1.276117E+00
22.000000 -36.000000 2.486385E+01
22.000000 -38.000000 4.172296E+01
22.000000 -40.000000 5.249648E+01
24.000000 40.000000 9.954035E+00
24.000000 38.000000 1.426147E+01
24.000000 36.000000 1.383111E+01
24.000000 34.000000 2.248671E+01
24.000000 32.000000 5.370467E+01
24.000000 30.000000 7.126720E+01
24.000000 28.000000 4.643995E+01
24.000000 26.000000 4.291580E+00
24.000000 24.000000 -2.075320E+01
24.000000 22.000000 -6.002364E+00
24.000000 20.000000 2.477623E+01
24.000000 18.000000 5.931199E+01
24.000000 16.000000 7.984890E+01
24.000000 14.000000 7.314414E+01
24.000000 12.000000 2.780061E+01
24.000000 10.000000 -3.866396E+01
24.000000 8.000000 -8.556420E+01
24.000000 6.000000 -1.018586E+02
24.000000 4.000000 -1.040258E+02
24.000000 2.000000 -9.138477E+01
24.000000 0.000000 -4.707811E+01
24.000000 -2.000000 -1.572625E+00
24.000000 -4.000000 3.912885E+00
24.000000 -6.000000 -4.045508E+01
24.000000 -8.000000 -7.322166E+01
24.000000 -10.000000 -4.972463E+01
24.000000 -12.000000 5.538724E+01
24.000000 -14.000000 1.679224E+02
24.000000 -16.000000 2.004452E+02
24.000000 -18.000000 1.346405E+02
24.000000 -20.000000 3.466828E+01
24.000000 -22.000000 -3.798669E+01
24.000000 -24.000000 -6.212060E+01
24.000000 -26.000000 -5.029446E+01
24.000000 -28.000000 -3.108203E+01
24.000000 -30.000000 -1.260774E+01
24.000000 -32.000000 1.697745E+00
24.000000 -34.000000 1.666518E+01
24.000000 -36.000000 3.172322E+01
24.000000 -38.000000 4.222038E+01
24.000000 -40.000000 4.931073E+01
26.000000 40.000000 1.308642E+01
26.000000 38.000000 1.682796E+01
26.000000 36.000000 1.438342E+01
26.000000 34.000000 1.759904E+01
26.000000 32.000000 4.417930E+01
26.000000 30.000000 6.079989E+01
26.000000 28.000000 3.613832E+01
26.000000 26.000000 -3.090430E+00
26.000000 24.000000 -2.587541E+01
26.000000 22.000000 -1.230152E+01
26.000000 20.000000 1.801916E+01
26.000000 18.000000 5.464482E+01
26.000000 16.000000 7.597293E+01
26.000000 14.000000 6.941939E+01
26.000000 12.000000 2.186350E+01
26.000000 10.000000 -4.623710E+01
26.000000 8.000000 -9.004152E+01
26.000000 6.000000 -9.859874E+01
26.000000 4.000000 -8.361495E+01
26.000000 2.000000 -6.040501E+01
26.000000 0.000000 -2.355330E+01
26.000000 -2.000000 9.601710E+00
26.000000 -4.000000 1.190259E+01
26.000000 -6.000000 -2.422399E+01
26.000000 -8.000000 -4.810420E+01
26.000000 -10.000000 -2.318286E+01
26.000000 -12.000000 6.306027E+01
26.000000 -14.000000 1.470931E+02
26.000000 -16.000000 1.594782E+02
26.000000 -18.000000 9.030594E+01
26.000000 -20.000000 -3.406169E+00
26.000000 -22.000000 -6.326586E+01
26.000000 -24.000000 -7.154940E+01
26.000000 -26.000000 -4.688330E+01
26.000000 -28.000000 -1.868916E+01
26.000000 -30.000000 8.558548E+00
26.000000 -32.000000 2.585059E+01
26.000000 -34.000000 3.717858E+01
26.000000 -36.000000 4.041428E+01
26.000000 -38.000000 4.205038E+01
26.000000 -40.000000 4.503327E+01
28.000000 40.000000 1.420003E+01
28.000000 38.000000 1.663856E+01
28.000000 36.000000 1.575169E+01
28.000000 34.000000 1.797475E+01
28.000000 32.000000 3.354934E+01
28.000000 30.000000 4.176262E+01
28.000000 28.000000 2.163584E+01
28.000000 26.000000 -8.529397E+00
28.000000 24.000000 -2.961224E+01
28.000000 22.000000 -2.102771E+01
28.000000 20.000000 8.902511E+00
28.000000 18.000000 4.611076E+01
28.000000 16.000000 6.515066E+01
28.000000 14.000000 5.514737E+01
28.000000 12.000000 7.579295E+00
28.000000 10.000000 -5.639885E+01
28.000000 8.000000 -9.277756E+01
28.000000 6.000000 -9.129507E+01
28.000000 4.000000 -5.705934E+01
28.000000 2.000000 -2.071456E+01
28.000000 0.000000 1.284181E+01
28.000000 -2.000000 3.641002E+01
28.000000 -4.000000 3.437205E+01
28.000000 -6.000000 -8.768501E-01
28.000000 -8.000000 -2.561428E+01
28.000000 -10.000000 -1.029924E+01
28.000000 -12.000000 5.090105E+01
28.000000 -14.000000 1.096918E+02
28.000000 -16.000000 1.066937E+02
28.000000 -18.000000 3.772041E+01
28.000000 -20.000000 -4.414362E+01
28.000000 -22.000000 -8.623730E+01
28.000000 -24.000000 -7.662967E+01
28.000000 -26.000000 -3.954372E+01
28.000000 -28.000000 -6.166180E+00
28.000000 -30.000000 2.643371E+01
28.000000 -32.000000 4.742082E+01
28.000000 -34.000000 5.599353E+01
28.000000 -36.000000 4.806731E+01
28.000000 -38.000000 4.138155E+01
28.000000 -40.000000 4.096889E+01
30.000000 40.000000 1.297985E+01
30.000000 38.000000 1.531147E+01
30.000000 36.000000 1.464478E+01
30.000000 34.000000 1.467028E+01
30.000000 32.000000 2.410836E+01
30.000000 30.000000 2.814323E+01
30.000000 28.000000 1.116041E+01
30.000000 26.000000 -1.734243E+01
30.000000 24.000000 -4.018177E+01
30.000000 22.000000 -3.200123E+01
30.000000 20.000000 -1.900005E+00
30.000000 18.000000 3.189061E+01
30.000000 16.000000 4.736012E+01
30.000000 14.000000 3.480216E+01
30.000000 12.000000 -8.353045E+00
30.000000 10.000000 -6.159643E+01
30.000000 8.000000 -8.354763E+01
30.000000 6.000000 -7.131892E+01
30.000000 4.000000 -2.948707E+01
30.000000 2.000000 1.658499E+01
30.000000 0.000000 5.571028E+01
30.000000 -2.000000 7.466149E+01
30.000000 -4.000000 6.272335E+01
30.000000 -6.000000 1.847825E+01
30.000000 -8.000000 -1.403166E+01
30.000000 -10.000000 -1.406040E+01
30.000000 -12.000000 2.020011E+01
30.000000 -14.000000 5.880617E+01
30.000000 -16.000000 5.074047E+01
30.000000 -18.000000 -9.602287E+00
30.000000 -20.000000 -7.421858E+01
30.000000 -22.000000 -9.985061E+01
30.000000 -24.000000 -7.527752E+01
30.000000 -26.000000 -3.020191E+01
30.000000 -28.000000 3.598553E+00
30.000000 -30.000000 3.738754E+01
30.000000 -32.000000 5.966275E+01
30.000000 -34.000000 6.607491E+01
30.000000 -36.000000 5.232566E+01
30.000000 -38.000000 4.112800E+01
30.000000 -40.000000 3.805537E+01
32.000000 40.000000 8.833714E+00
32.000000 38.000000 1.211344E+01
32.000000 36.000000 1.025461E+01
32.000000 34.000000 5.415839E+00
32.000000 32.000000 1.199906E+01
32.000000 30.000000 1.707187E+01
32.000000 28.000000 3.526738E+00
32.000000 26.000000 -2.567846E+01
32.000000 24.000000 -5.043292E+01
32.000000 22.000000 -4.078262E+01
32.000000 20.000000 -1.070021E+01
32.000000 18.000000 1.877225E+01
32.000000 16.000000 3.080095E+01
32.000000 14.000000 1.912190E+01
32.000000 12.000000 -1.649176E+01
32.000000 10.000000 -5.643246E+01
32.000000 8.000000 -6.232191E+01
32.000000 6.000000 -3.943044E+01
32.000000 4.000000 3.743662E+00
32.000000 2.000000 4.918957E+01
32.000000 0.000000 8.662853E+01
32.000000 -2.000000 9.739597E+01
32.000000 -4.000000 7.443359E+01
32.000000 -6.000000 2.301973E+01
32.000000 -8.000000 -1.550620E+01
32.000000 -10.000000 -2.867750E+01
32.000000 -12.000000 -1.596584E+01
32.000000 -14.000000 3.740276E+00
32.000000 -16.000000 -4.117014E+00
32.000000 -18.000000 -4.511074E+01
32.000000 -20.000000 -8.544175E+01
32.000000 -22.000000 -9.561664E+01
32.000000 -24.000000 -6.499534E+01
32.000000 -26.000000 -2.147467E+01
32.000000 -28.000000 1.065345E+01
32.000000 -30.000000 4.245711E+01
32.000000 -32.000000 6.079679E+01
32.000000 -34.000000 6.516693E+01
32.000000 -36.000000 5.196044E+01
32.000000 -38.000000 4.056101E+01
32.000000 -40.000000 3.544896E+01
34.000000 40.000000 2.313722E+00
34.000000 38.000000 3.994966E+00
34.000000 36.000000 5.849442E-01
34.000000 34.000000 -6.835246E+00
34.000000 32.000000 -3.100761E+00
34.000000 30.000000 1.955009E+00
34.000000 28.000000 -7.041166E+00
34.000000 26.000000 -2.900917E+01
34.000000 24.000000 -5.043161E+01
34.000000 22.000000 -4.371896E+01
34.000000 20.000000 -1.620882E+01
34.000000 18.000000 1.140462E+01
34.000000 16.000000 2.167977E+01
34.000000 14.000000 1.293710E+01
34.000000 12.000000 -1.207545E+01
34.000000 10.000000 -3.670954E+01
34.000000 8.000000 -3.063421E+01
34.000000 6.000000 -2.066486E+00
34.000000 4.000000 3.757557E+01
34.000000 2.000000 7.060567E+01
34.000000 0.000000 9.253766E+01
34.000000 -2.000000 8.949665E+01
34.000000 -4.000000 6.076927E+01
34.000000 -6.000000 1.375652E+01
34.000000 -8.000000 -2.437507E+01
34.000000 -10.000000 -4.604811E+01
34.000000 -12.000000 -4.730403E+01
34.000000 -14.000000 -4.313245E+01
34.000000 -16.000000 -4.826768E+01
34.000000 -18.000000 -6.557861E+01
34.000000 -20.000000 -8.112366E+01
34.000000 -22.000000 -7.804588E+01
34.000000 -24.000000 -4.865234E+01
34.000000 -26.000000 -1.273085E+01
34.000000 -28.000000 1.445741E+01
34.000000 -30.000000 4.120646E+01
34.000000 -32.000000 5.433402E+01
34.000000 -34.000000 5.761840E+01
34.000000 -36.000000 4.743215E+01
34.000000 -38.000000 3.765074E+01
34.000000 -40.000000 3.193738E+01
36.000000 40.000000 -5.389178E+00
36.000000 38.000000 -8.811570E+00
36.000000 36.000000 -1.445442E+01
36.000000 34.000000 -2.043365E+01
36.000000 32.000000 -1.626232E+01
36.000000 30.000000 -1.192675E+01
36.000000 28.000000 -1.875149E+01
36.000000 26.000000 -3.349379E+01
36.000000 24.000000 -4.913679E+01
36.000000 22.000000 -4.422066E+01
36.000000 20.000000 -2.108767E+01
36.000000 18.000000 5.145342E+00
36.000000 16.000000 1.905156E+01
36.000000 14.000000 1.898329E+01
36.000000 12.000000 7.023814E+00
36.000000 10.000000 -4.343978E+00
36.000000 8.000000 3.921031E+00
36.000000 6.000000 2.721293E+01
36.000000 4.000000 5.294790E+01
36.000000 2.000000 6.909679E+01
36.000000 0.000000 7.695342E+01
36.000000 -2.000000 6.788293E+01
36.000000 -4.000000 4.181492E+01
36.000000 -6.000000 3.016150E+00
36.000000 -8.000000 -3.210112E+01
36.000000 -10.000000 -5.928311E+01
36.000000 -12.000000 -6.990414E+01
36.000000 -14.000000 -7.204727E+01
36.000000 -16.000000 -7.119931E+01
36.000000 -18.000000 -7.019672E+01
36.000000 -20.000000 -6.873915E+01
36.000000 -22.000000 -5.903607E+01
36.000000 -24.000000 -3.416869E+01
36.000000 -26.000000 -6.508741E+00
36.000000 -28.000000 1.349997E+01
36.000000 -30.000000 3.366038E+01
36.000000 -32.000000 4.325616E+01
36.000000 -34.000000 4.695881E+01
36.000000 -36.000000 4.054830E+01
36.000000 -38.000000 3.323518E+01
36.000000 -40.000000 2.805524E+01
38.000000 40.000000 -1.368808E+01
38.000000 38.000000 -2.298480E+01
38.000000 36.000000 -3.173434E+01
38.000000 34.000000 -3.538081E+01
38.000000 32.000000 -2.549569E+01
38.000000 30.000000 -1.785217E+01
38.000000 28.000000 -2.450243E+01
38.000000 26.000000 -4.002344E+01
38.000000 24.000000 -5.311476E+01
38.000000 22.000000 -4.515262E+01
38.000000 20.000000 -2.560539E+01
38.000000 18.000000 -2.517698E+00
38.000000 16.000000 1.789303E+01
38.000000 14.000000 3.101847E+01
38.000000 12.000000 3.210601E+01
38.000000 10.000000 2.889166E+01
38.000000 8.000000 3.039389E+01
38.000000 6.000000 3.869482E+01
38.000000 4.000000 4.153980E+01
38.000000 2.000000 4.341604E+01
38.000000 0.000000 4.725957E+01
38.000000 -2.000000 4.563320E+01
38.000000 -4.000000 3.204270E+01
38.000000 -6.000000 1.773949E+00
38.000000 -8.000000 -3.243287E+01
38.000000 -10.000000 -6.488232E+01
38.000000 -12.000000 -8.047118E+01
38.000000 -14.000000 -7.827422E+01
38.000000 -16.000000 -6.863265E+01
38.000000 -18.000000 -6.104304E+01
38.000000 -20.000000 -5.528549E+01
38.000000 -22.000000 -4.669908E+01
38.000000 -24.000000 -2.747871E+01
38.000000 -26.000000 -6.442594E+00
38.000000 -28.000000 7.683712E+00
38.000000 -30.000000 2.223186E+01
38.000000 -32.000000 3.014141E+01
38.000000 -34.000000 3.521515E+01
38.000000 -36.000000 3.312584E+01
38.000000 -38.000000 2.908255E+01
38.000000 -40.000000 2.485523E+01
40.000000 40.000000 -2.199884E+01
40.000000 38.000000 -3.665395E+01
40.000000 36.000000 -4.864280E+01
40.000000 34.000000 -4.970007E+01
40.000000 32.000000 -3.088164E+01
40.000000 30.000000 -1.603546E+01
40.000000 28.000000 -2.177021E+01
40.000000 26.000000 -4.079449E+01
40.000000 24.000000 -5.322430E+01
40.000000 22.000000 -4.200539E+01
40.000000 20.000000 -2.600735E+01
40.000000 18.000000 -8.201557E+00
40.000000 16.000000 1.540960E+01
40.000000 14.000000 3.811716E+01
40.000000 12.000000 4.718253E+01
40.000000 10.000000 4.573931E+01
40.000000 8.000000 3.822901E+01
40.000000 6.000000 3.136267E+01
40.000000 4.000000 1.518281E+01
40.000000 2.000000 8.559745E+00
40.000000 0.000000 1.419259E+01
40.000000 -2.000000 2.363531E+01
40.000000 -4.000000 2.339074E+01
40.000000 -6.000000 2.277827E+00
40.000000 -8.000000 -2.884781E+01
40.000000 -10.000000 -5.945150E+01
40.000000 -12.000000 -7.211100E+01
40.000000 -14.000000 -6.475855E+01
40.000000 -16.000000 -5.217011E+01
40.000000 -18.000000 -4.665097E+01
40.000000 -20.000000 -4.465828E+01
40.000000 -22.000000 -3.979944E+01
40.000000 -24.000000 -2.577849E+01
40.000000 -26.000000 -1.028362E+01
40.000000 -28.000000 -1.791582E-01
40.000000 -30.000000 1.048197E+01
40.000000 -32.000000 1.794200E+01
40.000000 -34.000000 2.477878E+01
40.000000 -36.000000 2.631252E+01
40.000000 -38.000000 2.521304E+01
40.000000 -40.000000 2.192552E+01
42.000000 40.000000 -3.031644E+01
42.000000 38.000000 -4.818159E+01
42.000000 36.000000 -6.133737E+01
42.000000 34.000000 -5.884320E+01
42.000000 32.000000 -3.265703E+01
42.000000 30.000000 -1.046361E+01
42.000000 28.000000 -1.138337E+01
42.000000 26.000000 -2.743316E+01
42.000000 24.000000 -3.891860E+01
42.000000 22.000000 -3.224024E+01
42.000000 20.000000 -2.152351E+01
42.000000 18.000000 -9.506205E+00
42.000000 16.000000 9.213596E+00
42.000000 14.000000 2.996292E+01
42.000000 12.000000 4.059172E+01
42.000000 10.000000 3.955942E+01
42.000000 8.000000 2.638905E+01
42.000000 6.000000 9.509238E+00
42.000000 4.000000 -1.206169E+01
42.000000 2.000000 -2.023069E+01
42.000000 0.000000 -1.184937E+01
42.000000 -2.000000 5.679360E+00
42.000000 -4.000000 1.390428E+01
42.000000 -6.000000 7.955685E-01
42.000000 -8.000000 -2.484057E+01
42.000000 -10.000000 -4.739635E+01
42.000000 -12.000000 -5.090814E+01
42.000000 -14.000000 -4.157493E+01
42.000000 -16.000000 -3.296321E+01
42.000000 -18.000000 -3.390810E+01
42.000000 -20.000000 -3.790744E+01
42.000000 -22.000000 -3.610132E+01
42.000000 -24.000000 -2.572938E+01
42.000000 -26.000000 -1.426252E+01
42.000000 -28.000000 -7.562790E+00
42.000000 -30.000000 2.911792E-01
42.000000 -32.000000 7.765434E+00
42.000000 -34.000000 1.666232E+01
42.000000 -36.000000 2.120938E+01
42.000000 -38.000000 2.208926E+01
42.000000 -40.000000 1.857612E+01
44.000000 40.000000 -3.676506E+01
44.000000 38.000000 -5.518336E+01
44.000000 36.000000 -6.745094E+01
44.000000 34.000000 -6.196586E+01
44.000000 32.000000 -3.157540E+01
44.000000 30.000000 -2.359492E+00
44.000000 28.000000 6.139057E+00
44.000000 26.000000 -3.046817E+00
44.000000 24.000000 -1.502076E+01
44.000000 22.000000 -1.840852E+01
44.000000 20.000000 -1.550599E+01
44.000000 18.000000 -1.211711E+01
44.000000 16.000000 -4.427355E+00
44.000000 14.000000 7.345318E+00
44.000000 12.000000 1.694352E+01
44.000000 10.000000 1.828464E+01
44.000000 8.000000 6.764610E+00
44.000000 6.000000 -1.256862E+01
44.000000 4.000000 -3.317398E+01
44.000000 2.000000 -3.805181E+01
44.000000 0.000000 -2.423743E+01
44.000000 -2.000000 -2.800951E-01
44.000000 -4.000000 1.295366E+01
44.000000 -6.000000 2.230798E+00
44.000000 -8.000000 -2.124663E+01
44.000000 -10.000000 -3.894152E+01
44.000000 -12.000000 -3.504820E+01
44.000000 -14.000000 -2.181887E+01
44.000000 -16.000000 -1.567465E+01
44.000000 -18.000000 -2.451827E+01
44.000000 -20.000000 -3.482001E+01
44.000000 -22.000000 -3.574705E+01
44.000000 -24.000000 -2.686429E+01
44.000000 -26.000000 -1.748600E+01
44.000000 -28.000000 -1.429022E+01
44.000000 -30.000000 -8.077433E+00
44.000000 -32.000000 -1.805162E-01
44.000000 -34.000000 1.079317E+01
44.000000 -36.000000 1.834554E+01
44.000000 -38.000000 2.050925E+01
44.000000 -40.000000 1.518220E+01
46.000000 40.000000 -3.725480E+01
46.000000 38.000000 -5.625556E+01
46.000000 36.000000 -6.844954E+01
46.000000 34.000000 -6.287197E+01
46.000000 32.000000 -2.928474E+01
46.000000 30.000000 8.645240E+00
46.000000 28.000000 2.699023E+01
46.000000 26.000000 1.988682E+01
46.000000 24.000000 5.212558E+00
46.000000 22.000000 -4.853774E+00
46.000000 20.000000 -9.595446E+00
46.000000 18.000000 -1.709805E+01
46.000000 16.000000 -2.124808E+01
46.000000 14.000000 -1.871596E+01
46.000000 12.000000 -9.537092E+00
46.000000 10.000000 -3.744760E+00
46.000000 8.000000 -8.561931E+00
46.000000 6.000000 -2.514030E+01
46.000000 4.000000 -4.435497E+01
46.000000 2.000000 -4.489777E+01
46.000000 0.000000 -2.423840E+01
46.000000 -2.000000 3.781117E+00
46.000000 -4.000000 1.958469E+01
46.000000 -6.000000 7.210704E+00
46.000000 -8.000000 -1.797182E+01
46.000000 -10.000000 -3.643781E+01
46.000000 -12.000000 -3.234485E+01
46.000000 -14.000000 -1.384320E+01
46.000000 -16.000000 -5.181917E+00
46.000000 -18.000000 -1.824211E+01
46.000000 -20.000000 -3.256082E+01
46.000000 -22.000000 -3.636276E+01
46.000000 -24.000000 -2.888433E+01
46.000000 -26.000000 -2.114908E+01
46.000000 -28.000000 -2.048556E+01
46.000000 -30.000000 -1.422464E+01
46.000000 -32.000000 -5.268088E+00
46.000000 -34.000000 7.408375E+00
46.000000 -36.000000 1.650196E+01
46.000000 -38.000000 1.897265E+01
46.000000 -40.000000 1.248340E+01
48.000000 40.000000 -3.005972E+01
48.000000 38.000000 -5.030685E+01
48.000000 36.000000 -6.331367E+01
48.000000 34.000000 -6.075063E+01
48.000000 32.000000 -2.842258E+01
48.000000 30.000000 1.484768E+01
48.000000 28.000000 4.011403E+01
48.000000 26.000000 3.368890E+01
48.000000 24.000000 1.639824E+01
48.000000 22.000000 3.839600E+00
48.000000 20.000000 -4.970594E+00
48.000000 18.000000 -1.941387E+01
48.000000 16.000000 -2.983296E+01
48.000000 14.000000 -3.183709E+01
48.000000 12.000000 -2.355807E+01
48.000000 10.000000 -1.553528E+01
48.000000 8.000000 -1.487232E+01
48.000000 6.000000 -2.604203E+01
48.000000 4.000000 -4.163168E+01
48.000000 2.000000 -4.261121E+01
48.000000 0.000000 -2.435129E+01
48.000000 -2.000000 8.327322E-01
48.000000 -4.000000 1.676568E+01
48.000000 -6.000000 7.438684E+00
48.000000 -8.000000 -1.426286E+01
48.000000 -10.000000 -3.176664E+01
48.000000 -12.000000 -3.063046E+01
48.000000 -14.000000 -1.509094E+01
48.000000 -16.000000 -6.157233E+00
48.000000 -18.000000 -1.452594E+01
48.000000 -20.000000 -2.623832E+01
48.000000 -22.000000 -3.214785E+01
48.000000 -24.000000 -3.018215E+01
48.000000 -26.000000 -2.637459E+01
48.000000 -28.000000 -2.554232E+01
48.000000 -30.000000 -1.883860E+01
48.000000 -32.000000 -8.072496E+00
48.000000 -34.000000 5.844611E+00
48.000000 -36.000000 1.407546E+01
48.000000 -38.000000 1.600154E+01
48.000000 -40.000000 1.073320E+01
50.000000 40.000000 -1.779680E+01
50.000000 38.000000 -3.678563E+01
50.000000 36.000000 -4.972469E+01
50.000000 34.000000 -5.158522E+01
50.000000 32.000000 -2.862838E+01
50.000000 30.000000 7.722108E+00
50.000000 28.000000 3.320804E+01
50.000000 26.000000 3.383016E+01
50.000000 24.000000 2.085247E+01
50.000000 22.000000 6.200863E+00
50.000000 20.000000 -3.316033E+00
50.000000 18.000000 -1.486520E+01
50.000000 16.000000 -2.168809E+01
50.000000 14.000000 -2.338482E+01
50.000000 12.000000 -1.961841E+01
50.000000 10.000000 -1.454147E+01
50.000000 8.000000 -1.383783E+01
50.000000 6.000000 -2.004705E+01
50.000000 4.000000 -2.897154E+01
50.000000 2.000000 -3.494062E+01
50.000000 0.000000 -3.001471E+01
50.000000 -2.000000 -1.322134E+01
50.000000 -4.000000 3.488052E+00
50.000000 -6.000000 3.606029E+00
50.000000 -8.000000 -8.057600E+00
50.000000 -10.000000 -2.201652E+01
50.000000 -12.000000 -2.567449E+01
50.000000 -14.000000 -1.994859E+01
50.000000 -16.000000 -1.413966E+01
50.000000 -18.000000 -1.329581E+01
50.000000 -20.000000 -1.786401E+01
50.000000 -22.000000 -2.505292E+01
50.000000 -24.000000 -2.992977E+01
50.000000 -26.000000 -3.094329E+01
50.000000 -28.000000 -3.033795E+01
50.000000 -30.000000 -2.341017E+01
50.000000 -32.000000 -1.038838E+01
50.000000 -34.000000 4.726032E+00
50.000000 -36.000000 1.194696E+01
50.000000 -38.000000 1.331739E+01
50.000000 -40.000000 9.513474E+00
52.000000 40.000000 -3.465504E+00
52.000000 38.000000 -1.708874E+01
