-22.000000 -4.000000 4.422203E+01
-22.000000 -6.000000 4.573397E+01
-22.000000 -8.000000 4.363120E+01
-22.000000 -10.000000 3.751226E+01
-22.000000 -12.000000 3.248013E+01
-22.000000 -14.000000 3.294329E+01
-22.000000 -16.000000 3.329296E+01
-22.000000 -18.000000 4.034681E+01
-22.000000 -20.000000 5.922589E+01
-22.000000 -22.000000 7.236070E+01
-22.000000 -24.000000 7.583257E+01
-22.000000 -26.000000 7.341661E+01
-22.000000 -28.000000 6.677530E+01
-22.000000 -30.000000 6.065721E+01
-22.000000 -32.000000 5.579249E+01
-22.000000 -34.000000 4.571121E+01
-22.000000 -36.000000 2.891724E+01
-22.000000 -38.000000 1.535810E+01
-22.000000 -40.000000 4.922280E+00
-20.000000 40.000000 1.532198E+01
-20.000000 38.000000 1.446749E+01
-20.000000 36.000000 1.359531E+01
-20.000000 34.000000 1.032998E+01
-20.000000 32.000000 5.525685E+00
-20.000000 30.000000 2.445926E+00
-20.000000 28.000000 6.579982E+00
-20.000000 26.000000 1.159667E+01
-20.000000 24.000000 9.159158E+00
-20.000000 22.000000 -4.591086E+00
-20.000000 20.000000 -1.628970E+01
-20.000000 18.000000 -1.827518E+01
-20.000000 16.000000 -1.501081E+01
-20.000000 14.000000 -1.653195E+01
-20.000000 12.000000 -2.176689E+01
-20.000000 10.000000 -2.423618E+01
-20.000000 8.000000 -1.708296E+01
-20.000000 6.000000 -3.675283E+00
-20.000000 4.000000 8.262592E+00
-20.000000 2.000000 1.102468E+01
-20.000000 0.000000 7.820430E+00
-20.000000 -2.000000 9.794340E+00
-20.000000 -4.000000 1.710039E+01
-20.000000 -6.000000 2.513243E+01
-20.000000 -8.000000 3.323444E+01
-20.000000 -10.000000 3.669608E+01
-20.000000 -12.000000 3.889302E+01
-20.000000 -14.000000 4.304090E+01
-20.000000 -16.000000 4.649261E+01
-20.000000 -18.000000 5.566541E+01
-20.000000 -20.000000 7.454938E+01
-20.000000 -22.000000 9.030355E+01
-20.000000 -24.000000 9.594377E+01
-20.000000 -26.000000 9.297855E+01
-20.000000 -28.000000 8.544368E+01
-20.000000 -30.000000 7.757468E+01
-20.000000 -32.000000 7.183304E+01
-20.000000 -34.000000 6.072407E+01
-20.000000 -36.000000 3.928277E+01
-20.000000 -38.000000 2.044063E+01
-20.000000 -40.000000 7.051045E+00
-18.000000 40.000000 1.420821E+01
-18.000000 38.000000 1.335259E+01
-18.000000 36.000000 1.320327E+01
-18.000000 34.000000 1.084305E+01
-18.000000 32.000000 5.683425E+00
-18.000000 30.000000 -1.763821E-03
-18.000000 28.000000 7.858810E-01
-18.000000 26.000000 4.599374E+00
-18.000000 24.000000 2.817683E+00
-18.000000 22.000000 -6.389897E+00
-18.000000 20.000000 -1.382220E+01
-18.000000 18.000000 -1.202703E+01
-18.000000 16.000000 -5.403910E+00
-18.000000 14.000000 -5.713945E+00
-18.000000 12.000000 -1.184297E+01
-18.000000 10.000000 -1.475560E+01
-18.000000 8.000000 -1.061817E+01
-18.000000 6.000000 -2.593775E+00
-18.000000 4.000000 -4.304199E-01
-18.000000 2.000000 -6.205614E+00
-18.000000 0.000000 -1.590944E+01
-18.000000 -2.000000 -1.778563E+01
-18.000000 -4.000000 -9.856972E+00
-18.000000 -6.000000 8.963196E+00
-18.000000 -8.000000 3.032673E+01
-18.000000 -10.000000 4.519687E+01
-18.000000 -12.000000 5.342835E+01
-18.000000 -14.000000 5.908374E+01
-18.000000 -16.000000 6.273858E+01
-18.000000 -18.000000 6.971567E+01
-18.000000 -20.000000 8.417477E+01
-18.000000 -22.000000 9.689607E+01
-18.000000 -24.000000 1.011747E+02
-18.000000 -26.000000 9.736320E+01
-18.000000 -28.000000 8.842698E+01
-18.000000 -30.000000 7.934660E+01
-18.000000 -32.000000 7.555068E+01
-18.000000 -34.000000 6.686719E+01
-18.000000 -36.000000 4.652352E+01
-18.000000 -38.000000 2.655456E+01
-18.000000 -40.000000 1.198453E+01
-16.000000 40.000000 1.134380E+01
-16.000000 38.000000 1.133974E+01
-16.000000 36.000000 1.295163E+01
-16.000000 34.000000 1.169344E+01
-16.000000 32.000000 6.094892E+00
-16.000000 30.000000 -1.240962E+00
-16.000000 28.000000 -2.793227E+00
-16.000000 26.000000 1.044137E+00
-16.000000 24.000000 2.477933E+00
-16.000000 22.000000 -1.854643E+00
-16.000000 20.000000 -5.711231E+00
-16.000000 18.000000 -2.082013E+00
-16.000000 16.000000 2.194745E+00
-16.000000 14.000000 -1.380313E+00
-16.000000 12.000000 -1.035947E+01
-16.000000 10.000000 -1.318464E+01
-16.000000 8.000000 -6.729576E+00
-16.000000 6.000000 -1.112967E-01
-16.000000 4.000000 -2.078890E+00
-16.000000 2.000000 -1.438339E+01
-16.000000 0.000000 -2.932906E+01
-16.000000 -2.000000 -3.366167E+01
-16.000000 -4.000000 -2.547099E+01
-16.000000 -6.000000 2.599670E+00
-16.000000 -8.000000 3.422349E+01
-16.000000 -10.000000 5.764811E+01
-16.000000 -12.000000 6.708333E+01
-16.000000 -14.000000 7.077604E+01
-16.000000 -16.000000 7.107667E+01
-16.000000 -18.000000 7.388390E+01
-16.000000 -20.000000 8.245349E+01
-16.000000 -22.000000 9.048865E+01
-16.000000 -24.000000 9.208458E+01
-16.000000 -26.000000 8.638379E+01
-16.000000 -28.000000 7.568278E+01
-16.000000 -30.000000 6.680435E+01
-16.000000 -32.000000 6.599983E+01
-16.000000 -34.000000 6.200835E+01
-16.000000 -36.000000 4.820281E+01
-16.000000 -38.000000 3.209261E+01
-16.000000 -40.000000 1.901902E+01
-14.000000 40.000000 6.822695E+00
-14.000000 38.000000 8.779192E+00
-14.000000 36.000000 1.305698E+01
-14.000000 34.000000 1.434062E+01
-14.000000 32.000000 8.704829E+00
-14.000000 30.000000 8.133631E-01
-14.000000 28.000000 -1.493600E+00
-14.000000 26.000000 2.628991E+00
-14.000000 24.000000 7.688341E+00
-14.000000 22.000000 7.388470E+00
-14.000000 20.000000 4.617865E+00
-14.000000 18.000000 5.311879E+00
-14.000000 16.000000 8.197784E-01
-14.000000 14.000000 -1.072227E+01
-14.000000 12.000000 -2.207525E+01
-14.000000 10.000000 -2.152580E+01
-14.000000 8.000000 -6.878079E+00
-14.000000 6.000000 5.938841E+00
-14.000000 4.000000 7.760391E+00
-14.000000 2.000000 -5.112503E+00
-14.000000 0.000000 -2.188350E+01
-14.000000 -2.000000 -2.820759E+01
-14.000000 -4.000000 -2.114929E+01
-14.000000 -6.000000 7.342085E+00
-14.000000 -8.000000 3.917294E+01
-14.000000 -10.000000 6.318569E+01
-14.000000 -12.000000 7.078318E+01
-14.000000 -14.000000 7.168312E+01
-14.000000 -16.000000 6.676555E+01
-14.000000 -18.000000 6.317639E+01
-14.000000 -20.000000 6.587028E+01
-14.000000 -22.000000 7.072427E+01
-14.000000 -24.000000 7.051267E+01
-14.000000 -26.000000 6.306240E+01
-14.000000 -28.000000 5.211046E+01
-14.000000 -30.000000 4.534933E+01
-14.000000 -32.000000 4.723250E+01
-14.000000 -34.000000 4.872804E+01
-14.000000 -36.000000 4.433850E+01
-14.000000 -38.000000 3.523984E+01
-14.000000 -40.000000 2.600181E+01
-12.000000 40.000000 -4.378519E-01
-12.000000 38.000000 3.809175E+00
-12.000000 36.000000 1.190808E+01
-12.000000 34.000000 1.829230E+01
-12.000000 32.000000 1.451831E+01
-12.000000 30.000000 6.968239E+00
-12.000000 28.000000 4.499098E+00
-12.000000 26.000000 7.934957E+00
-12.000000 24.000000 1.399193E+01
-12.000000 22.000000 1.773942E+01
-12.000000 20.000000 1.795206E+01
-12.000000 18.000000 1.361156E+01
-12.000000 16.000000 -5.025712E-01
-12.000000 14.000000 -2.142029E+01
-12.000000 12.000000 -3.632022E+01
-12.000000 10.000000 -3.293784E+01
-12.000000 8.000000 -8.409822E+00
-12.000000 6.000000 1.415446E+01
-12.000000 4.000000 2.394064E+01
-12.000000 2.000000 1.522145E+01
-12.000000 0.000000 -9.807863E-01
-12.000000 -2.000000 -9.498522E+00
-12.000000 -4.000000 -5.367371E+00
-12.000000 -6.000000 1.456759E+01
-12.000000 -8.000000 3.797130E+01
-12.000000 -10.000000 5.535577E+01
-12.000000 -12.000000 6.047516E+01
-12.000000 -14.000000 5.967650E+01
-12.000000 -16.000000 5.049383E+01
-12.000000 -18.000000 4.158922E+01
-12.000000 -20.000000 3.987471E+01
-12.000000 -22.000000 4.257039E+01
-12.000000 -24.000000 4.192157E+01
-12.000000 -26.000000 3.527923E+01
-12.000000 -28.000000 2.554278E+01
-12.000000 -30.000000 2.027280E+01
-12.000000 -32.000000 2.498087E+01
-12.000000 -34.000000 3.284302E+01
-12.000000 -36.000000 3.660783E+01
-12.000000 -38.000000 3.422834E+01
-12.000000 -40.000000 3.044300E+01
-10.000000 40.000000 -1.057244E+01
-10.000000 38.000000 -3.529232E+00
-10.000000 36.000000 1.012074E+01
-10.000000 34.000000 2.379577E+01
-10.000000 32.000000 2.333928E+01
-10.000000 30.000000 1.548187E+01
-10.000000 28.000000 1.130414E+01
-10.000000 26.000000 1.249795E+01
-10.000000 24.000000 1.757906E+01
-10.000000 22.000000 2.439637E+01
-10.000000 20.000000 2.904197E+01
-10.000000 18.000000 2.374181E+01
-10.000000 16.000000 5.104211E+00
-10.000000 14.000000 -2.111553E+01
-10.000000 12.000000 -3.849046E+01
-10.000000 10.000000 -3.313125E+01
-10.000000 8.000000 -1.761765E+00
-10.000000 6.000000 2.764423E+01
-10.000000 4.000000 4.106139E+01
-10.000000 2.000000 3.280495E+01
-10.000000 0.000000 1.573632E+01
-10.000000 -2.000000 4.872705E+00
-10.000000 -4.000000 4.905289E+00
-10.000000 -6.000000 1.650254E+01
-10.000000 -8.000000 2.869935E+01
-10.000000 -10.000000 3.599593E+01
-10.000000 -12.000000 3.775679E+01
-10.000000 -14.000000 3.619021E+01
-10.000000 -16.000000 2.616440E+01
-10.000000 -18.000000 1.602611E+01
-10.000000 -20.000000 1.295565E+01
-10.000000 -22.000000 1.438977E+01
-10.000000 -24.000000 1.423320E+01
-10.000000 -26.000000 1.068544E+01
-10.000000 -28.000000 2.531107E+00
-10.000000 -30.000000 -2.355727E+00
-10.000000 -32.000000 4.326510E+00
-10.000000 -34.000000 1.744553E+01
-10.000000 -36.000000 2.655844E+01
-10.000000 -38.000000 2.961617E+01
-10.000000 -40.000000 3.162359E+01
-8.000000 40.000000 -2.185208E+01
-8.000000 38.000000 -1.139520E+01
-8.000000 36.000000 9.307399E+00
-8.000000 34.000000 3.025415E+01
-8.000000 32.000000 3.292529E+01
-8.000000 30.000000 2.327552E+01
-8.000000 28.000000 1.566870E+01
-8.000000 26.000000 1.386799E+01
-8.000000 24.000000 1.639219E+01
-8.000000 22.000000 2.308043E+01
-8.000000 20.000000 3.121375E+01
-8.000000 18.000000 2.880380E+01
-8.000000 16.000000 1.129656E+01
-8.000000 14.000000 -1.377747E+01
-8.000000 12.000000 -3.056520E+01
-8.000000 10.000000 -2.144797E+01
-8.000000 8.000000 1.406262E+01
-8.000000 6.000000 4.682514E+01
-8.000000 4.000000 5.757705E+01
-8.000000 2.000000 4.379015E+01
-8.000000 0.000000 2.347383E+01
-8.000000 -2.000000 1.054900E+01
-8.000000 -4.000000 7.487073E+00
-8.000000 -6.000000 1.260605E+01
-8.000000 -8.000000 1.418666E+01
-8.000000 -10.000000 1.168862E+01
-8.000000 -12.000000 9.378924E+00
-8.000000 -14.000000 7.804173E+00
-8.000000 -16.000000 4.286146E-01
-8.000000 -18.000000 -8.110080E+00
-8.000000 -20.000000 -1.002049E+01
-8.000000 -22.000000 -7.635275E+00
-8.000000 -24.000000 -6.035395E+00
-8.000000 -26.000000 -6.528955E+00
-8.000000 -28.000000 -1.341440E+01
-8.000000 -30.000000 -1.801159E+01
-8.000000 -32.000000 -1.166195E+01
-8.000000 -34.000000 2.582610E+00
-8.000000 -36.000000 1.557064E+01
-8.000000 -38.000000 2.382837E+01
-8.000000 -40.000000 3.050751E+01
-6.000000 40.000000 -3.003856E+01
-6.000000 38.000000 -1.729341E+01
-6.000000 36.000000 7.674282E+00
-6.000000 34.000000 3.273482E+01
-6.000000 32.000000 3.782034E+01
-6.000000 30.000000 2.763479E+01
-6.000000 28.000000 1.761913E+01
-6.000000 26.000000 1.232343E+01
-6.000000 24.000000 1.058533E+01
-6.000000 22.000000 1.424640E+01
-6.000000 20.000000 2.241749E+01
-6.000000 18.000000 2.213183E+01
-6.000000 16.000000 8.152497E+00
-6.000000 14.000000 -1.191004E+01
-6.000000 12.000000 -2.430920E+01
-6.000000 10.000000 -7.460874E+00
-6.000000 8.000000 3.345496E+01
-6.000000 6.000000 6.836759E+01
-6.000000 4.000000 7.273069E+01
-6.000000 2.000000 4.844425E+01
-6.000000 0.000000 2.378995E+01
-6.000000 -2.000000 1.093842E+01
-6.000000 -4.000000 8.219565E+00
-6.000000 -6.000000 5.231697E+00
-6.000000 -8.000000 -5.938468E-01
-6.000000 -10.000000 -8.457138E+00
-6.000000 -12.000000 -1.382662E+01
-6.000000 -14.000000 -1.569436E+01
-6.000000 -16.000000 -1.967171E+01
-6.000000 -18.000000 -2.503992E+01
-6.000000 -20.000000 -2.521999E+01
-6.000000 -22.000000 -2.090259E+01
-6.000000 -24.000000 -1.634623E+01
-6.000000 -26.000000 -1.453470E+01
-6.000000 -28.000000 -2.067946E+01
-6.000000 -30.000000 -2.652514E+01
-6.000000 -32.000000 -2.253682E+01
-6.000000 -34.000000 -9.487040E+00
-6.000000 -36.000000 5.673230E+00
-6.000000 -38.000000 1.802331E+01
-6.000000 -40.000000 2.753981E+01
-4.000000 40.000000 -3.306506E+01
-4.000000 38.000000 -2.003102E+01
-4.000000 36.000000 3.877401E+00
-4.000000 34.000000 2.813818E+01
-4.000000 32.000000 3.441481E+01
-4.000000 30.000000 2.687263E+01
-4.000000 28.000000 1.755929E+01
-4.000000 26.000000 9.522983E+00
-4.000000 24.000000 3.434567E+00
-4.000000 22.000000 2.551340E+00
-4.000000 20.000000 7.070437E+00
-4.000000 18.000000 5.752824E+00
-4.000000 16.000000 -7.056369E+00
-4.000000 14.000000 -2.248440E+01
-4.000000 12.000000 -2.529628E+01
-4.000000 10.000000 2.354874E+00
-4.000000 8.000000 5.068216E+01
-4.000000 6.000000 8.668084E+01
-4.000000 4.000000 8.287958E+01
-4.000000 2.000000 4.512853E+01
-4.000000 0.000000 1.309787E+01
-4.000000 -2.000000 2.085474E+00
-4.000000 -4.000000 3.766941E+00
-4.000000 -6.000000 -6.169868E-01
-4.000000 -8.000000 -8.384862E+00
-4.000000 -10.000000 -1.667866E+01
-4.000000 -12.000000 -2.400125E+01
-4.000000 -14.000000 -2.645908E+01
-4.000000 -16.000000 -2.830633E+01
-4.000000 -18.000000 -3.089497E+01
-4.000000 -20.000000 -2.986943E+01
-4.000000 -22.000000 -2.380548E+01
-4.000000 -24.000000 -1.647569E+01
-4.000000 -26.000000 -1.366156E+01
-4.000000 -28.000000 -2.001099E+01
-4.000000 -30.000000 -2.911734E+01
-4.000000 -32.000000 -2.840233E+01
-4.000000 -34.000000 -1.686406E+01
-4.000000 -36.000000 -1.823488E+00
-4.000000 -38.000000 1.232846E+01
-4.000000 -40.000000 2.327555E+01
-2.000000 40.000000 -3.403534E+01
-2.000000 38.000000 -2.144310E+01
-2.000000 36.000000 -4.346752E-01
-2.000000 34.000000 2.038596E+01
-2.000000 32.000000 2.561790E+01
-2.000000 30.000000 2.082285E+01
-2.000000 28.000000 1.489872E+01
-2.000000 26.000000 6.641703E+00
-2.000000 24.000000 -3.291730E+00
-2.000000 22.000000 -9.031528E+00
-2.000000 20.000000 -9.696455E+00
-2.000000 18.000000 -1.315672E+01
-2.000000 16.000000 -2.582719E+01
-2.000000 14.000000 -3.676241E+01
-2.000000 12.000000 -2.888518E+01
-2.000000 10.000000 8.691556E+00
-2.000000 8.000000 6.203561E+01
-2.000000 6.000000 9.618577E+01
-2.000000 4.000000 8.251471E+01
-2.000000 2.000000 3.158464E+01
-2.000000 0.000000 -8.644883E+00
-2.000000 -2.000000 -1.626722E+01
-2.000000 -4.000000 -8.915289E+00
-2.000000 -6.000000 -5.737442E+00
-2.000000 -8.000000 -9.641016E+00
-2.000000 -10.000000 -1.416288E+01
-2.000000 -12.000000 -2.164376E+01
-2.000000 -14.000000 -2.470233E+01
-2.000000 -16.000000 -2.435148E+01
-2.000000 -18.000000 -2.525749E+01
-2.000000 -20.000000 -2.392787E+01
-2.000000 -22.000000 -1.690304E+01
-2.000000 -24.000000 -8.638743E+00
-2.000000 -26.000000 -7.469206E+00
-2.000000 -28.000000 -1.515615E+01
-2.000000 -30.000000 -2.582900E+01
-2.000000 -32.000000 -2.811886E+01
-2.000000 -34.000000 -1.990073E+01
-2.000000 -36.000000 -7.184504E+00
-2.000000 -38.000000 6.749216E+00
-2.000000 -40.000000 1.901381E+01
0.000000 40.000000 -3.556695E+01
0.000000 38.000000 -2.309402E+01
0.000000 36.000000 -4.648069E+00
0.000000 34.000000 1.213457E+01
0.000000 32.000000 1.549209E+01
0.000000 30.000000 1.217540E+01
0.000000 28.000000 9.444044E+00
0.000000 26.000000 1.962339E+00
0.000000 24.000000 -1.100398E+01
0.000000 22.000000 -1.958517E+01
0.000000 20.000000 -2.316202E+01
0.000000 18.000000 -2.651383E+01
0.000000 16.000000 -3.459954E+01
0.000000 14.000000 -3.906613E+01
0.000000 12.000000 -2.512435E+01
0.000000 10.000000 1.504380E+01
0.000000 8.000000 6.468528E+01
0.000000 6.000000 9.130957E+01
0.000000 4.000000 6.837844E+01
0.000000 2.000000 1.388419E+01
0.000000 0.000000 -2.810630E+01
0.000000 -2.000000 -3.460154E+01
0.000000 -4.000000 -2.484404E+01
0.000000 -6.000000 -1.442698E+01
0.000000 -8.000000 -1.152211E+01
0.000000 -10.000000 -1.220012E+01
0.000000 -12.000000 -1.723275E+01
0.000000 -14.000000 -1.809895E+01
0.000000 -16.000000 -1.481663E+01
0.000000 -18.000000 -1.383222E+01
0.000000 -20.000000 -1.214141E+01
0.000000 -22.000000 -5.473152E+00
0.000000 -24.000000 1.291445E+00
0.000000 -26.000000 -5.206347E-01
0.000000 -28.000000 -8.748697E+00
0.000000 -30.000000 -1.760519E+01
0.000000 -32.000000 -2.109709E+01
0.000000 -34.000000 -1.775703E+01
0.000000 -36.000000 -9.413108E+00
0.000000 -38.000000 2.940695E+00
0.000000 -40.000000 1.590441E+01
2.000000 40.000000 -3.804678E+01
2.000000 38.000000 -2.572350E+01
2.000000 36.000000 -9.900592E+00
2.000000 34.000000 2.803102E+00
2.000000 32.000000 5.816360E+00
2.000000 30.000000 4.103569E+00
2.000000 28.000000 2.171682E+00
2.000000 26.000000 -4.202388E+00
2.000000 24.000000 -1.662159E+01
2.000000 22.000000 -2.515216E+01
2.000000 20.000000 -2.702178E+01
2.000000 18.000000 -2.712366E+01
2.000000 16.000000 -2.946836E+01
2.000000 14.000000 -3.016954E+01
2.000000 12.000000 -1.775128E+01
2.000000 10.000000 1.640354E+01
2.000000 8.000000 5.536152E+01
2.000000 6.000000 7.188258E+01
2.000000 4.000000 4.587248E+01
2.000000 2.000000 -1.656540E+00
2.000000 0.000000 -3.774628E+01
2.000000 -2.000000 -4.267470E+01
2.000000 -4.000000 -3.391877E+01
2.000000 -6.000000 -2.163486E+01
2.000000 -8.000000 -1.439450E+01
2.000000 -10.000000 -1.520356E+01
2.000000 -12.000000 -1.744306E+01
2.000000 -14.000000 -1.416974E+01
2.000000 -16.000000 -8.515444E+00
2.000000 -18.000000 -5.147359E+00
2.000000 -20.000000 -2.192536E+00
2.000000 -22.000000 3.428431E+00
2.000000 -24.000000 7.012603E+00
2.000000 -26.000000 3.431047E+00
2.000000 -28.000000 -2.729306E+00
2.000000 -30.000000 -7.338058E+00
2.000000 -32.000000 -9.181896E+00
2.000000 -34.000000 -9.900116E+00
2.000000 -36.000000 -6.947330E+00
2.000000 -38.000000 3.202464E+00
2.000000 -40.000000 1.489239E+01
4.000000 40.000000 -4.028546E+01
4.000000 38.000000 -2.926349E+01
4.000000 36.000000 -1.670044E+01
4.000000 34.000000 -7.622879E+00
4.000000 32.000000 -4.413607E+00
4.000000 30.000000 -4.091995E+00
4.000000 28.000000 -5.067785E+00
4.000000 26.000000 -9.084948E+00
4.000000 24.000000 -1.771423E+01
4.000000 22.000000 -2.321939E+01
4.000000 20.000000 -1.979195E+01
4.000000 18.000000 -1.514831E+01
4.000000 16.000000 -1.695433E+01
4.000000 14.000000 -2.209681E+01
4.000000 12.000000 -1.900665E+01
4.000000 10.000000 4.444724E+00
4.000000 8.000000 3.402982E+01
4.000000 6.000000 4.524652E+01
4.000000 4.000000 2.351217E+01
4.000000 2.000000 -1.259307E+01
4.000000 0.000000 -3.828320E+01
4.000000 -2.000000 -3.904696E+01
4.000000 -4.000000 -2.996287E+01
4.000000 -6.000000 -1.911560E+01
4.000000 -8.000000 -1.243535E+01
4.000000 -10.000000 -1.584444E+01
4.000000 -12.000000 -1.826173E+01
4.000000 -14.000000 -1.378570E+01
4.000000 -16.000000 -7.269256E+00
4.000000 -18.000000 -3.139603E+00
4.000000 -20.000000 1.684880E-01
4.000000 -22.000000 4.748018E+00
4.000000 -24.000000 6.916354E+00
4.000000 -26.000000 3.231284E+00
4.000000 -28.000000 8.566875E-01
4.000000 -30.000000 1.690490E+00
4.000000 -32.000000 3.473157E+00
4.000000 -34.000000 1.105167E+00
4.000000 -36.000000 -2.163343E-01
4.000000 -38.000000 7.463015E+00
4.000000 -40.000000 1.705771E+01
6.000000 40.000000 -4.097435E+01
6.000000 38.000000 -3.267314E+01
6.000000 36.000000 -2.390111E+01
6.000000 34.000000 -1.782727E+01
6.000000 32.000000 -1.484335E+01
6.000000 30.000000 -1.207775E+01
6.000000 28.000000 -1.005263E+01
6.000000 26.000000 -1.115928E+01
6.000000 24.000000 -1.623071E+01
6.000000 22.000000 -1.772176E+01
6.000000 20.000000 -1.014149E+01
6.000000 18.000000 -4.059843E+00
6.000000 16.000000 -1.038827E+01
6.000000 14.000000 -2.394028E+01
6.000000 12.000000 -3.157265E+01
6.000000 10.000000 -1.820832E+01
6.000000 8.000000 6.724493E+00
6.000000 6.000000 1.899306E+01
6.000000 4.000000 5.588411E+00
6.000000 2.000000 -1.905232E+01
6.000000 0.000000 -3.475893E+01
6.000000 -2.000000 -2.972847E+01
6.000000 -4.000000 -1.720422E+01
6.000000 -6.000000 -5.406785E+00
6.000000 -8.000000 -9.784949E-01
6.000000 -10.000000 -7.830877E+00
6.000000 -12.000000 -1.289488E+01
6.000000 -14.000000 -1.006749E+01
6.000000 -16.000000 -5.880308E+00
6.000000 -18.000000 -4.917840E+00
6.000000 -20.000000 -3.516476E+00
6.000000 -22.000000 4.328532E-01
6.000000 -24.000000 3.418373E+00
6.000000 -26.000000 1.536061E+00
6.000000 -28.000000 2.551221E+00
6.000000 -30.000000 6.783130E+00
6.000000 -32.000000 1.251914E+01
6.000000 -34.000000 1.150388E+01
6.000000 -36.000000 8.672857E+00
6.000000 -38.000000 1.393355E+01
6.000000 -40.000000 2.196995E+01
8.000000 40.000000 -4.044652E+01
8.000000 38.000000 -3.537722E+01
8.000000 36.000000 -2.991635E+01
8.000000 34.000000 -2.550655E+01
8.000000 32.000000 -2.214550E+01
8.000000 30.000000 -1.633814E+01
8.000000 28.000000 -1.169706E+01
8.000000 26.000000 -1.189968E+01
8.000000 24.000000 -1.479442E+01
8.000000 22.000000 -1.416602E+01
8.000000 20.000000 -7.884083E+00
8.000000 18.000000 -5.419594E+00
8.000000 16.000000 -1.832191E+01
8.000000 14.000000 -3.901542E+01
8.000000 12.000000 -5.351763E+01
8.000000 10.000000 -4.521658E+01
8.000000 8.000000 -1.993929E+01
8.000000 6.000000 -2.640577E+00
8.000000 4.000000 -6.782270E+00
8.000000 2.000000 -2.154241E+01
8.000000 0.000000 -2.841926E+01
8.000000 -2.000000 -1.711102E+01
8.000000 -4.000000 8.472447E-01
8.000000 -6.000000 1.633214E+01
8.000000 -8.000000 1.577668E+01
8.000000 -10.000000 3.585392E+00
8.000000 -12.000000 -4.808673E+00
8.000000 -14.000000 -1.454138E+00
8.000000 -16.000000 8.263708E-01
8.000000 -18.000000 -2.424727E+00
8.000000 -20.000000 -3.662523E+00
8.000000 -22.000000 -1.409865E+00
8.000000 -24.000000 -4.467440E-01
8.000000 -26.000000 1.572189E-01
8.000000 -28.000000 3.283255E+00
8.000000 -30.000000 8.599090E+00
8.000000 -32.000000 1.690909E+01
8.000000 -34.000000 1.865235E+01
8.000000 -36.000000 1.736429E+01
8.000000 -38.000000 2.088464E+01
8.000000 -40.000000 2.729505E+01
10.000000 40.000000 -3.928370E+01
10.000000 38.000000 -3.637449E+01
10.000000 36.000000 -3.300066E+01
10.000000 34.000000 -2.895568E+01
10.000000 32.000000 -2.519158E+01
10.000000 30.000000 -1.736293E+01
10.000000 28.000000 -1.190211E+01
10.000000 26.000000 -1.298762E+01
10.000000 24.000000 -1.534230E+01
10.000000 22.000000 -1.487226E+01
10.000000 20.000000 -1.269746E+01
10.000000 18.000000 -1.602119E+01
10.000000 16.000000 -3.544187E+01
10.000000 14.000000 -6.249793E+01
10.000000 12.000000 -8.078482E+01
10.000000 10.000000 -7.398789E+01
10.000000 8.000000 -4.484905E+01
10.000000 6.000000 -1.958933E+01
10.000000 4.000000 -1.210324E+01
10.000000 2.000000 -1.613566E+01
10.000000 0.000000 -1.358682E+01
10.000000 -2.000000 4.369460E+00
10.000000 -4.000000 2.608487E+01
10.000000 -6.000000 3.778546E+01
10.000000 -8.000000 2.633131E+01
10.000000 -10.000000 6.629175E+00
10.000000 -12.000000 -2.565932E+00
10.000000 -14.000000 5.716097E+00
10.000000 -16.000000 1.237098E+01
10.000000 -18.000000 9.348335E+00
10.000000 -20.000000 4.806596E+00
10.000000 -22.000000 2.106162E+00
10.000000 -24.000000 -2.256148E+00
10.000000 -26.000000 -1.456141E+00
10.000000 -28.000000 3.093019E+00
10.000000 -30.000000 9.452810E+00
10.000000 -32.000000 1.875049E+01
10.000000 -34.000000 2.280752E+01
10.000000 -36.000000 2.435668E+01
10.000000 -38.000000 2.679787E+01
10.000000 -40.000000 3.120205E+01
12.000000 40.000000 -3.764698E+01
12.000000 38.000000 -3.425681E+01
12.000000 36.000000 -3.175088E+01
12.000000 34.000000 -2.879854E+01
12.000000 32.000000 -2.679603E+01
12.000000 30.000000 -1.983977E+01
12.000000 28.000000 -1.445094E+01
12.000000 26.000000 -1.451109E+01
12.000000 24.000000 -1.688124E+01
12.000000 22.000000 -1.727906E+01
12.000000 20.000000 -1.685391E+01
12.000000 18.000000 -2.555453E+01
12.000000 16.000000 -4.927888E+01
12.000000 14.000000 -8.180816E+01
12.000000 12.000000 -1.032279E+02
12.000000 10.000000 -9.831465E+01
12.000000 8.000000 -6.519536E+01
12.000000 6.000000 -3.061038E+01
12.000000 4.000000 -8.577277E+00
12.000000 2.000000 -1.614412E+00
12.000000 0.000000 8.642801E+00
12.000000 -2.000000 3.022132E+01
12.000000 -4.000000 5.060836E+01
12.000000 -6.000000 4.970350E+01
12.000000 -8.000000 2.257806E+01
12.000000 -10.000000 -5.402024E+00
12.000000 -12.000000 -1.079351E+01
12.000000 -14.000000 6.891341E+00
12.000000 -16.000000 2.524887E+01
12.000000 -18.000000 2.830374E+01
12.000000 -20.000000 1.946527E+01
12.000000 -22.000000 7.832370E+00
12.000000 -24.000000 -1.911843E+00
12.000000 -26.000000 -3.564846E+00
12.000000 -28.000000 1.858655E+00
12.000000 -30.000000 1.026895E+01
12.000000 -32.000000 2.050693E+01
12.000000 -34.000000 2.612240E+01
12.000000 -36.000000 2.871147E+01
12.000000 -38.000000 3.015604E+01
12.000000 -40.000000 3.284372E+01
14.000000 40.000000 -3.509231E+01
14.000000 38.000000 -2.991762E+01
14.000000 36.000000 -2.728703E+01
14.000000 34.000000 -2.740767E+01
14.000000 32.000000 -2.976533E+01
14.000000 30.000000 -2.579157E+01
14.000000 28.000000 -1.978239E+01
14.000000 26.000000 -1.667238E+01
14.000000 24.000000 -1.810329E+01
14.000000 22.000000 -1.904587E+01
14.000000 20.000000 -1.805465E+01
14.000000 18.000000 -2.562247E+01
14.000000 16.000000 -4.729069E+01
14.000000 14.000000 -8.113603E+01
14.000000 12.000000 -1.063549E+02
14.000000 10.000000 -1.068712E+02
14.000000 8.000000 -7.389419E+01
14.000000 6.000000 -3.337352E+01
14.000000 4.000000 4.390812E-01
14.000000 2.000000 1.577203E+01
14.000000 0.000000 2.929400E+01
14.000000 -2.000000 4.827017E+01
14.000000 -4.000000 6.003729E+01
14.000000 -6.000000 4.334604E+01
14.000000 -8.000000 5.656395E-01
14.000000 -10.000000 -3.384650E+01
14.000000 -12.000000 -2.918036E+01
14.000000 -14.000000 5.918107E+00
14.000000 -16.000000 3.997021E+01
14.000000 -18.000000 4.920938E+01
14.000000 -20.000000 3.485907E+01
14.000000 -22.000000 1.351378E+01
14.000000 -24.000000 -1.307944E+00
14.000000 -26.000000 -5.508902E+00
14.000000 -28.000000 -3.778753E-01
14.000000 -30.000000 9.720735E+00
14.000000 -32.000000 2.141910E+01
14.000000 -34.000000 2.820931E+01
14.000000 -36.000000 2.991454E+01
14.000000 -38.000000 3.052662E+01
14.000000 -40.000000 3.251558E+01
16.000000 40.000000 -3.190464E+01
16.000000 38.000000 -2.538208E+01
16.000000 36.000000 -2.086649E+01
16.000000 34.000000 -2.666286E+01
16.000000 32.000000 -3.492070E+01
16.000000 30.000000 -3.401535E+01
16.000000 28.000000 -2.486394E+01
16.000000 26.000000 -1.757598E+01
16.000000 24.000000 -1.715877E+01
16.000000 22.000000 -1.759613E+01
16.000000 20.000000 -1.410930E+01
16.000000 18.000000 -1.339868E+01
16.000000 16.000000 -2.579042E+01
16.000000 14.000000 -5.422805E+01
16.000000 12.000000 -8.319739E+01
16.000000 10.000000 -9.390770E+01
16.000000 8.000000 -6.948756E+01
16.000000 6.000000 -3.031565E+01
16.000000 4.000000 7.313295E+00
16.000000 2.000000 2.505675E+01
16.000000 0.000000 3.657782E+01
16.000000 -2.000000 4.731470E+01
16.000000 -4.000000 4.533581E+01
16.000000 -6.000000 1.207232E+01
16.000000 -8.000000 -4.157679E+01
16.000000 -10.000000 -7.431076E+01
16.000000 -12.000000 -4.803183E+01
16.000000 -14.000000 1.123974E+01
16.000000 -16.000000 5.963089E+01
16.000000 -18.000000 6.897281E+01
16.000000 -20.000000 4.627657E+01
16.000000 -22.000000 1.708086E+01
16.000000 -24.000000 -1.417979E+00
16.000000 -26.000000 -6.705232E+00
16.000000 -28.000000 -3.317299E+00
16.000000 -30.000000 6.637280E+00
16.000000 -32.000000 1.943565E+01
16.000000 -34.000000 2.704360E+01
16.000000 -36.000000 2.768506E+01
16.000000 -38.000000 2.833595E+01
16.000000 -40.000000 3.110585E+01
18.000000 40.000000 -3.022620E+01
18.000000 38.000000 -2.178963E+01
18.000000 36.000000 -1.181924E+01
18.000000 34.000000 -2.549009E+01
18.000000 32.000000 -3.977807E+01
18.000000 30.000000 -3.922433E+01
18.000000 28.000000 -2.603022E+01
18.000000 26.000000 -1.450185E+01
18.000000 24.000000 -1.013661E+01
18.000000 22.000000 -8.785131E+00
18.000000 20.000000 -3.248831E+00
18.000000 18.000000 5.751455E+00
18.000000 16.000000 5.204760E+00
18.000000 14.000000 -1.368941E+01
18.000000 12.000000 -4.592643E+01
18.000000 10.000000 -6.861826E+01
18.000000 8.000000 -5.881476E+01
18.000000 6.000000 -2.812909E+01
18.000000 4.000000 4.910088E+00
18.000000 2.000000 1.902302E+01
18.000000 0.000000 2.429787E+01
18.000000 -2.000000 2.342403E+01
18.000000 -4.000000 8.659734E+00
18.000000 -6.000000 -3.698599E+01
18.000000 -8.000000 -9.360740E+01
18.000000 -10.000000 -1.152519E+02
18.000000 -12.000000 -5.771041E+01
18.000000 -14.000000 2.803855E+01
18.000000 -16.000000 8.658457E+01
18.000000 -18.000000 8.739164E+01
18.000000 -20.000000 5.293905E+01
18.000000 -22.000000 1.643769E+01
18.000000 -24.000000 -4.526237E+00
18.000000 -26.000000 -8.868575E+00
18.000000 -28.000000 -5.971406E+00
18.000000 -30.000000 2.117039E+00
18.000000 -32.000000 1.327119E+01
18.000000 -34.000000 2.124714E+01
18.000000 -36.000000 2.261101E+01
18.000000 -38.000000 2.461206E+01
18.000000 -40.000000 2.913764E+01
20.000000 40.000000 -3.069714E+01
20.000000 38.000000 -2.023410E+01
20.000000 36.000000 -3.843157E+00
20.000000 34.000000 -2.191070E+01
20.000000 32.000000 -3.859572E+01
20.000000 30.000000 -3.591514E+01
20.000000 28.000000 -1.985621E+01
20.000000 26.000000 -4.478134E+00
20.000000 24.000000 5.344994E+00
20.000000 22.000000 7.570766E+00
20.000000 20.000000 1.241786E+01
20.000000 18.000000 2.436871E+01
20.000000 16.000000 3.064837E+01
20.000000 14.000000 1.726215E+01
20.000000 12.000000 -1.778324E+01
20.000000 10.000000 -5.036675E+01
20.000000 8.000000 -5.507648E+01
20.000000 6.000000 -3.496653E+01
20.000000 4.000000 -8.573754E+00
20.000000 2.000000 -3.033195E+00
20.000000 0.000000 -8.630268E+00
20.000000 -2.000000 -1.799530E+01
20.000000 -4.000000 -3.795871E+01
20.000000 -6.000000 -8.277215E+01
20.000000 -8.000000 -1.287213E+02
20.000000 -10.000000 -1.338604E+02
20.000000 -12.000000 -5.172196E+01
20.000000 -14.000000 5.290164E+01
20.000000 -16.000000 1.145408E+02
20.000000 -18.000000 1.031173E+02
20.000000 -20.000000 5.598586E+01
20.000000 -22.000000 1.260967E+01
20.000000 -24.000000 -1.071198E+01
20.000000 -26.000000 -1.378094E+01
20.000000 -28.000000 -1.050746E+01
20.000000 -30.000000 -5.150812E+00
20.000000 -32.000000 2.638952E+00
20.000000 -34.000000 1.147578E+01
20.000000 -36.000000 1.580056E+01
20.000000 -38.000000 2.048428E+01
20.000000 -40.000000 2.746157E+01
22.000000 40.000000 -3.240043E+01
22.000000 38.000000 -2.094139E+01
22.000000 36.000000 -4.429008E+00
22.000000 34.000000 -1.443094E+01
22.000000 32.000000 -2.642350E+01
22.000000 30.000000 -2.283637E+01
22.000000 28.000000 -5.987585E+00
22.000000 26.000000 1.109560E+01
22.000000 24.000000 2.335173E+01
22.000000 22.000000 2.260880E+01
22.000000 20.000000 2.363859E+01
22.000000 18.000000 3.364730E+01
22.000000 16.000000 4.053246E+01
22.000000 14.000000 2.661323E+01
22.000000 12.000000 -1.071917E+01
22.000000 10.000000 -4.869021E+01
22.000000 8.000000 -6.112822E+01
22.000000 6.000000 -4.900215E+01
22.000000 4.000000 -2.952112E+01
22.000000 2.000000 -3.462269E+01
22.000000 0.000000 -5.182749E+01
22.000000 -2.000000 -6.365322E+01
22.000000 -4.000000 -7.913841E+01
22.000000 -6.000000 -1.089069E+02
22.000000 -8.000000 -1.313446E+02
22.000000 -10.000000 -1.184223E+02
22.000000 -12.000000 -2.828527E+01
22.000000 -14.000000 7.807019E+01
22.000000 -16.000000 1.336307E+02
22.000000 -18.000000 1.120052E+02
22.000000 -20.000000 5.480189E+01
22.000000 -22.000000 7.110516E+00
22.000000 -24.000000 -1.758594E+01
22.000000 -26.000000 -2.106523E+01
22.000000 -28.000000 -1.980814E+01
22.000000 -30.000000 -1.721660E+01
22.000000 -32.000000 -1.088222E+01
22.000000 -34.000000 2.363443E-01
22.000000 -36.000000 8.998441E+00
22.000000 -38.000000 1.721456E+01
22.000000 -40.000000 2.689885E+01
24.000000 40.000000 -3.709406E+01
24.000000 38.000000 -2.447634E+01
24.000000 36.000000 -8.793063E+00
24.000000 34.000000 -4.171291E+00
24.000000 32.000000 -7.239408E+00
24.000000 30.000000 -4.296469E+00
24.000000 28.000000 8.964153E+00
24.000000 26.000000 2.228519E+01
24.000000 24.000000 3.202488E+01
24.000000 22.000000 2.740251E+01
24.000000 20.000000 2.584624E+01
24.000000 18.000000 3.091798E+01
24.000000 16.000000 3.273999E+01
24.000000 14.000000 1.531986E+01
24.000000 12.000000 -2.220415E+01
24.000000 10.000000 -5.890856E+01
24.000000 8.000000 -7.035872E+01
24.000000 6.000000 -6.178885E+01
24.000000 4.000000 -4.966602E+01
24.000000 2.000000 -6.350600E+01
24.000000 0.000000 -8.747302E+01
24.000000 -2.000000 -9.705848E+01
24.000000 -4.000000 -1.004417E+02
24.000000 -6.000000 -1.086137E+02
24.000000 -8.000000 -1.094031E+02
24.000000 -10.000000 -8.123229E+01
24.000000 -12.000000 6.040319E+00
24.000000 -14.000000 9.900585E+01
24.000000 -16.000000 1.402834E+02
24.000000 -18.000000 1.095311E+02
24.000000 -20.000000 4.631211E+01
24.000000 -22.000000 -2.386157E+00
24.000000 -24.000000 -2.575685E+01
24.000000 -26.000000 -2.873743E+01
24.000000 -28.000000 -3.009502E+01
24.000000 -30.000000 -3.007903E+01
24.000000 -32.000000 -2.359344E+01
24.000000 -34.000000 -9.594932E+00
24.000000 -36.000000 3.889717E+00
24.000000 -38.000000 1.555852E+01
24.000000 -40.000000 2.695859E+01
26.000000 40.000000 -4.452765E+01
26.000000 38.000000 -3.031080E+01
26.000000 36.000000 -1.160886E+01
26.000000 34.000000 4.498817E+00
26.000000 32.000000 9.073036E+00
26.000000 30.000000 1.006366E+01
26.000000 28.000000 1.435682E+01
26.000000 26.000000 1.892710E+01
26.000000 24.000000 2.216637E+01
26.000000 22.000000 1.741524E+01
26.000000 20.000000 1.846464E+01
26.000000 18.000000 1.890746E+01
26.000000 16.000000 1.368558E+01
26.000000 14.000000 -5.626158E+00
26.000000 12.000000 -3.941162E+01
26.000000 10.000000 -6.894698E+01
26.000000 8.000000 -7.451541E+01
26.000000 6.000000 -6.613476E+01
26.000000 4.000000 -6.022825E+01
26.000000 2.000000 -8.072957E+01
26.000000 0.000000 -1.064082E+02
26.000000 -2.000000 -1.095597E+02
26.000000 -4.000000 -9.815646E+01
26.000000 -6.000000 -8.625426E+01
26.000000 -8.000000 -7.154646E+01
26.000000 -10.000000 -3.497391E+01
26.000000 -12.000000 4.044481E+01
26.000000 -14.000000 1.118637E+02
26.000000 -16.000000 1.339179E+02
26.000000 -18.000000 9.328751E+01
26.000000 -20.000000 2.812486E+01
26.000000 -22.000000 -1.784113E+01
26.000000 -24.000000 -3.550121E+01
26.000000 -26.000000 -3.446469E+01
26.000000 -28.000000 -3.607229E+01
26.000000 -30.000000 -3.800096E+01
26.000000 -32.000000 -3.118821E+01
26.000000 -34.000000 -1.502312E+01
26.000000 -36.000000 1.524168E+00
26.000000 -38.000000 1.545667E+01
26.000000 -40.000000 2.654844E+01
28.000000 40.000000 -4.871171E+01
28.000000 38.000000 -3.686420E+01
28.000000 36.000000 -1.758431E+01
28.000000 34.000000 3.345747E+00
28.000000 32.000000 1.240670E+01
28.000000 30.000000 1.051907E+01
28.000000 28.000000 4.426355E+00
28.000000 26.000000 -1.089130E+00
28.000000 24.000000 -6.038433E+00
28.000000 22.000000 -6.221569E+00
28.000000 20.000000 1.864590E+00
28.000000 18.000000 4.068462E+00
28.000000 16.000000 -3.693155E+00
28.000000 14.000000 -2.170533E+01
28.000000 12.000000 -5.048911E+01
28.000000 10.000000 -7.119665E+01
28.000000 8.000000 -7.000985E+01
28.000000 6.000000 -5.996246E+01
28.000000 4.000000 -5.872685E+01
28.000000 2.000000 -8.231996E+01
28.000000 0.000000 -1.044573E+02
28.000000 -2.000000 -9.909847E+01
28.000000 -4.000000 -7.565357E+01
28.000000 -6.000000 -5.104906E+01
28.000000 -8.000000 -2.908966E+01
28.000000 -10.000000 7.313368E+00
28.000000 -12.000000 6.340559E+01
28.000000 -14.000000 1.121951E+02
28.000000 -16.000000 1.146547E+02
28.000000 -18.000000 6.591330E+01
28.000000 -20.000000 3.356358E+00
28.000000 -22.000000 -3.688988E+01
28.000000 -24.000000 -4.476813E+01
28.000000 -26.000000 -3.672604E+01
28.000000 -28.000000 -3.600743E+01
28.000000 -30.000000 -3.770824E+01
28.000000 -32.000000 -3.039959E+01
28.000000 -34.000000 -1.353115E+01
28.000000 -36.000000 2.871276E+00
28.000000 -38.000000 1.646769E+01
28.000000 -40.000000 2.537599E+01
30.000000 40.000000 -4.855899E+01
30.000000 38.000000 -4.347086E+01
30.000000 36.000000 -2.901818E+01
30.000000 34.000000 -9.875210E+00
30.000000 32.000000 5.625248E-01
30.000000 30.000000 -3.633469E+00
30.000000 28.000000 -1.783510E+01
30.000000 26.000000 -3.136708E+01
30.000000 24.000000 -4.255038E+01
30.000000 22.000000 -3.624584E+01
30.000000 20.000000 -1.992067E+01
30.000000 18.000000 -8.309309E+00
30.000000 16.000000 -1.086419E+01
30.000000 14.000000 -2.573004E+01
30.000000 12.000000 -5.092786E+01
30.000000 10.000000 -6.637148E+01
30.000000 8.000000 -6.135436E+01
30.000000 6.000000 -4.900637E+01
30.000000 4.000000 -4.838045E+01
30.000000 2.000000 -6.938366E+01
30.000000 0.000000 -8.463380E+01
30.000000 -2.000000 -7.202280E+01
30.000000 -4.000000 -4.399514E+01
30.000000 -6.000000 -1.695793E+01
30.000000 -8.000000 4.514254E+00
30.000000 -10.000000 3.209697E+01
30.000000 -12.000000 6.749911E+01
30.000000 -14.000000 9.697041E+01
30.000000 -16.000000 8.573004E+01
30.000000 -18.000000 3.600783E+01
30.000000 -20.000000 -1.860239E+01
30.000000 -22.000000 -5.063925E+01
30.000000 -24.000000 -4.828508E+01
30.000000 -26.000000 -3.387489E+01
30.000000 -28.000000 -2.985282E+01
30.000000 -30.000000 -2.957391E+01
30.000000 -32.000000 -2.209180E+01
30.000000 -34.000000 -6.190451E+00
30.000000 -36.000000 7.168529E+00
30.000000 -38.000000 1.777025E+01
30.000000 -40.000000 2.311846E+01
32.000000 40.000000 -4.928068E+01
32.000000 38.000000 -5.032301E+01
32.000000 36.000000 -4.266822E+01
32.000000 34.000000 -2.911782E+01
32.000000 32.000000 -2.010882E+01
32.000000 30.000000 -2.505522E+01
32.000000 28.000000 -4.244357E+01
32.000000 26.000000 -5.916087E+01
32.000000 24.000000 -7.243706E+01
32.000000 22.000000 -6.095455E+01
32.000000 20.000000 -3.860132E+01
32.000000 18.000000 -1.745519E+01
32.000000 16.000000 -1.290112E+01
32.000000 14.000000 -2.406174E+01
32.000000 12.000000 -4.655214E+01
32.000000 10.000000 -5.943978E+01
32.000000 8.000000 -5.272047E+01
32.000000 6.000000 -3.856145E+01
32.000000 4.000000 -3.530982E+01
32.000000 2.000000 -4.970964E+01
32.000000 0.000000 -5.741579E+01
32.000000 -2.000000 -4.124894E+01
32.000000 -4.000000 -1.714567E+01
32.000000 -6.000000 3.235103E+00
32.000000 -8.000000 2.020037E+01
32.000000 -10.000000 3.610373E+01
32.000000 -12.000000 5.410869E+01
32.000000 -14.000000 6.854241E+01
32.000000 -16.000000 5.371900E+01
32.000000 -18.000000 1.202832E+01
32.000000 -20.000000 -2.920034E+01
32.000000 -22.000000 -4.969301E+01
32.000000 -24.000000 -4.204204E+01
32.000000 -26.000000 -2.548611E+01
32.000000 -28.000000 -1.968222E+01
32.000000 -30.000000 -1.747875E+01
32.000000 -32.000000 -1.072710E+01
32.000000 -34.000000 2.629826E+00
32.000000 -36.000000 1.235380E+01
32.000000 -38.000000 1.851297E+01
32.000000 -40.000000 1.962780E+01
34.000000 40.000000 -5.234505E+01
34.000000 38.000000 -5.775733E+01
34.000000 36.000000 -5.700579E+01
34.000000 34.000000 -5.027625E+01
34.000000 32.000000 -4.282101E+01
34.000000 30.000000 -4.516768E+01
34.000000 28.000000 -5.929146E+01
34.000000 26.000000 -7.372144E+01
34.000000 24.000000 -8.602418E+01
34.000000 22.000000 -7.315245E+01
34.000000 20.000000 -4.896004E+01
34.000000 18.000000 -2.361397E+01
34.000000 16.000000 -1.534627E+01
34.000000 14.000000 -2.402816E+01
34.000000 12.000000 -4.340341E+01
34.000000 10.000000 -5.349808E+01
34.000000 8.000000 -4.637414E+01
34.000000 6.000000 -3.346633E+01
34.000000 4.000000 -2.687678E+01
34.000000 2.000000 -3.179070E+01
34.000000 0.000000 -3.294092E+01
34.000000 -2.000000 -1.993623E+01
34.000000 -4.000000 -3.736871E+00
34.000000 -6.000000 8.423466E+00
34.000000 -8.000000 1.759573E+01
34.000000 -10.000000 2.427491E+01
34.000000 -12.000000 3.243282E+01
34.000000 -14.000000 3.912523E+01
34.000000 -16.000000 2.670860E+01
34.000000 -18.000000 -2.940904E+00
34.000000 -20.000000 -2.827679E+01
34.000000 -22.000000 -3.695295E+01
34.000000 -24.000000 -2.831613E+01
34.000000 -26.000000 -1.490666E+01
34.000000 -28.000000 -1.031309E+01
34.000000 -30.000000 -7.180269E+00
34.000000 -32.000000 -1.155863E+00
34.000000 -34.000000 1.008893E+01
34.000000 -36.000000 1.708414E+01
34.000000 -38.000000 1.901777E+01
34.000000 -40.000000 1.660800E+01
36.000000 40.000000 -5.612774E+01
36.000000 38.000000 -6.539098E+01
36.000000 36.000000 -7.130200E+01
36.000000 34.000000 -7.085176E+01
36.000000 32.000000 -6.252424E+01
36.000000 30.000000 -5.837494E+01
36.000000 28.000000 -6.304289E+01
36.000000 26.000000 -7.089782E+01
36.000000 24.000000 -8.163829E+01
36.000000 22.000000 -7.310264E+01
36.000000 20.000000 -5.268183E+01
36.000000 18.000000 -2.992969E+01
36.000000 16.000000 -2.143023E+01
36.000000 14.000000 -2.780570E+01
36.000000 12.000000 -4.320593E+01
36.000000 10.000000 -5.113444E+01
36.000000 8.000000 -4.533712E+01
36.000000 6.000000 -3.484345E+01
36.000000 4.000000 -2.461695E+01
36.000000 2.000000 -2.061757E+01
36.000000 0.000000 -1.656809E+01
36.000000 -2.000000 -8.286591E+00
36.000000 -4.000000 2.059956E-01
36.000000 -6.000000 4.973805E+00
36.000000 -8.000000 6.813910E+00
36.000000 -10.000000 7.501116E+00
36.000000 -12.000000 1.119179E+01
36.000000 -14.000000 1.603072E+01
36.000000 -16.000000 7.539609E+00
36.000000 -18.000000 -1.110808E+01
36.000000 -20.000000 -2.321028E+01
36.000000 -22.000000 -2.289793E+01
36.000000 -24.000000 -1.428556E+01
36.000000 -26.000000 -6.614139E+00
36.000000 -28.000000 -4.788135E+00
36.000000 -30.000000 -2.385204E+00
36.000000 -32.000000 3.953371E+00
36.000000 -34.000000 1.552496E+01
36.000000 -36.000000 2.073312E+01
36.000000 -38.000000 1.975931E+01
36.000000 -40.000000 1.556774E+01
38.000000 40.000000 -5.904987E+01
38.000000 38.000000 -7.268155E+01
38.000000 36.000000 -8.420776E+01
38.000000 34.000000 -8.732936E+01
38.000000 32.000000 -7.582356E+01
38.000000 30.000000 -6.265842E+01
38.000000 28.000000 -5.484743E+01
38.000000 26.000000 -5.477963E+01
38.000000 24.000000 -6.387744E+01
38.000000 22.000000 -6.425441E+01
38.000000 20.000000 -5.337992E+01
38.000000 18.000000 -3.872408E+01
38.000000 16.000000 -3.242675E+01
38.000000 14.000000 -3.504796E+01
38.000000 12.000000 -4.415996E+01
38.000000 10.000000 -4.994559E+01
38.000000 8.000000 -4.505963E+01
38.000000 6.000000 -3.574924E+01
38.000000 4.000000 -2.484179E+01
38.000000 2.000000 -1.697077E+01
38.000000 0.000000 -1.015798E+01
38.000000 -2.000000 -3.864750E+00
38.000000 -4.000000 9.377327E-01
38.000000 -6.000000 -1.175036E+00
38.000000 -8.000000 -4.278915E+00
38.000000 -10.000000 -7.959399E+00
38.000000 -12.000000 -6.067433E+00
38.000000 -14.000000 -1.724761E+00
38.000000 -16.000000 -7.106156E+00
38.000000 -18.000000 -1.814701E+01
38.000000 -20.000000 -2.020149E+01
38.000000 -22.000000 -1.361021E+01
38.000000 -24.000000 -5.652493E+00
38.000000 -26.000000 -1.832930E+00
38.000000 -28.000000 -2.224422E+00
38.000000 -30.000000 -8.084297E-01
38.000000 -32.000000 6.137305E+00
38.000000 -34.000000 1.880490E+01
38.000000 -36.000000 2.304200E+01
38.000000 -38.000000 2.043729E+01
38.000000 -40.000000 1.528420E+01
40.000000 40.000000 -6.027511E+01
40.000000 38.000000 -7.816295E+01
40.000000 36.000000 -9.385441E+01
40.000000 34.000000 -9.752451E+01
40.000000 32.000000 -8.120303E+01
40.000000 30.000000 -5.834550E+01
40.000000 28.000000 -3.909650E+01
40.000000 26.000000 -3.289818E+01
40.000000 24.000000 -4.078318E+01
40.000000 22.000000 -5.086394E+01
40.000000 20.000000 -5.147326E+01
40.000000 18.000000 -4.712389E+01
40.000000 16.000000 -4.338087E+01
40.000000 14.000000 -4.228066E+01
40.000000 12.000000 -4.402989E+01
40.000000 10.000000 -4.309080E+01
40.000000 8.000000 -3.726587E+01
40.000000 6.000000 -3.037430E+01
40.000000 4.000000 -2.364415E+01
40.000000 2.000000 -1.738731E+01
40.000000 0.000000 -1.147878E+01
40.000000 -2.000000 -6.599605E+00
40.000000 -4.000000 -4.185058E+00
40.000000 -6.000000 -1.008701E+01
40.000000 -8.000000 -1.513926E+01
40.000000 -10.000000 -2.014498E+01
40.000000 -12.000000 -1.797855E+01
40.000000 -14.000000 -1.413143E+01
40.000000 -16.000000 -1.817301E+01
40.000000 -18.000000 -2.502272E+01
40.000000 -20.000000 -2.177050E+01
40.000000 -22.000000 -1.247467E+01
40.000000 -24.000000 -5.243535E+00
40.000000 -26.000000 -1.987730E+00
40.000000 -28.000000 -2.399242E+00
40.000000 -30.000000 -1.977787E-01
40.000000 -32.000000 7.661935E+00
40.000000 -34.000000 2.084547E+01
40.000000 -36.000000 2.435323E+01
40.000000 -38.000000 2.075255E+01
40.000000 -40.000000 1.494496E+01
42.000000 40.000000 -5.979881E+01
42.000000 38.000000 -7.932946E+01
42.000000 36.000000 -9.789632E+01
42.000000 34.000000 -1.012662E+02
42.000000 32.000000 -7.987721E+01
42.000000 30.000000 -4.855749E+01
42.000000 28.000000 -2.161393E+01
42.000000 26.000000 -1.232277E+01
42.000000 24.000000 -1.898565E+01
42.000000 22.000000 -3.438340E+01
42.000000 20.000000 -4.285215E+01
42.000000 18.000000 -4.700003E+01
42.000000 16.000000 -4.618935E+01
42.000000 14.000000 -4.365670E+01
42.000000 12.000000 -3.980982E+01
42.000000 10.000000 -3.121304E+01
42.000000 8.000000 -2.378723E+01
42.000000 6.000000 -1.957029E+01
42.000000 4.000000 -1.955311E+01
42.000000 2.000000 -1.940436E+01
42.000000 0.000000 -1.801715E+01
42.000000 -2.000000 -1.533791E+01
42.000000 -4.000000 -1.443977E+01
42.000000 -6.000000 -1.960199E+01
42.000000 -8.000000 -2.441863E+01
42.000000 -10.000000 -2.726617E+01
42.000000 -12.000000 -2.330433E+01
42.000000 -14.000000 -1.986519E+01
42.000000 -16.000000 -2.439957E+01
42.000000 -18.000000 -3.049081E+01
42.000000 -20.000000 -2.834554E+01
42.000000 -22.000000 -2.069609E+01
42.000000 -24.000000 -1.404567E+01
42.000000 -26.000000 -9.480248E+00
42.000000 -28.000000 -5.951792E+00
42.000000 -30.000000 -1.106527E+00
42.000000 -32.000000 8.191565E+00
42.000000 -34.000000 2.277057E+01
42.000000 -36.000000 2.550712E+01
42.000000 -38.000000 2.098002E+01
42.000000 -40.000000 1.538987E+01
44.000000 40.000000 -5.622032E+01
44.000000 38.000000 -7.533112E+01
44.000000 36.000000 -9.548522E+01
44.000000 34.000000 -9.958627E+01
44.000000 32.000000 -7.577070E+01
44.000000 30.000000 -3.952737E+01
44.000000 28.000000 -8.185720E+00
44.000000 26.000000 3.106714E+00
44.000000 24.000000 -9.946213E-01
44.000000 22.000000 -1.527024E+01
44.000000 20.000000 -2.402244E+01
44.000000 18.000000 -3.165412E+01
44.000000 16.000000 -3.557225E+01
44.000000 14.000000 -3.519600E+01
44.000000 12.000000 -3.008921E+01
44.000000 10.000000 -2.122621E+01
44.000000 8.000000 -1.410848E+01
44.000000 6.000000 -9.427137E+00
44.000000 4.000000 -1.334984E+01
44.000000 2.000000 -2.021379E+01
44.000000 0.000000 -2.533732E+01
44.000000 -2.000000 -2.548341E+01
44.000000 -4.000000 -2.413844E+01
44.000000 -6.000000 -2.590080E+01
44.000000 -8.000000 -2.843298E+01
44.000000 -10.000000 -2.860992E+01
44.000000 -12.000000 -2.390129E+01
44.000000 -14.000000 -2.194243E+01
44.000000 -16.000000 -2.923882E+01
44.000000 -18.000000 -3.850479E+01
44.000000 -20.000000 -3.977536E+01
44.000000 -22.000000 -3.379466E+01
44.000000 -24.000000 -2.597883E+01
44.000000 -26.000000 -1.870881E+01
44.000000 -28.000000 -1.071680E+01
44.000000 -30.000000 -3.176401E+00
44.000000 -32.000000 7.411999E+00
44.000000 -34.000000 2.317523E+01
44.000000 -36.000000 2.605023E+01
44.000000 -38.000000 2.198751E+01
44.000000 -40.000000 1.768865E+01
46.000000 40.000000 -4.790461E+01
46.000000 38.000000 -6.625746E+01
46.000000 36.000000 -8.659401E+01
46.000000 34.000000 -9.336992E+01
46.000000 32.000000 -7.209791E+01
46.000000 30.000000 -3.559793E+01
46.000000 28.000000 -1.256826E+00
46.000000 26.000000 1.281488E+01
46.000000 24.000000 1.168259E+01
46.000000 22.000000 2.438828E+00
46.000000 20.000000 -6.087112E-02
46.000000 18.000000 -5.939137E+00
46.000000 16.000000 -1.342477E+01
46.000000 14.000000 -1.700985E+01
46.000000 12.000000 -1.666410E+01
46.000000 10.000000 -1.304317E+01
46.000000 8.000000 -8.780657E+00
46.000000 6.000000 -4.021008E+00
46.000000 4.000000 -8.940052E+00
46.000000 2.000000 -2.034222E+01
46.000000 0.000000 -3.032801E+01
46.000000 -2.000000 -3.297094E+01
46.000000 -4.000000 -3.153319E+01
46.000000 -6.000000 -3.002731E+01
46.000000 -8.000000 -2.935057E+01
46.000000 -10.000000 -2.763209E+01
46.000000 -12.000000 -2.346589E+01
46.000000 -14.000000 -2.388121E+01
46.000000 -16.000000 -3.358718E+01
46.000000 -18.000000 -4.590002E+01
46.000000 -20.000000 -4.928636E+01
46.000000 -22.000000 -4.319380E+01
46.000000 -24.000000 -3.270524E+01
46.000000 -26.000000 -2.210607E+01
46.000000 -28.000000 -1.328859E+01
46.000000 -30.000000 -5.454285E+00
46.000000 -32.000000 5.645028E+00
46.000000 -34.000000 2.071533E+01
46.000000 -36.000000 2.532341E+01
46.000000 -38.000000 2.430179E+01
46.000000 -40.000000 2.204980E+01
48.000000 40.000000 -3.523895E+01
48.000000 38.000000 -5.200068E+01
