-28.000000 -2.000000 2.662124E+01
-28.000000 -4.000000 4.697158E+01
-28.000000 -6.000000 5.945988E+01
-28.000000 -8.000000 5.198734E+01
-28.000000 -10.000000 3.484002E+01
-28.000000 -12.000000 2.792205E+01
-28.000000 -14.000000 3.779084E+01
-28.000000 -16.000000 5.210052E+01
-28.000000 -18.000000 5.798567E+01
-28.000000 -20.000000 5.358084E+01
-28.000000 -22.000000 4.228247E+01
-28.000000 -24.000000 3.201276E+01
-28.000000 -26.000000 2.572952E+01
-28.000000 -28.000000 1.939921E+01
-28.000000 -30.000000 8.393178E+00
-28.000000 -32.000000 -7.268998E+00
-28.000000 -34.000000 -2.667830E+01
-28.000000 -36.000000 -4.470979E+01
-28.000000 -38.000000 -5.495879E+01
-28.000000 -40.000000 -6.504601E+01
-26.000000 40.000000 2.108769E+01
-26.000000 38.000000 8.183642E+00
-26.000000 36.000000 -7.686831E+00
-26.000000 34.000000 -2.956898E+01
-26.000000 32.000000 -4.363211E+01
-26.000000 30.000000 -4.684472E+01
-26.000000 28.000000 -4.353255E+01
-26.000000 26.000000 -3.901207E+01
-26.000000 24.000000 -3.741012E+01
-26.000000 22.000000 -3.303638E+01
-26.000000 20.000000 -2.549542E+01
-26.000000 18.000000 -1.553639E+01
-26.000000 16.000000 -8.894151E+00
-26.000000 14.000000 -5.903835E+00
-26.000000 12.000000 -6.244962E+00
-26.000000 10.000000 -7.319410E+00
-26.000000 8.000000 -9.899383E+00
-26.000000 6.000000 -1.336005E+01
-26.000000 4.000000 -1.150610E+01
-26.000000 2.000000 -6.075424E+00
-26.000000 0.000000 1.235151E-01
-26.000000 -2.000000 1.287211E+01
-26.000000 -4.000000 3.217661E+01
-26.000000 -6.000000 4.783904E+01
-26.000000 -8.000000 4.349381E+01
-26.000000 -10.000000 2.875347E+01
-26.000000 -12.000000 2.705648E+01
-26.000000 -14.000000 4.226911E+01
-26.000000 -16.000000 5.765520E+01
-26.000000 -18.000000 6.030826E+01
-26.000000 -20.000000 5.190784E+01
-26.000000 -22.000000 3.654089E+01
-26.000000 -24.000000 2.523731E+01
-26.000000 -26.000000 2.127496E+01
-26.000000 -28.000000 1.687733E+01
-26.000000 -30.000000 6.229025E+00
-26.000000 -32.000000 -9.245221E+00
-26.000000 -34.000000 -2.919911E+01
-26.000000 -36.000000 -4.703843E+01
-26.000000 -38.000000 -5.618420E+01
-26.000000 -40.000000 -6.679471E+01
-24.000000 40.000000 2.271102E+01
-24.000000 38.000000 8.916832E+00
-24.000000 36.000000 -9.741779E+00
-24.000000 34.000000 -3.176796E+01
-24.000000 32.000000 -4.339034E+01
-24.000000 30.000000 -4.018830E+01
-24.000000 28.000000 -3.370696E+01
-24.000000 26.000000 -3.370309E+01
-24.000000 24.000000 -4.055667E+01
-24.000000 22.000000 -4.137720E+01
-24.000000 20.000000 -3.593338E+01
-24.000000 18.000000 -2.546107E+01
-24.000000 16.000000 -1.905099E+01
-24.000000 14.000000 -1.808647E+01
-24.000000 12.000000 -2.024881E+01
-24.000000 10.000000 -1.821705E+01
-24.000000 8.000000 -1.265894E+01
-24.000000 6.000000 -9.126810E+00
-24.000000 4.000000 -5.878096E+00
-24.000000 2.000000 -6.440934E+00
-24.000000 0.000000 -8.540673E+00
-24.000000 -2.000000 -1.573253E+00
-24.000000 -4.000000 1.582700E+01
-24.000000 -6.000000 3.325516E+01
-24.000000 -8.000000 3.318348E+01
-24.000000 -10.000000 2.355896E+01
-24.000000 -12.000000 2.598842E+01
-24.000000 -14.000000 4.224486E+01
-24.000000 -16.000000 5.615328E+01
-24.000000 -18.000000 5.526613E+01
-24.000000 -20.000000 4.309285E+01
-24.000000 -22.000000 2.657237E+01
-24.000000 -24.000000 1.669677E+01
-24.000000 -26.000000 1.520242E+01
-24.000000 -28.000000 1.265460E+01
-24.000000 -30.000000 3.667214E+00
-24.000000 -32.000000 -1.117957E+01
-24.000000 -34.000000 -3.170051E+01
-24.000000 -36.000000 -4.851622E+01
-24.000000 -38.000000 -5.767772E+01
-24.000000 -40.000000 -6.665227E+01
-22.000000 40.000000 2.172816E+01
-22.000000 38.000000 7.042188E+00
-22.000000 36.000000 -1.135689E+01
-22.000000 34.000000 -3.153604E+01
-22.000000 32.000000 -4.020751E+01
-22.000000 30.000000 -3.356605E+01
-22.000000 28.000000 -2.500961E+01
-22.000000 26.000000 -2.612032E+01
-22.000000 24.000000 -3.666625E+01
-22.000000 22.000000 -4.089164E+01
-22.000000 20.000000 -3.696799E+01
-22.000000 18.000000 -2.797081E+01
-22.000000 16.000000 -2.619994E+01
-22.000000 14.000000 -2.974713E+01
-22.000000 12.000000 -3.194283E+01
-22.000000 10.000000 -2.523605E+01
-22.000000 8.000000 -1.252939E+01
-22.000000 6.000000 -2.800944E+00
-22.000000 4.000000 7.790621E-02
-22.000000 2.000000 -7.219995E+00
-22.000000 0.000000 -1.559042E+01
-22.000000 -2.000000 -9.713570E+00
-22.000000 -4.000000 8.991113E+00
-22.000000 -6.000000 2.639193E+01
-22.000000 -8.000000 2.509364E+01
-22.000000 -10.000000 1.416005E+01
-22.000000 -12.000000 1.486156E+01
-22.000000 -14.000000 2.991018E+01
-22.000000 -16.000000 4.308620E+01
-22.000000 -18.000000 4.025543E+01
-22.000000 -20.000000 2.628143E+01
-22.000000 -22.000000 1.084662E+01
-22.000000 -24.000000 4.229595E+00
-22.000000 -26.000000 6.487213E+00
-22.000000 -28.000000 7.112743E+00
-22.000000 -30.000000 9.117999E-01
-22.000000 -32.000000 -1.280612E+01
-22.000000 -34.000000 -3.278315E+01
-22.000000 -36.000000 -4.837620E+01
-22.000000 -38.000000 -5.574118E+01
-22.000000 -40.000000 -6.236817E+01
-20.000000 40.000000 2.005414E+01
-20.000000 38.000000 6.714521E+00
-20.000000 36.000000 -9.659883E+00
-20.000000 34.000000 -2.692693E+01
-20.000000 32.000000 -3.387682E+01
-20.000000 30.000000 -2.859546E+01
-20.000000 28.000000 -2.093906E+01
-20.000000 26.000000 -1.986627E+01
-20.000000 24.000000 -2.730928E+01
-20.000000 22.000000 -3.194838E+01
-20.000000 20.000000 -2.907980E+01
-20.000000 18.000000 -2.414816E+01
-20.000000 16.000000 -2.863206E+01
-20.000000 14.000000 -3.961961E+01
-20.000000 12.000000 -4.513349E+01
-20.000000 10.000000 -3.434558E+01
-20.000000 8.000000 -1.306090E+01
-20.000000 6.000000 4.722096E+00
-20.000000 4.000000 8.287741E+00
-20.000000 2.000000 -5.359946E+00
-20.000000 0.000000 -1.923409E+01
-20.000000 -2.000000 -1.405223E+01
-20.000000 -4.000000 6.709764E+00
-20.000000 -6.000000 2.466365E+01
-20.000000 -8.000000 2.042093E+01
-20.000000 -10.000000 4.949930E+00
-20.000000 -12.000000 1.080503E+00
-20.000000 -14.000000 1.277400E+01
-20.000000 -16.000000 2.238910E+01
-20.000000 -18.000000 1.559637E+01
-20.000000 -20.000000 1.714892E+00
-20.000000 -22.000000 -1.032366E+01
-20.000000 -24.000000 -1.125723E+01
-20.000000 -26.000000 -2.406147E+00
-20.000000 -28.000000 3.131757E+00
-20.000000 -30.000000 -2.402349E-01
-20.000000 -32.000000 -1.266435E+01
-20.000000 -34.000000 -3.301532E+01
-20.000000 -36.000000 -4.764955E+01
-20.000000 -38.000000 -5.263438E+01
-20.000000 -40.000000 -5.750224E+01
-18.000000 40.000000 1.904211E+01
-18.000000 38.000000 8.044302E+00
-18.000000 36.000000 -5.765140E+00
-18.000000 34.000000 -2.016470E+01
-18.000000 32.000000 -2.623915E+01
-18.000000 30.000000 -2.393521E+01
-18.000000 28.000000 -1.835136E+01
-18.000000 26.000000 -1.470001E+01
-18.000000 24.000000 -1.764263E+01
-18.000000 22.000000 -2.002327E+01
-18.000000 20.000000 -1.654279E+01
-18.000000 18.000000 -1.608926E+01
-18.000000 16.000000 -2.661550E+01
-18.000000 14.000000 -4.761476E+01
-18.000000 12.000000 -6.252905E+01
-18.000000 10.000000 -5.190164E+01
-18.000000 8.000000 -2.161221E+01
-18.000000 6.000000 7.066178E+00
-18.000000 4.000000 1.737146E+01
-18.000000 2.000000 9.650054E-01
-18.000000 0.000000 -1.905267E+01
-18.000000 -2.000000 -1.728481E+01
-18.000000 -4.000000 2.674739E+00
-18.000000 -6.000000 2.059680E+01
-18.000000 -8.000000 1.617330E+01
-18.000000 -10.000000 -2.080481E-01
-18.000000 -12.000000 -7.325267E+00
-18.000000 -14.000000 -1.854550E+00
-18.000000 -16.000000 6.539981E-01
-18.000000 -18.000000 -1.045985E+01
-18.000000 -20.000000 -2.327327E+01
-18.000000 -22.000000 -2.999856E+01
-18.000000 -24.000000 -2.377117E+01
-18.000000 -26.000000 -8.644557E+00
-18.000000 -28.000000 1.416916E+00
-18.000000 -30.000000 9.188719E-01
-18.000000 -32.000000 -1.035958E+01
-18.000000 -34.000000 -3.057660E+01
-18.000000 -36.000000 -4.466993E+01
-18.000000 -38.000000 -4.950992E+01
-18.000000 -40.000000 -5.481305E+01
-16.000000 40.000000 1.920901E+01
-16.000000 38.000000 9.572354E+00
-16.000000 36.000000 -1.947010E+00
-16.000000 34.000000 -1.290638E+01
-16.000000 32.000000 -1.795096E+01
-16.000000 30.000000 -1.803518E+01
-16.000000 28.000000 -1.491732E+01
-16.000000 26.000000 -1.088117E+01
-16.000000 24.000000 -1.077875E+01
-16.000000 22.000000 -9.913617E+00
-16.000000 20.000000 -3.943789E+00
-16.000000 18.000000 -5.666800E+00
-16.000000 16.000000 -2.354842E+01
-16.000000 14.000000 -5.656489E+01
-16.000000 12.000000 -8.406183E+01
-16.000000 10.000000 -8.175842E+01
-16.000000 8.000000 -4.737089E+01
-16.000000 6.000000 -5.775059E+00
-16.000000 4.000000 1.904874E+01
-16.000000 2.000000 8.410627E+00
-16.000000 0.000000 -1.354063E+01
-16.000000 -2.000000 -1.853796E+01
-16.000000 -4.000000 -4.791188E+00
-16.000000 -6.000000 1.170430E+01
-16.000000 -8.000000 9.236573E+00
-16.000000 -10.000000 -5.136569E+00
-16.000000 -12.000000 -1.042719E+01
-16.000000 -14.000000 -8.013798E+00
-16.000000 -16.000000 -1.079455E+01
-16.000000 -18.000000 -2.378237E+01
-16.000000 -20.000000 -3.518555E+01
-16.000000 -22.000000 -3.912756E+01
-16.000000 -24.000000 -2.883672E+01
-16.000000 -26.000000 -1.043027E+01
-16.000000 -28.000000 1.796175E+00
-16.000000 -30.000000 3.434800E+00
-16.000000 -32.000000 -6.468171E+00
-16.000000 -34.000000 -2.632487E+01
-16.000000 -36.000000 -4.068270E+01
-16.000000 -38.000000 -4.761176E+01
-16.000000 -40.000000 -5.555959E+01
-14.000000 40.000000 1.913669E+01
-14.000000 38.000000 1.107980E+01
-14.000000 36.000000 2.009482E+00
-14.000000 34.000000 -5.546484E+00
-14.000000 32.000000 -8.442985E+00
-14.000000 30.000000 -8.869681E+00
-14.000000 28.000000 -9.618842E+00
-14.000000 26.000000 -1.063542E+01
-14.000000 24.000000 -1.165263E+01
-14.000000 22.000000 -8.527960E+00
-14.000000 20.000000 1.462688E-01
-14.000000 18.000000 -2.535172E-01
-14.000000 16.000000 -2.259001E+01
-14.000000 14.000000 -6.461831E+01
-14.000000 12.000000 -1.059312E+02
-14.000000 10.000000 -1.182329E+02
-14.000000 8.000000 -8.373862E+01
-14.000000 6.000000 -3.178802E+01
-14.000000 4.000000 9.394094E+00
-14.000000 2.000000 9.830536E+00
-14.000000 0.000000 -9.937943E+00
-14.000000 -2.000000 -2.146399E+01
-14.000000 -4.000000 -1.294556E+01
-14.000000 -6.000000 5.382153E+00
-14.000000 -8.000000 6.803642E+00
-14.000000 -10.000000 -4.344349E+00
-14.000000 -12.000000 -5.300880E+00
-14.000000 -14.000000 -1.655753E+00
-14.000000 -16.000000 -6.933766E+00
-14.000000 -18.000000 -2.095141E+01
-14.000000 -20.000000 -3.138336E+01
-14.000000 -22.000000 -3.575263E+01
-14.000000 -24.000000 -2.606354E+01
-14.000000 -26.000000 -7.867898E+00
-14.000000 -28.000000 3.839071E+00
-14.000000 -30.000000 5.667830E+00
-14.000000 -32.000000 -3.893539E+00
-14.000000 -34.000000 -2.460307E+01
-14.000000 -36.000000 -3.981501E+01
-14.000000 -38.000000 -4.795177E+01
-14.000000 -40.000000 -5.820449E+01
-12.000000 40.000000 1.905269E+01
-12.000000 38.000000 1.261923E+01
-12.000000 36.000000 5.107976E+00
-12.000000 34.000000 -1.297513E+00
-12.000000 32.000000 -2.683926E+00
-12.000000 30.000000 -2.663049E+00
-12.000000 28.000000 -7.613654E+00
-12.000000 26.000000 -1.582430E+01
-12.000000 24.000000 -2.151150E+01
-12.000000 22.000000 -1.744194E+01
-12.000000 20.000000 -5.983042E+00
-12.000000 18.000000 -1.827147E+00
-12.000000 16.000000 -2.209437E+01
-12.000000 14.000000 -6.593612E+01
-12.000000 12.000000 -1.168121E+02
-12.000000 10.000000 -1.427684E+02
-12.000000 8.000000 -1.140218E+02
-12.000000 6.000000 -6.059376E+01
-12.000000 4.000000 -8.899733E+00
-12.000000 2.000000 2.451759E+00
-12.000000 0.000000 -1.193981E+01
-12.000000 -2.000000 -2.384793E+01
-12.000000 -4.000000 -1.597732E+01
-12.000000 -6.000000 5.124117E+00
-12.000000 -8.000000 1.144807E+01
-12.000000 -10.000000 5.464759E+00
-12.000000 -12.000000 6.099144E+00
-12.000000 -14.000000 1.035623E+01
-12.000000 -16.000000 5.585377E+00
-12.000000 -18.000000 -7.224401E+00
-12.000000 -20.000000 -1.808990E+01
-12.000000 -22.000000 -2.403402E+01
-12.000000 -24.000000 -1.808338E+01
-12.000000 -26.000000 -4.504912E+00
-12.000000 -28.000000 4.741222E+00
-12.000000 -30.000000 5.607561E+00
-12.000000 -32.000000 -4.982405E+00
-12.000000 -34.000000 -2.568595E+01
-12.000000 -36.000000 -4.188579E+01
-12.000000 -38.000000 -5.088380E+01
-12.000000 -40.000000 -6.104873E+01
-10.000000 40.000000 2.155646E+01
-10.000000 38.000000 1.408361E+01
-10.000000 36.000000 4.699884E+00
-10.000000 34.000000 -4.700897E+00
-10.000000 32.000000 -8.268678E+00
-10.000000 30.000000 -9.104055E+00
-10.000000 28.000000 -1.579931E+01
-10.000000 26.000000 -2.662339E+01
-10.000000 24.000000 -3.430521E+01
-10.000000 22.000000 -2.899845E+01
-10.000000 20.000000 -1.477979E+01
-10.000000 18.000000 -5.599695E+00
-10.000000 16.000000 -2.013152E+01
-10.000000 14.000000 -5.854470E+01
-10.000000 12.000000 -1.076131E+02
-10.000000 10.000000 -1.404138E+02
-10.000000 8.000000 -1.258914E+02
-10.000000 6.000000 -8.349465E+01
-10.000000 4.000000 -3.327826E+01
-10.000000 2.000000 -1.159975E+01
-10.000000 0.000000 -1.422465E+01
-10.000000 -2.000000 -1.860124E+01
-10.000000 -4.000000 -9.017196E+00
-10.000000 -6.000000 1.126246E+01
-10.000000 -8.000000 1.995793E+01
-10.000000 -10.000000 1.732315E+01
-10.000000 -12.000000 1.578757E+01
-10.000000 -14.000000 1.875288E+01
-10.000000 -16.000000 1.678641E+01
-10.000000 -18.000000 7.724857E+00
-10.000000 -20.000000 -2.548734E+00
-10.000000 -22.000000 -1.062492E+01
-10.000000 -24.000000 -1.071955E+01
-10.000000 -26.000000 -3.879793E+00
-10.000000 -28.000000 2.784611E+00
-10.000000 -30.000000 2.960970E+00
-10.000000 -32.000000 -7.657892E+00
-10.000000 -34.000000 -2.686853E+01
-10.000000 -36.000000 -4.410499E+01
-10.000000 -38.000000 -5.478714E+01
-10.000000 -40.000000 -6.388110E+01
-8.000000 40.000000 2.718446E+01
-8.000000 38.000000 1.582555E+01
-8.000000 36.000000 5.883479E-01
-8.000000 34.000000 -1.634583E+01
-8.000000 32.000000 -2.578162E+01
-8.000000 30.000000 -2.809257E+01
-8.000000 28.000000 -3.314271E+01
-8.000000 26.000000 -4.118569E+01
-8.000000 24.000000 -4.640842E+01
-8.000000 22.000000 -3.732441E+01
-8.000000 20.000000 -1.935121E+01
-8.000000 18.000000 -5.561600E+00
-8.000000 16.000000 -1.479732E+01
-8.000000 14.000000 -4.671317E+01
-8.000000 12.000000 -8.950277E+01
-8.000000 10.000000 -1.229790E+02
-8.000000 8.000000 -1.213211E+02
-8.000000 6.000000 -9.206409E+01
-8.000000 4.000000 -4.857748E+01
-8.000000 2.000000 -2.147099E+01
-8.000000 0.000000 -1.354031E+01
-8.000000 -2.000000 -8.802543E+00
-8.000000 -4.000000 4.315701E+00
-8.000000 -6.000000 2.315192E+01
-8.000000 -8.000000 2.979983E+01
-8.000000 -10.000000 2.462816E+01
-8.000000 -12.000000 1.894057E+01
-8.000000 -14.000000 2.076592E+01
-8.000000 -16.000000 2.161098E+01
-8.000000 -18.000000 1.645309E+01
-8.000000 -20.000000 8.577995E+00
-8.000000 -22.000000 -1.059923E+00
-8.000000 -24.000000 -6.818237E+00
-8.000000 -26.000000 -5.114524E+00
-8.000000 -28.000000 2.131748E-01
-8.000000 -30.000000 4.915218E-01
-8.000000 -32.000000 -9.088104E+00
-8.000000 -34.000000 -2.726347E+01
-8.000000 -36.000000 -4.565967E+01
-8.000000 -38.000000 -5.804328E+01
-8.000000 -40.000000 -6.698232E+01
-6.000000 40.000000 3.413139E+01
-6.000000 38.000000 1.835103E+01
-6.000000 36.000000 -3.910146E+00
-6.000000 34.000000 -3.065018E+01
-6.000000 32.000000 -4.723709E+01
-6.000000 30.000000 -5.070203E+01
-6.000000 28.000000 -5.332904E+01
-6.000000 26.000000 -5.744560E+01
-6.000000 24.000000 -5.919031E+01
-6.000000 22.000000 -4.270313E+01
-6.000000 20.000000 -1.861450E+01
-6.000000 18.000000 2.062759E-01
-6.000000 16.000000 -6.384165E+00
-6.000000 14.000000 -3.538849E+01
-6.000000 12.000000 -7.443312E+01
-6.000000 10.000000 -1.063552E+02
-6.000000 8.000000 -1.103322E+02
-6.000000 6.000000 -8.772714E+01
-6.000000 4.000000 -4.830955E+01
-6.000000 2.000000 -2.154713E+01
-6.000000 0.000000 -1.011333E+01
-6.000000 -2.000000 -1.372814E-01
-6.000000 -4.000000 1.630090E+01
-6.000000 -6.000000 3.388092E+01
-6.000000 -8.000000 3.609525E+01
-6.000000 -10.000000 2.601394E+01
-6.000000 -12.000000 1.585470E+01
-6.000000 -14.000000 1.656436E+01
-6.000000 -16.000000 2.004873E+01
-6.000000 -18.000000 1.853211E+01
-6.000000 -20.000000 1.273879E+01
-6.000000 -22.000000 2.784727E+00
-6.000000 -24.000000 -5.508299E+00
-6.000000 -26.000000 -5.968546E+00
-6.000000 -28.000000 -8.260288E-01
-6.000000 -30.000000 5.764503E-01
-6.000000 -32.000000 -7.479101E+00
-6.000000 -34.000000 -2.591770E+01
-6.000000 -36.000000 -4.623444E+01
-6.000000 -38.000000 -6.052600E+01
-6.000000 -40.000000 -7.060011E+01
-4.000000 40.000000 4.003216E+01
-4.000000 38.000000 2.133459E+01
-4.000000 36.000000 -4.766093E+00
-4.000000 34.000000 -3.781127E+01
-4.000000 32.000000 -6.022927E+01
-4.000000 30.000000 -6.738851E+01
-4.000000 28.000000 -7.099643E+01
-4.000000 26.000000 -7.288799E+01
-4.000000 24.000000 -7.200221E+01
-4.000000 22.000000 -4.638370E+01
-4.000000 20.000000 -1.481996E+01
-4.000000 18.000000 8.976509E+00
-4.000000 16.000000 2.622864E+00
-4.000000 14.000000 -2.685538E+01
-4.000000 12.000000 -6.596370E+01
-4.000000 10.000000 -9.741315E+01
-4.000000 8.000000 -1.014237E+02
-4.000000 6.000000 -7.859648E+01
-4.000000 4.000000 -4.049719E+01
-4.000000 2.000000 -1.610056E+01
-4.000000 0.000000 -7.184244E+00
-4.000000 -2.000000 5.495911E-01
-4.000000 -4.000000 1.655149E+01
-4.000000 -6.000000 3.432526E+01
-4.000000 -8.000000 3.454596E+01
-4.000000 -10.000000 2.126272E+01
-4.000000 -12.000000 7.710728E+00
-4.000000 -14.000000 8.762829E+00
-4.000000 -16.000000 1.629574E+01
-4.000000 -18.000000 1.769371E+01
-4.000000 -20.000000 1.319077E+01
-4.000000 -22.000000 3.597740E+00
-4.000000 -24.000000 -5.045176E+00
-4.000000 -26.000000 -5.597383E+00
-4.000000 -28.000000 3.377228E-01
-4.000000 -30.000000 3.358189E+00
-4.000000 -32.000000 -3.154604E+00
-4.000000 -34.000000 -2.307178E+01
-4.000000 -36.000000 -4.628080E+01
-4.000000 -38.000000 -6.258523E+01
-4.000000 -40.000000 -7.445446E+01
-2.000000 40.000000 4.286722E+01
-2.000000 38.000000 2.410951E+01
-2.000000 36.000000 1.485708E-01
-2.000000 34.000000 -3.156651E+01
-2.000000 32.000000 -5.600332E+01
-2.000000 30.000000 -7.002814E+01
-2.000000 28.000000 -7.892430E+01
-2.000000 26.000000 -8.076802E+01
-2.000000 24.000000 -7.830721E+01
-2.000000 22.000000 -4.715086E+01
-2.000000 20.000000 -1.246507E+01
-2.000000 18.000000 1.353166E+01
-2.000000 16.000000 9.139465E+00
-2.000000 14.000000 -2.005297E+01
-2.000000 12.000000 -6.376963E+01
-2.000000 10.000000 -9.921234E+01
-2.000000 8.000000 -1.024052E+02
-2.000000 6.000000 -7.584280E+01
-2.000000 4.000000 -3.503084E+01
-2.000000 2.000000 -1.198450E+01
-2.000000 0.000000 -8.231800E+00
-2.000000 -2.000000 -8.201574E+00
-2.000000 -4.000000 3.166374E+00
-2.000000 -6.000000 2.118770E+01
-2.000000 -8.000000 2.276599E+01
-2.000000 -10.000000 1.023752E+01
-2.000000 -12.000000 -1.714069E+00
-2.000000 -14.000000 2.046352E+00
-2.000000 -16.000000 1.245747E+01
-2.000000 -18.000000 1.491384E+01
-2.000000 -20.000000 1.208057E+01
-2.000000 -22.000000 4.488188E+00
-2.000000 -24.000000 -2.954191E+00
-2.000000 -26.000000 -3.006983E+00
-2.000000 -28.000000 3.025366E+00
-2.000000 -30.000000 6.277115E+00
-2.000000 -32.000000 2.329082E-01
-2.000000 -34.000000 -2.121302E+01
-2.000000 -36.000000 -4.671522E+01
-2.000000 -38.000000 -6.433057E+01
-2.000000 -40.000000 -7.769010E+01
0.000000 40.000000 4.212452E+01
0.000000 38.000000 2.589994E+01
0.000000 36.000000 8.204120E+00
0.000000 34.000000 -1.616983E+01
0.000000 32.000000 -3.762789E+01
0.000000 30.000000 -5.503377E+01
0.000000 28.000000 -6.536223E+01
0.000000 26.000000 -6.510034E+01
0.000000 24.000000 -6.163813E+01
0.000000 22.000000 -3.800532E+01
0.000000 20.000000 -1.556805E+01
0.000000 18.000000 3.969530E+00
0.000000 16.000000 3.649897E+00
0.000000 14.000000 -2.064844E+01
0.000000 12.000000 -6.767869E+01
0.000000 10.000000 -1.094097E+02
0.000000 8.000000 -1.147990E+02
0.000000 6.000000 -8.555287E+01
0.000000 4.000000 -3.905796E+01
0.000000 2.000000 -1.431157E+01
0.000000 0.000000 -1.352369E+01
0.000000 -2.000000 -2.009106E+01
0.000000 -4.000000 -1.560109E+01
0.000000 -6.000000 -7.562275E-01
0.000000 -8.000000 2.732571E+00
0.000000 -10.000000 -5.577414E+00
0.000000 -12.000000 -1.115486E+01
0.000000 -14.000000 -4.083551E+00
0.000000 -16.000000 7.194204E+00
0.000000 -18.000000 1.086528E+01
0.000000 -20.000000 9.630230E+00
0.000000 -22.000000 5.490572E+00
0.000000 -24.000000 1.688320E+00
0.000000 -26.000000 1.937330E+00
0.000000 -28.000000 5.046104E+00
0.000000 -30.000000 5.802088E+00
0.000000 -32.000000 -1.313551E+00
0.000000 -34.000000 -2.258372E+01
0.000000 -36.000000 -4.793352E+01
0.000000 -38.000000 -6.593809E+01
0.000000 -40.000000 -7.976601E+01
2.000000 40.000000 3.797299E+01
2.000000 38.000000 2.581780E+01
2.000000 36.000000 1.482253E+01
2.000000 34.000000 -1.219341E-01
2.000000 32.000000 -1.468557E+01
2.000000 30.000000 -2.624221E+01
2.000000 28.000000 -2.384455E+01
2.000000 26.000000 -1.159155E+01
2.000000 24.000000 -3.648471E+00
2.000000 22.000000 -1.129391E+01
2.000000 20.000000 -3.021184E+01
2.000000 18.000000 -3.184300E+01
2.000000 16.000000 -2.247623E+01
2.000000 14.000000 -3.193005E+01
2.000000 12.000000 -7.380714E+01
2.000000 10.000000 -1.214877E+02
2.000000 8.000000 -1.351149E+02
2.000000 6.000000 -1.086723E+02
2.000000 4.000000 -5.654212E+01
2.000000 2.000000 -2.421168E+01
2.000000 0.000000 -1.883732E+01
2.000000 -2.000000 -2.562974E+01
2.000000 -4.000000 -2.712953E+01
2.000000 -6.000000 -1.866633E+01
2.000000 -8.000000 -1.603398E+01
2.000000 -10.000000 -2.180976E+01
2.000000 -12.000000 -2.233036E+01
2.000000 -14.000000 -1.216229E+01
2.000000 -16.000000 -2.630939E-01
2.000000 -18.000000 4.002378E+00
2.000000 -20.000000 4.068907E+00
2.000000 -22.000000 3.505911E+00
2.000000 -24.000000 4.116320E+00
2.000000 -26.000000 5.379459E+00
2.000000 -28.000000 3.794676E+00
2.000000 -30.000000 6.055202E-01
2.000000 -32.000000 -7.713221E+00
2.000000 -34.000000 -2.786550E+01
2.000000 -36.000000 -5.067691E+01
2.000000 -38.000000 -6.727377E+01
2.000000 -40.000000 -8.045715E+01
4.000000 40.000000 3.171940E+01
4.000000 38.000000 2.351915E+01
4.000000 36.000000 1.765585E+01
4.000000 34.000000 1.098423E+01
4.000000 32.000000 5.512860E+00
4.000000 30.000000 7.362477E+00
4.000000 28.000000 3.359883E+01
4.000000 26.000000 7.112530E+01
4.000000 24.000000 9.088575E+01
4.000000 22.000000 2.923906E+01
4.000000 20.000000 -5.989243E+01
4.000000 18.000000 -9.338066E+01
4.000000 16.000000 -5.964612E+01
4.000000 14.000000 -4.164842E+01
4.000000 12.000000 -7.568925E+01
4.000000 10.000000 -1.349435E+02
4.000000 8.000000 -1.631825E+02
4.000000 6.000000 -1.438339E+02
4.000000 4.000000 -8.317147E+01
4.000000 2.000000 -3.419360E+01
4.000000 0.000000 -1.449388E+01
4.000000 -2.000000 -1.438003E+01
4.000000 -4.000000 -1.906689E+01
4.000000 -6.000000 -1.928253E+01
4.000000 -8.000000 -2.344705E+01
4.000000 -10.000000 -3.325948E+01
4.000000 -12.000000 -3.249867E+01
4.000000 -14.000000 -2.002044E+01
4.000000 -16.000000 -8.944221E+00
4.000000 -18.000000 -7.697035E+00
4.000000 -20.000000 -7.933524E+00
4.000000 -22.000000 -6.030994E+00
4.000000 -24.000000 -1.763742E+00
4.000000 -26.000000 2.089237E+00
4.000000 -28.000000 -1.594503E+00
4.000000 -30.000000 -7.938559E+00
4.000000 -32.000000 -1.775185E+01
4.000000 -34.000000 -3.695285E+01
4.000000 -36.000000 -5.550990E+01
4.000000 -38.000000 -6.813282E+01
4.000000 -40.000000 -7.918764E+01
6.000000 40.000000 2.611421E+01
6.000000 38.000000 1.951727E+01
6.000000 36.000000 1.685119E+01
6.000000 34.000000 1.638941E+01
6.000000 32.000000 1.985123E+01
6.000000 30.000000 3.323793E+01
6.000000 28.000000 7.976233E+01
6.000000 26.000000 1.484128E+02
6.000000 24.000000 1.857522E+02
6.000000 22.000000 6.975829E+01
6.000000 20.000000 -9.339734E+01
6.000000 18.000000 -1.540740E+02
6.000000 16.000000 -8.410704E+01
6.000000 14.000000 -3.819664E+01
6.000000 12.000000 -6.986080E+01
6.000000 10.000000 -1.436857E+02
6.000000 8.000000 -1.879090E+02
6.000000 6.000000 -1.762367E+02
6.000000 4.000000 -1.043353E+02
6.000000 2.000000 -3.512622E+01
6.000000 0.000000 3.474911E+00
6.000000 -2.000000 1.460476E+01
6.000000 -4.000000 9.045906E+00
6.000000 -6.000000 -2.878969E+00
6.000000 -8.000000 -1.928199E+01
6.000000 -10.000000 -3.723682E+01
6.000000 -12.000000 -3.700359E+01
6.000000 -14.000000 -2.491450E+01
6.000000 -16.000000 -1.689954E+01
6.000000 -18.000000 -2.003289E+01
6.000000 -20.000000 -2.375005E+01
6.000000 -22.000000 -2.357597E+01
6.000000 -24.000000 -1.770468E+01
6.000000 -26.000000 -9.970815E+00
6.000000 -28.000000 -1.049589E+01
6.000000 -30.000000 -1.759084E+01
6.000000 -32.000000 -2.982886E+01
6.000000 -34.000000 -4.706209E+01
6.000000 -36.000000 -6.063594E+01
6.000000 -38.000000 -6.856658E+01
6.000000 -40.000000 -7.708542E+01
8.000000 40.000000 2.489263E+01
8.000000 38.000000 1.726153E+01
8.000000 36.000000 1.514538E+01
8.000000 34.000000 1.753320E+01
8.000000 32.000000 2.623199E+01
8.000000 30.000000 4.552267E+01
8.000000 28.000000 9.886326E+01
8.000000 26.000000 1.753200E+02
8.000000 24.000000 2.133247E+02
8.000000 22.000000 8.202025E+01
8.000000 20.000000 -9.451115E+01
8.000000 18.000000 -1.545404E+02
8.000000 16.000000 -7.589590E+01
8.000000 14.000000 -2.560098E+01
8.000000 12.000000 -5.772447E+01
8.000000 10.000000 -1.374492E+02
8.000000 8.000000 -1.915099E+02
8.000000 6.000000 -1.870205E+02
8.000000 4.000000 -1.124648E+02
8.000000 2.000000 -2.976979E+01
8.000000 0.000000 2.507430E+01
8.000000 -2.000000 4.501634E+01
8.000000 -4.000000 4.042551E+01
8.000000 -6.000000 2.048507E+01
8.000000 -8.000000 -6.047440E+00
8.000000 -10.000000 -2.978721E+01
8.000000 -12.000000 -2.913569E+01
8.000000 -14.000000 -1.905076E+01
8.000000 -16.000000 -1.636745E+01
8.000000 -18.000000 -2.559640E+01
8.000000 -20.000000 -3.592635E+01
8.000000 -22.000000 -4.314131E+01
8.000000 -24.000000 -3.861345E+01
8.000000 -26.000000 -2.572889E+01
8.000000 -28.000000 -2.043491E+01
8.000000 -30.000000 -2.681882E+01
8.000000 -32.000000 -4.107350E+01
8.000000 -34.000000 -5.608020E+01
8.000000 -36.000000 -6.522994E+01
8.000000 -38.000000 -6.892186E+01
8.000000 -40.000000 -7.563947E+01
10.000000 40.000000 3.034425E+01
10.000000 38.000000 2.046679E+01
10.000000 36.000000 1.591337E+01
10.000000 34.000000 1.675472E+01
10.000000 32.000000 2.542319E+01
10.000000 30.000000 4.392003E+01
10.000000 28.000000 8.501497E+01
10.000000 26.000000 1.318258E+02
10.000000 24.000000 1.480548E+02
10.000000 22.000000 5.930319E+01
10.000000 20.000000 -5.019190E+01
10.000000 18.000000 -8.151534E+01
10.000000 16.000000 -3.080653E+01
10.000000 14.000000 -2.047788E+00
10.000000 12.000000 -4.108667E+01
10.000000 10.000000 -1.198218E+02
10.000000 8.000000 -1.767701E+02
10.000000 6.000000 -1.808683E+02
10.000000 4.000000 -1.165660E+02
10.000000 2.000000 -3.256349E+01
10.000000 0.000000 3.145518E+01
10.000000 -2.000000 6.022235E+01
10.000000 -4.000000 6.119212E+01
10.000000 -6.000000 4.326464E+01
10.000000 -8.000000 1.712194E+01
10.000000 -10.000000 -5.371284E+00
10.000000 -12.000000 -3.232195E+00
10.000000 -14.000000 4.717384E+00
10.000000 -16.000000 -7.952042E-01
10.000000 -18.000000 -2.017848E+01
10.000000 -20.000000 -3.895818E+01
10.000000 -22.000000 -5.395507E+01
10.000000 -24.000000 -5.248218E+01
10.000000 -26.000000 -3.700311E+01
10.000000 -28.000000 -2.824646E+01
10.000000 -30.000000 -3.385635E+01
10.000000 -32.000000 -4.950418E+01
10.000000 -34.000000 -6.403651E+01
10.000000 -36.000000 -7.041308E+01
10.000000 -38.000000 -7.009288E+01
10.000000 -40.000000 -7.445078E+01
12.000000 40.000000 3.941448E+01
12.000000 38.000000 2.638329E+01
12.000000 36.000000 1.756216E+01
12.000000 34.000000 1.415276E+01
12.000000 32.000000 1.878056E+01
12.000000 30.000000 2.871936E+01
12.000000 28.000000 4.634518E+01
12.000000 26.000000 5.999191E+01
12.000000 24.000000 5.953889E+01
12.000000 22.000000 2.872739E+01
12.000000 20.000000 -3.447842E+00
12.000000 18.000000 -7.256269E-01
12.000000 16.000000 2.533083E+01
12.000000 14.000000 2.771779E+01
12.000000 12.000000 -2.398782E+01
12.000000 10.000000 -1.016900E+02
12.000000 8.000000 -1.589629E+02
12.000000 6.000000 -1.719308E+02
12.000000 4.000000 -1.227915E+02
12.000000 2.000000 -4.679400E+01
12.000000 0.000000 1.887700E+01
12.000000 -2.000000 5.681301E+01
12.000000 -4.000000 6.786109E+01
12.000000 -6.000000 5.865219E+01
12.000000 -8.000000 4.183924E+01
12.000000 -10.000000 2.981998E+01
12.000000 -12.000000 3.519686E+01
12.000000 -14.000000 4.069794E+01
12.000000 -16.000000 2.713532E+01
12.000000 -18.000000 -3.386424E+00
12.000000 -20.000000 -3.297174E+01
12.000000 -22.000000 -5.257393E+01
12.000000 -24.000000 -5.251260E+01
12.000000 -26.000000 -3.891603E+01
12.000000 -28.000000 -3.143812E+01
12.000000 -30.000000 -3.674811E+01
12.000000 -32.000000 -5.277349E+01
12.000000 -34.000000 -6.768964E+01
12.000000 -36.000000 -7.336495E+01
12.000000 -38.000000 -7.124817E+01
12.000000 -40.000000 -7.311708E+01
14.000000 40.000000 4.694791E+01
14.000000 38.000000 3.073602E+01
14.000000 36.000000 1.762235E+01
14.000000 34.000000 9.099185E+00
14.000000 32.000000 8.119270E+00
14.000000 30.000000 8.868124E+00
14.000000 28.000000 9.803770E+00
14.000000 26.000000 8.799901E+00
14.000000 24.000000 2.050089E+00
14.000000 22.000000 5.877218E+00
14.000000 20.000000 1.828262E+01
14.000000 18.000000 4.087568E+01
14.000000 16.000000 5.316440E+01
14.000000 14.000000 3.935016E+01
14.000000 12.000000 -1.470356E+01
14.000000 10.000000 -8.660616E+01
14.000000 8.000000 -1.429644E+02
14.000000 6.000000 -1.630764E+02
14.000000 4.000000 -1.314273E+02
14.000000 2.000000 -7.006105E+01
14.000000 0.000000 -7.774745E+00
14.000000 -2.000000 3.836618E+01
14.000000 -4.000000 6.207885E+01
14.000000 -6.000000 6.504374E+01
14.000000 -8.000000 6.015702E+01
14.000000 -10.000000 6.194435E+01
14.000000 -12.000000 7.520576E+01
14.000000 -14.000000 8.169335E+01
14.000000 -16.000000 6.200110E+01
14.000000 -18.000000 2.103665E+01
14.000000 -20.000000 -1.965748E+01
14.000000 -22.000000 -4.355586E+01
14.000000 -24.000000 -4.445569E+01
14.000000 -26.000000 -3.268947E+01
14.000000 -28.000000 -2.753322E+01
14.000000 -30.000000 -3.324512E+01
14.000000 -32.000000 -4.896238E+01
14.000000 -34.000000 -6.442294E+01
14.000000 -36.000000 -7.087248E+01
14.000000 -38.000000 -6.916175E+01
14.000000 -40.000000 -7.073051E+01
16.000000 40.000000 5.169260E+01
16.000000 38.000000 3.320653E+01
16.000000 36.000000 1.650104E+01
16.000000 34.000000 2.823524E+00
16.000000 32.000000 -2.473199E+00
16.000000 30.000000 -5.211309E+00
16.000000 28.000000 -8.855238E+00
16.000000 26.000000 -1.301310E+01
16.000000 24.000000 -2.176349E+01
16.000000 22.000000 -1.119394E+01
16.000000 20.000000 1.061313E+01
16.000000 18.000000 3.620051E+01
16.000000 16.000000 4.440215E+01
16.000000 14.000000 2.810352E+01
16.000000 12.000000 -1.829305E+01
16.000000 10.000000 -7.948495E+01
16.000000 8.000000 -1.325487E+02
16.000000 6.000000 -1.581803E+02
16.000000 4.000000 -1.428754E+02
16.000000 2.000000 -9.687091E+01
16.000000 0.000000 -4.029555E+01
16.000000 -2.000000 1.193900E+01
16.000000 -4.000000 4.785537E+01
16.000000 -6.000000 6.386618E+01
16.000000 -8.000000 7.120814E+01
16.000000 -10.000000 8.593907E+01
16.000000 -12.000000 1.114672E+02
16.000000 -14.000000 1.243195E+02
16.000000 -16.000000 1.013626E+02
16.000000 -18.000000 5.009552E+01
16.000000 -20.000000 -1.391163E+00
16.000000 -22.000000 -3.111947E+01
16.000000 -24.000000 -3.470766E+01
16.000000 -26.000000 -2.373019E+01
16.000000 -28.000000 -1.847713E+01
16.000000 -30.000000 -2.289790E+01
16.000000 -32.000000 -3.706473E+01
16.000000 -34.000000 -5.370822E+01
16.000000 -36.000000 -6.277097E+01
16.000000 -38.000000 -6.307374E+01
16.000000 -40.000000 -6.716658E+01
18.000000 40.000000 5.664080E+01
18.000000 38.000000 3.562117E+01
18.000000 36.000000 1.495512E+01
18.000000 34.000000 -3.659876E+00
18.000000 32.000000 -1.153584E+01
18.000000 30.000000 -1.398811E+01
18.000000 28.000000 -1.632469E+01
18.000000 26.000000 -2.109817E+01
18.000000 24.000000 -3.239829E+01
18.000000 22.000000 -2.806018E+01
18.000000 20.000000 -1.258233E+01
18.000000 18.000000 7.960659E+00
18.000000 16.000000 1.569202E+01
18.000000 14.000000 3.516069E+00
18.000000 12.000000 -3.216022E+01
18.000000 10.000000 -8.243253E+01
18.000000 8.000000 -1.318296E+02
18.000000 6.000000 -1.621616E+02
18.000000 4.000000 -1.592488E+02
18.000000 2.000000 -1.238382E+02
18.000000 0.000000 -7.029566E+01
18.000000 -2.000000 -1.132977E+01
18.000000 -4.000000 3.661866E+01
18.000000 -6.000000 6.348390E+01
18.000000 -8.000000 7.974506E+01
18.000000 -10.000000 1.041907E+02
18.000000 -12.000000 1.426324E+02
18.000000 -14.000000 1.640705E+02
18.000000 -16.000000 1.409226E+02
18.000000 -18.000000 8.079324E+01
18.000000 -20.000000 1.869509E+01
18.000000 -22.000000 -1.890368E+01
18.000000 -24.000000 -2.737397E+01
18.000000 -26.000000 -1.807231E+01
18.000000 -28.000000 -9.492399E+00
18.000000 -30.000000 -7.882163E+00
18.000000 -32.000000 -1.755656E+01
18.000000 -34.000000 -3.483438E+01
18.000000 -36.000000 -4.878820E+01
18.000000 -38.000000 -5.465693E+01
18.000000 -40.000000 -6.436224E+01
20.000000 40.000000 6.522968E+01
20.000000 38.000000 4.077743E+01
20.000000 36.000000 1.442029E+01
20.000000 34.000000 -1.061617E+01
20.000000 32.000000 -2.166082E+01
20.000000 30.000000 -2.385775E+01
20.000000 28.000000 -2.525534E+01
20.000000 26.000000 -3.104432E+01
20.000000 24.000000 -4.482310E+01
20.000000 22.000000 -4.573769E+01
20.000000 20.000000 -3.568540E+01
20.000000 18.000000 -1.894106E+01
20.000000 16.000000 -1.204945E+01
20.000000 14.000000 -2.137604E+01
20.000000 12.000000 -4.940509E+01
20.000000 10.000000 -9.317090E+01
20.000000 8.000000 -1.415229E+02
20.000000 6.000000 -1.768257E+02
20.000000 4.000000 -1.819821E+02
20.000000 2.000000 -1.497688E+02
20.000000 0.000000 -9.227995E+01
20.000000 -2.000000 -2.153977E+01
20.000000 -4.000000 4.083181E+01
20.000000 -6.000000 7.698489E+01
20.000000 -8.000000 9.503715E+01
20.000000 -10.000000 1.220453E+02
20.000000 -12.000000 1.699973E+02
20.000000 -14.000000 1.988624E+02
20.000000 -16.000000 1.750756E+02
20.000000 -18.000000 1.065734E+02
20.000000 -20.000000 3.543407E+01
20.000000 -22.000000 -9.555772E+00
20.000000 -24.000000 -2.323555E+01
20.000000 -26.000000 -1.577535E+01
20.000000 -28.000000 -2.649524E+00
20.000000 -30.000000 6.992074E+00
20.000000 -32.000000 3.468552E+00
20.000000 -34.000000 -1.413234E+01
20.000000 -36.000000 -3.326439E+01
20.000000 -38.000000 -4.548521E+01
20.000000 -40.000000 -6.221548E+01
22.000000 40.000000 7.806509E+01
22.000000 38.000000 4.973758E+01
22.000000 36.000000 1.560137E+01
22.000000 34.000000 -1.860580E+01
22.000000 32.000000 -3.398355E+01
22.000000 30.000000 -3.615901E+01
22.000000 28.000000 -3.779582E+01
22.000000 26.000000 -4.474473E+01
22.000000 24.000000 -5.919893E+01
22.000000 22.000000 -5.900838E+01
22.000000 20.000000 -4.917283E+01
22.000000 18.000000 -3.333353E+01
22.000000 16.000000 -2.850217E+01
22.000000 14.000000 -3.946062E+01
22.000000 12.000000 -6.713306E+01
22.000000 10.000000 -1.086801E+02
22.000000 8.000000 -1.550151E+02
22.000000 6.000000 -1.938218E+02
22.000000 4.000000 -2.021361E+02
22.000000 2.000000 -1.683362E+02
22.000000 0.000000 -1.032682E+02
22.000000 -2.000000 -1.812775E+01
22.000000 -4.000000 6.004344E+01
22.000000 -6.000000 1.077464E+02
22.000000 -8.000000 1.259706E+02
22.000000 -10.000000 1.493031E+02
22.000000 -12.000000 1.926867E+02
22.000000 -14.000000 2.209984E+02
22.000000 -16.000000 1.951362E+02
22.000000 -18.000000 1.222124E+02
22.000000 -20.000000 4.682366E+01
22.000000 -22.000000 -2.414821E+00
22.000000 -24.000000 -1.993093E+01
22.000000 -26.000000 -1.336610E+01
22.000000 -28.000000 1.978406E+00
22.000000 -30.000000 1.527232E+01
22.000000 -32.000000 1.516370E+01
22.000000 -34.000000 -2.277233E+00
22.000000 -36.000000 -2.364217E+01
22.000000 -38.000000 -3.822401E+01
22.000000 -40.000000 -5.850724E+01
24.000000 40.000000 9.146172E+01
24.000000 38.000000 5.958015E+01
24.000000 36.000000 1.750235E+01
24.000000 34.000000 -2.638186E+01
24.000000 32.000000 -4.627401E+01
24.000000 30.000000 -4.836970E+01
24.000000 28.000000 -4.696502E+01
24.000000 26.000000 -4.989154E+01
24.000000 24.000000 -5.991734E+01
24.000000 22.000000 -5.495782E+01
24.000000 20.000000 -4.560993E+01
24.000000 18.000000 -3.433169E+01
24.000000 16.000000 -3.604309E+01
24.000000 14.000000 -5.014186E+01
24.000000 12.000000 -7.623832E+01
24.000000 10.000000 -1.128664E+02
24.000000 8.000000 -1.554125E+02
24.000000 6.000000 -1.946548E+02
24.000000 4.000000 -2.032370E+02
24.000000 2.000000 -1.674564E+02
24.000000 0.000000 -9.682971E+01
24.000000 -2.000000 -3.877145E+00
24.000000 -4.000000 8.207205E+01
24.000000 -6.000000 1.356583E+02
24.000000 -8.000000 1.526523E+02
24.000000 -10.000000 1.679073E+02
24.000000 -12.000000 1.946824E+02
24.000000 -14.000000 2.152097E+02
24.000000 -16.000000 1.922472E+02
24.000000 -18.000000 1.272131E+02
24.000000 -20.000000 5.578595E+01
24.000000 -22.000000 5.513770E+00
24.000000 -24.000000 -1.476162E+01
24.000000 -26.000000 -9.721740E+00
24.000000 -28.000000 3.792867E+00
24.000000 -30.000000 1.414371E+01
24.000000 -32.000000 1.316191E+01
24.000000 -34.000000 -1.807588E+00
24.000000 -36.000000 -2.073225E+01
24.000000 -38.000000 -3.443386E+01
24.000000 -40.000000 -5.364351E+01
26.000000 40.000000 1.003305E+02
26.000000 38.000000 6.746589E+01
26.000000 36.000000 2.160961E+01
26.000000 34.000000 -2.902969E+01
26.000000 32.000000 -5.456694E+01
26.000000 30.000000 -5.696882E+01
26.000000 28.000000 -4.659999E+01
26.000000 26.000000 -3.581536E+01
26.000000 24.000000 -2.981677E+01
26.000000 22.000000 -2.088358E+01
26.000000 20.000000 -2.073447E+01
26.000000 18.000000 -2.698565E+01
26.000000 16.000000 -4.150080E+01
26.000000 14.000000 -5.668886E+01
26.000000 12.000000 -7.373483E+01
26.000000 10.000000 -9.814399E+01
26.000000 8.000000 -1.333774E+02
26.000000 6.000000 -1.681098E+02
26.000000 4.000000 -1.768050E+02
26.000000 2.000000 -1.433201E+02
26.000000 0.000000 -7.482693E+01
26.000000 -2.000000 1.316496E+01
26.000000 -4.000000 9.353036E+01
26.000000 -6.000000 1.422174E+02
26.000000 -8.000000 1.516910E+02
26.000000 -10.000000 1.521282E+02
26.000000 -12.000000 1.647446E+02
26.000000 -14.000000 1.821938E+02
26.000000 -16.000000 1.704081E+02
26.000000 -18.000000 1.224137E+02
26.000000 -20.000000 6.326861E+01
26.000000 -22.000000 1.594282E+01
26.000000 -24.000000 -6.656438E+00
26.000000 -26.000000 -4.897811E+00
26.000000 -28.000000 2.902249E+00
26.000000 -30.000000 5.929611E+00
26.000000 -32.000000 2.037022E+00
26.000000 -34.000000 -9.506228E+00
26.000000 -36.000000 -2.240135E+01
26.000000 -38.000000 -3.247470E+01
26.000000 -40.000000 -4.875754E+01
28.000000 40.000000 1.043646E+02
28.000000 38.000000 7.433839E+01
28.000000 36.000000 2.976271E+01
28.000000 34.000000 -2.440724E+01
28.000000 32.000000 -5.495623E+01
28.000000 30.000000 -5.588386E+01
28.000000 28.000000 -3.377111E+01
28.000000 26.000000 -2.495956E+00
28.000000 24.000000 2.997948E+01
28.000000 22.000000 3.730596E+01
28.000000 20.000000 1.829983E+01
28.000000 18.000000 -1.803640E+01
28.000000 16.000000 -4.893372E+01
28.000000 14.000000 -6.364465E+01
28.000000 12.000000 -7.249285E+01
28.000000 10.000000 -8.265808E+01
28.000000 8.000000 -1.036155E+02
28.000000 6.000000 -1.262464E+02
28.000000 4.000000 -1.325928E+02
28.000000 2.000000 -1.070901E+02
28.000000 0.000000 -5.128847E+01
28.000000 -2.000000 2.167428E+01
28.000000 -4.000000 8.862756E+01
28.000000 -6.000000 1.293990E+02
28.000000 -8.000000 1.331509E+02
28.000000 -10.000000 1.190839E+02
28.000000 -12.000000 1.209039E+02
28.000000 -14.000000 1.386162E+02
28.000000 -16.000000 1.401949E+02
28.000000 -18.000000 1.114904E+02
28.000000 -20.000000 6.970729E+01
28.000000 -22.000000 2.973659E+01
28.000000 -24.000000 4.864654E+00
28.000000 -26.000000 2.847941E-01
28.000000 -28.000000 -5.421550E-01
28.000000 -30.000000 -6.190122E+00
28.000000 -32.000000 -1.345502E+01
28.000000 -34.000000 -2.194844E+01
28.000000 -36.000000 -2.768611E+01
28.000000 -38.000000 -3.145603E+01
28.000000 -40.000000 -4.289765E+01
30.000000 40.000000 1.081849E+02
30.000000 38.000000 8.112353E+01
30.000000 36.000000 3.873749E+01
30.000000 34.000000 -1.572993E+01
30.000000 32.000000 -4.709957E+01
30.000000 30.000000 -4.396419E+01
30.000000 28.000000 -1.097752E+01
30.000000 26.000000 4.062159E+01
30.000000 24.000000 9.893319E+01
30.000000 22.000000 9.841800E+01
30.000000 20.000000 5.826203E+01
30.000000 18.000000 -8.954998E+00
30.000000 16.000000 -5.718423E+01
30.000000 14.000000 -7.279934E+01
30.000000 12.000000 -7.843673E+01
30.000000 10.000000 -8.075161E+01
30.000000 8.000000 -8.796520E+01
30.000000 6.000000 -9.552564E+01
30.000000 4.000000 -9.490164E+01
30.000000 2.000000 -7.608156E+01
30.000000 0.000000 -3.657682E+01
30.000000 -2.000000 1.757010E+01
30.000000 -4.000000 6.998085E+01
30.000000 -6.000000 1.062978E+02
30.000000 -8.000000 1.143558E+02
30.000000 -10.000000 1.015996E+02
30.000000 -12.000000 9.815718E+01
30.000000 -14.000000 1.102238E+02
30.000000 -16.000000 1.159660E+02
30.000000 -18.000000 1.011372E+02
30.000000 -20.000000 7.454981E+01
30.000000 -22.000000 4.406763E+01
30.000000 -24.000000 1.790283E+01
30.000000 -26.000000 3.620184E+00
30.000000 -28.000000 -6.736999E+00
30.000000 -30.000000 -1.897850E+01
30.000000 -32.000000 -2.852946E+01
30.000000 -34.000000 -3.411285E+01
30.000000 -36.000000 -3.352600E+01
30.000000 -38.000000 -3.056937E+01
30.000000 -40.000000 -3.630925E+01
32.000000 40.000000 1.143024E+02
32.000000 38.000000 8.828285E+01
32.000000 36.000000 4.839200E+01
32.000000 34.000000 -1.484638E+00
32.000000 32.000000 -2.976588E+01
32.000000 30.000000 -2.216959E+01
32.000000 28.000000 1.862786E+01
32.000000 26.000000 7.712211E+01
32.000000 24.000000 1.402557E+02
32.000000 22.000000 1.316192E+02
32.000000 20.000000 7.905098E+01
32.000000 18.000000 1.870926E+00
32.000000 16.000000 -5.274531E+01
32.000000 14.000000 -7.606809E+01
32.000000 12.000000 -8.865578E+01
32.000000 10.000000 -9.565433E+01
32.000000 8.000000 -9.551433E+01
32.000000 6.000000 -8.905172E+01
32.000000 4.000000 -7.691105E+01
32.000000 2.000000 -5.883504E+01
32.000000 0.000000 -3.091932E+01
32.000000 -2.000000 6.611114E+00
32.000000 -4.000000 4.657050E+01
32.000000 -6.000000 8.404830E+01
32.000000 -8.000000 1.052280E+02
32.000000 -10.000000 1.101309E+02
32.000000 -12.000000 1.090508E+02
32.000000 -14.000000 1.101200E+02
32.000000 -16.000000 1.063404E+02
32.000000 -18.000000 9.427548E+01
32.000000 -20.000000 7.747684E+01
32.000000 -22.000000 5.499167E+01
32.000000 -24.000000 2.902499E+01
32.000000 -26.000000 6.839654E+00
32.000000 -28.000000 -1.090525E+01
32.000000 -30.000000 -2.705148E+01
32.000000 -32.000000 -3.731114E+01
32.000000 -34.000000 -4.134404E+01
32.000000 -36.000000 -3.649279E+01
32.000000 -38.000000 -2.809903E+01
32.000000 -40.000000 -3.071758E+01
34.000000 40.000000 1.212264E+02
34.000000 38.000000 9.818663E+01
34.000000 36.000000 6.374720E+01
34.000000 34.000000 2.099697E+01
34.000000 32.000000 -3.978783E+00
34.000000 30.000000 4.992342E+00
34.000000 28.000000 4.451388E+01
34.000000 26.000000 9.086062E+01
34.000000 24.000000 1.358080E+02
34.000000 22.000000 1.251542E+02
34.000000 20.000000 7.802263E+01
34.000000 18.000000 1.642632E+01
34.000000 16.000000 -3.073561E+01
34.000000 14.000000 -6.518789E+01
34.000000 12.000000 -9.607601E+01
34.000000 10.000000 -1.171785E+02
34.000000 8.000000 -1.125968E+02
34.000000 6.000000 -9.381897E+01
34.000000 4.000000 -6.834945E+01
34.000000 2.000000 -4.936917E+01
34.000000 0.000000 -2.886786E+01
34.000000 -2.000000 -3.926186E+00
34.000000 -4.000000 2.659782E+01
34.000000 -6.000000 6.626355E+01
34.000000 -8.000000 9.871310E+01
34.000000 -10.000000 1.197272E+02
34.000000 -12.000000 1.242650E+02
34.000000 -14.000000 1.204662E+02
34.000000 -16.000000 1.081920E+02
34.000000 -18.000000 9.373352E+01
34.000000 -20.000000 8.130624E+01
34.000000 -22.000000 6.394745E+01
34.000000 -24.000000 3.906352E+01
34.000000 -26.000000 1.402317E+01
34.000000 -28.000000 -6.349155E+00
34.000000 -30.000000 -2.435316E+01
34.000000 -32.000000 -3.531156E+01
34.000000 -34.000000 -3.972802E+01
34.000000 -36.000000 -3.460340E+01
34.000000 -38.000000 -2.498456E+01
34.000000 -40.000000 -2.724918E+01
36.000000 40.000000 1.277318E+02
36.000000 38.000000 1.097909E+02
36.000000 36.000000 8.176464E+01
36.000000 34.000000 4.427312E+01
36.000000 32.000000 2.016662E+01
36.000000 30.000000 2.571800E+01
36.000000 28.000000 5.523042E+01
36.000000 26.000000 8.537558E+01
36.000000 24.000000 1.113062E+02
36.000000 22.000000 1.029385E+02
36.000000 20.000000 7.243547E+01
36.000000 18.000000 3.579522E+01
36.000000 16.000000 2.325764E-01
36.000000 14.000000 -4.047967E+01
36.000000 12.000000 -8.718176E+01
36.000000 10.000000 -1.218874E+02
36.000000 8.000000 -1.188358E+02
36.000000 6.000000 -9.536804E+01
36.000000 4.000000 -6.324136E+01
36.000000 2.000000 -4.489572E+01
36.000000 0.000000 -3.070953E+01
36.000000 -2.000000 -1.447325E+01
36.000000 -4.000000 9.583745E+00
36.000000 -6.000000 4.680332E+01
36.000000 -8.000000 8.326589E+01
36.000000 -10.000000 1.121246E+02
36.000000 -12.000000 1.242942E+02
36.000000 -14.000000 1.238923E+02
36.000000 -16.000000 1.122961E+02
36.000000 -18.000000 9.779633E+01
36.000000 -20.000000 8.520232E+01
36.000000 -22.000000 7.028830E+01
36.000000 -24.000000 4.766021E+01
36.000000 -26.000000 2.445889E+01
36.000000 -28.000000 5.619191E+00
36.000000 -30.000000 -1.184857E+01
36.000000 -32.000000 -2.315811E+01
36.000000 -34.000000 -2.836665E+01
36.000000 -36.000000 -2.686988E+01
36.000000 -38.000000 -2.187770E+01
36.000000 -40.000000 -2.533625E+01
38.000000 40.000000 1.329420E+02
38.000000 38.000000 1.195779E+02
38.000000 36.000000 9.618271E+01
38.000000 34.000000 6.200964E+01
38.000000 32.000000 3.682968E+01
38.000000 30.000000 3.499128E+01
38.000000 28.000000 5.159564E+01
38.000000 26.000000 7.017071E+01
38.000000 24.000000 8.450006E+01
38.000000 22.000000 8.212897E+01
38.000000 20.000000 7.136455E+01
38.000000 18.000000 5.762089E+01
38.000000 16.000000 3.225444E+01
38.000000 14.000000 -8.510248E+00
38.000000 12.000000 -5.935586E+01
38.000000 10.000000 -9.980991E+01
38.000000 8.000000 -1.039507E+02
38.000000 6.000000 -8.617795E+01
38.000000 4.000000 -5.806865E+01
38.000000 2.000000 -4.166313E+01
38.000000 0.000000 -3.335963E+01
38.000000 -2.000000 -2.279577E+01
38.000000 -4.000000 -3.031658E+00
38.000000 -6.000000 2.944928E+01
38.000000 -8.000000 6.403108E+01
38.000000 -10.000000 9.322895E+01
38.000000 -12.000000 1.112264E+02
38.000000 -14.000000 1.174570E+02
38.000000 -16.000000 1.122007E+02
38.000000 -18.000000 1.004541E+02
38.000000 -20.000000 8.688673E+01
38.000000 -22.000000 7.202090E+01
38.000000 -24.000000 5.113131E+01
38.000000 -26.000000 3.197870E+01
38.000000 -28.000000 1.708998E+01
38.000000 -30.000000 2.743248E+00
38.000000 -32.000000 -6.809167E+00
38.000000 -34.000000 -1.240322E+01
38.000000 -36.000000 -1.534109E+01
38.000000 -38.000000 -1.669318E+01
38.000000 -40.000000 -2.257517E+01
40.000000 40.000000 1.350385E+02
40.000000 38.000000 1.254031E+02
40.000000 36.000000 1.059416E+02
40.000000 34.000000 7.459328E+01
40.000000 32.000000 4.718336E+01
40.000000 30.000000 3.659202E+01
40.000000 28.000000 4.059027E+01
40.000000 26.000000 4.873067E+01
40.000000 24.000000 5.549590E+01
40.000000 22.000000 6.132715E+01
40.000000 20.000000 6.818551E+01
40.000000 18.000000 7.209171E+01
40.000000 16.000000 5.652033E+01
40.000000 14.000000 2.085863E+01
40.000000 12.000000 -2.656658E+01
40.000000 10.000000 -6.522011E+01
40.000000 8.000000 -7.314747E+01
40.000000 6.000000 -6.086522E+01
40.000000 4.000000 -3.997893E+01
40.000000 2.000000 -2.898367E+01
40.000000 0.000000 -2.661974E+01
40.000000 -2.000000 -1.948129E+01
40.000000 -4.000000 -1.578716E+00
40.000000 -6.000000 2.643958E+01
40.000000 -8.000000 5.308052E+01
40.000000 -10.000000 7.448341E+01
40.000000 -12.000000 9.244374E+01
40.000000 -14.000000 1.043079E+02
40.000000 -16.000000 1.070952E+02
40.000000 -18.000000 9.968955E+01
40.000000 -20.000000 8.520117E+01
40.000000 -22.000000 6.731136E+01
40.000000 -24.000000 4.572886E+01
40.000000 -26.000000 3.047925E+01
40.000000 -28.000000 2.108664E+01
40.000000 -30.000000 1.202324E+01
40.000000 -32.000000 6.386598E+00
40.000000 -34.000000 1.721415E+00
