-24.000000 18.000000 1.431093E+01
-24.000000 16.000000 -2.840122E+00
-24.000000 14.000000 -6.455341E+00
-24.000000 12.000000 1.500346E+01
-24.000000 10.000000 3.675802E+01
-24.000000 8.000000 2.727961E+01
-24.000000 6.000000 1.922396E+01
-24.000000 4.000000 2.667210E+01
-24.000000 2.000000 1.897545E+01
-24.000000 0.000000 3.890430E+00
-24.000000 -2.000000 1.344269E+01
-24.000000 -4.000000 3.458308E+01
-24.000000 -6.000000 4.317353E+01
-24.000000 -8.000000 2.638702E+01
-24.000000 -10.000000 8.849801E+00
-24.000000 -12.000000 1.800040E+01
-24.000000 -14.000000 3.085195E+01
-24.000000 -16.000000 3.214317E+01
-24.000000 -18.000000 2.483441E+01
-24.000000 -20.000000 4.831879E+00
-24.000000 -22.000000 -5.148609E+00
-24.000000 -24.000000 1.946423E+01
-24.000000 -26.000000 3.874763E+01
-24.000000 -28.000000 2.553043E+01
-24.000000 -30.000000 1.978951E+00
-24.000000 -32.000000 -2.906787E+00
-24.000000 -34.000000 1.412820E+01
-24.000000 -36.000000 2.850063E+01
-24.000000 -38.000000 3.666607E+01
-24.000000 -40.000000 5.314302E+01
-22.000000 40.000000 4.775900E+01
-22.000000 38.000000 6.901552E+01
-22.000000 36.000000 7.308527E+01
-22.000000 34.000000 6.238784E+01
-22.000000 32.000000 4.900296E+01
-22.000000 30.000000 6.521421E+01
-22.000000 28.000000 1.028440E+02
-22.000000 26.000000 1.367977E+02
-22.000000 24.000000 1.047900E+02
-22.000000 22.000000 3.474555E+01
-22.000000 20.000000 9.899143E+00
-22.000000 18.000000 -2.217789E-01
-22.000000 16.000000 -2.449488E+01
-22.000000 14.000000 -3.984222E+01
-22.000000 12.000000 -2.339605E+01
-22.000000 10.000000 -2.168465E-01
-22.000000 8.000000 3.571850E+00
-22.000000 6.000000 4.427818E+00
-22.000000 4.000000 2.140409E+01
-22.000000 2.000000 1.600125E+01
-22.000000 0.000000 4.561577E-01
-22.000000 -2.000000 7.062733E+00
-22.000000 -4.000000 2.926904E+01
-22.000000 -6.000000 4.374177E+01
-22.000000 -8.000000 3.254835E+01
-22.000000 -10.000000 1.839546E+01
-22.000000 -12.000000 2.421505E+01
-22.000000 -14.000000 3.520513E+01
-22.000000 -16.000000 3.558966E+01
-22.000000 -18.000000 2.563769E+01
-22.000000 -20.000000 5.237874E+00
-22.000000 -22.000000 -3.027106E+00
-22.000000 -24.000000 1.617635E+01
-22.000000 -26.000000 2.900426E+01
-22.000000 -28.000000 1.320890E+01
-22.000000 -30.000000 -1.131934E+01
-22.000000 -32.000000 -2.097477E+01
-22.000000 -34.000000 -1.124567E+01
-22.000000 -36.000000 4.345242E+00
-22.000000 -38.000000 2.194254E+01
-22.000000 -40.000000 4.880580E+01
-20.000000 40.000000 3.507906E+01
-20.000000 38.000000 6.013184E+01
-20.000000 36.000000 6.900085E+01
-20.000000 34.000000 6.476835E+01
-20.000000 32.000000 5.653913E+01
-20.000000 30.000000 7.428259E+01
-20.000000 28.000000 1.079784E+02
-20.000000 26.000000 1.398571E+02
-20.000000 24.000000 9.524920E+01
-20.000000 22.000000 1.424432E+01
-20.000000 20.000000 9.227177E+00
-20.000000 18.000000 4.897419E+01
-20.000000 16.000000 5.004030E+01
-20.000000 14.000000 1.736193E+01
-20.000000 12.000000 2.137192E+00
-20.000000 10.000000 -2.514076E+00
-20.000000 8.000000 -5.352497E+00
-20.000000 6.000000 -4.112286E+00
-20.000000 4.000000 1.648334E+01
-20.000000 2.000000 1.673293E+01
-20.000000 0.000000 3.404587E+00
-20.000000 -2.000000 5.059971E+00
-20.000000 -4.000000 2.252646E+01
-20.000000 -6.000000 3.401593E+01
-20.000000 -8.000000 2.135317E+01
-20.000000 -10.000000 5.279394E+00
-20.000000 -12.000000 6.431972E+00
-20.000000 -14.000000 1.420905E+01
-20.000000 -16.000000 1.364522E+01
-20.000000 -18.000000 5.243082E+00
-20.000000 -20.000000 -1.035387E+01
-20.000000 -22.000000 -1.221404E+01
-20.000000 -24.000000 8.323178E+00
-20.000000 -26.000000 2.081408E+01
-20.000000 -28.000000 6.682417E+00
-20.000000 -30.000000 -1.950981E+01
-20.000000 -32.000000 -3.979921E+01
-20.000000 -34.000000 -4.192125E+01
-20.000000 -36.000000 -2.329809E+01
-20.000000 -38.000000 9.658318E+00
-20.000000 -40.000000 5.008128E+01
-18.000000 40.000000 2.012640E+01
-18.000000 38.000000 4.661193E+01
-18.000000 36.000000 5.911182E+01
-18.000000 34.000000 6.151210E+01
-18.000000 32.000000 5.811953E+01
-18.000000 30.000000 7.914498E+01
-18.000000 28.000000 1.063908E+02
-18.000000 26.000000 1.168657E+02
-18.000000 24.000000 3.476020E+01
-18.000000 22.000000 -6.282745E+01
-18.000000 20.000000 -2.053488E+01
-18.000000 18.000000 1.533025E+02
-18.000000 16.000000 2.156468E+02
-18.000000 14.000000 1.678216E+02
-18.000000 12.000000 1.071966E+02
-18.000000 10.000000 6.204665E+01
-18.000000 8.000000 2.905684E+01
-18.000000 6.000000 1.316493E+01
-18.000000 4.000000 2.506936E+01
-18.000000 2.000000 2.575476E+01
-18.000000 0.000000 1.221642E+01
-18.000000 -2.000000 6.583256E+00
-18.000000 -4.000000 1.508796E+01
-18.000000 -6.000000 1.857186E+01
-18.000000 -8.000000 -1.555384E+00
-18.000000 -10.000000 -2.578945E+01
-18.000000 -12.000000 -2.666202E+01
-18.000000 -14.000000 -2.159902E+01
-18.000000 -16.000000 -2.314134E+01
-18.000000 -18.000000 -2.742662E+01
-18.000000 -20.000000 -3.896081E+01
-18.000000 -22.000000 -3.410049E+01
-18.000000 -24.000000 -5.650701E+00
-18.000000 -26.000000 1.179451E+01
-18.000000 -28.000000 2.430850E+00
-18.000000 -30.000000 -2.484607E+01
-18.000000 -32.000000 -5.125875E+01
-18.000000 -34.000000 -6.032525E+01
-18.000000 -36.000000 -3.890636E+01
-18.000000 -38.000000 4.222946E+00
-18.000000 -40.000000 5.303477E+01
-16.000000 40.000000 6.530891E+00
-16.000000 38.000000 3.270875E+01
-16.000000 36.000000 4.760214E+01
-16.000000 34.000000 5.290380E+01
-16.000000 32.000000 4.931269E+01
-16.000000 30.000000 7.063861E+01
-16.000000 28.000000 9.646945E+01
-16.000000 26.000000 8.872439E+01
-16.000000 24.000000 -3.763046E+01
-16.000000 22.000000 -1.719613E+02
-16.000000 20.000000 -9.713130E+01
-16.000000 18.000000 2.770258E+02
-16.000000 16.000000 3.872702E+02
-16.000000 14.000000 3.162667E+02
-16.000000 12.000000 2.293571E+02
-16.000000 10.000000 1.681113E+02
-16.000000 8.000000 1.011700E+02
-16.000000 6.000000 5.558214E+01
-16.000000 4.000000 4.835608E+01
-16.000000 2.000000 4.014844E+01
-16.000000 0.000000 1.975603E+01
-16.000000 -2.000000 4.890404E+00
-16.000000 -4.000000 2.698322E+00
-16.000000 -6.000000 -3.949558E+00
-16.000000 -8.000000 -2.918913E+01
-16.000000 -10.000000 -5.549514E+01
-16.000000 -12.000000 -4.909283E+01
-16.000000 -14.000000 -3.860965E+01
-16.000000 -16.000000 -3.888474E+01
-16.000000 -18.000000 -4.443554E+01
-16.000000 -20.000000 -5.451033E+01
-16.000000 -22.000000 -4.712277E+01
-16.000000 -24.000000 -1.623032E+01
-16.000000 -26.000000 4.007422E+00
-16.000000 -28.000000 -2.878555E+00
-16.000000 -30.000000 -2.818684E+01
-16.000000 -32.000000 -5.108295E+01
-16.000000 -34.000000 -5.644060E+01
-16.000000 -36.000000 -3.303709E+01
-16.000000 -38.000000 6.548967E+00
-16.000000 -40.000000 5.047783E+01
-14.000000 40.000000 -2.752571E+00
-14.000000 38.000000 2.170640E+01
-14.000000 36.000000 3.728675E+01
-14.000000 34.000000 4.322049E+01
-14.000000 32.000000 3.655349E+01
-14.000000 30.000000 5.392311E+01
-14.000000 28.000000 8.106733E+01
-14.000000 26.000000 7.271030E+01
-14.000000 24.000000 -6.902164E+01
-14.000000 22.000000 -2.274863E+02
-14.000000 20.000000 -1.533723E+02
-14.000000 18.000000 3.102288E+02
-14.000000 16.000000 4.249041E+02
-14.000000 14.000000 3.468146E+02
-14.000000 12.000000 2.774753E+02
-14.000000 10.000000 2.391308E+02
-14.000000 8.000000 1.691049E+02
-14.000000 6.000000 1.068025E+02
-14.000000 4.000000 7.735244E+01
-14.000000 2.000000 5.472232E+01
-14.000000 0.000000 2.275785E+01
-14.000000 -2.000000 -7.154465E-02
-14.000000 -4.000000 -3.347996E+00
-14.000000 -6.000000 -1.528673E+01
-14.000000 -8.000000 -4.578680E+01
-14.000000 -10.000000 -6.897969E+01
-14.000000 -12.000000 -4.084179E+01
-14.000000 -14.000000 -1.437864E+01
-14.000000 -16.000000 -1.393398E+01
-14.000000 -18.000000 -2.571405E+01
-14.000000 -20.000000 -3.753805E+01
-14.000000 -22.000000 -3.274440E+01
-14.000000 -24.000000 -7.976025E+00
-14.000000 -26.000000 7.433716E+00
-14.000000 -28.000000 -4.522152E-01
-14.000000 -30.000000 -2.523534E+01
-14.000000 -32.000000 -4.106770E+01
-14.000000 -34.000000 -3.512419E+01
-14.000000 -36.000000 -1.382384E+01
-14.000000 -38.000000 1.092598E+01
-14.000000 -40.000000 4.001392E+01
-12.000000 40.000000 -6.513668E+00
-12.000000 38.000000 1.624729E+01
-12.000000 36.000000 2.949636E+01
-12.000000 34.000000 3.446713E+01
-12.000000 32.000000 2.378786E+01
-12.000000 30.000000 3.603560E+01
-12.000000 28.000000 6.420156E+01
-12.000000 26.000000 7.040054E+01
-12.000000 24.000000 -3.462090E+01
-12.000000 22.000000 -1.525223E+02
-12.000000 20.000000 -9.919112E+01
-12.000000 18.000000 1.784691E+02
-12.000000 16.000000 2.659120E+02
-12.000000 14.000000 2.391307E+02
-12.000000 12.000000 2.309299E+02
-12.000000 10.000000 2.393864E+02
-12.000000 8.000000 1.926227E+02
-12.000000 6.000000 1.290743E+02
-12.000000 4.000000 8.549389E+01
-12.000000 2.000000 5.183743E+01
-12.000000 0.000000 1.910435E+01
-12.000000 -2.000000 1.995434E+00
-12.000000 -4.000000 1.166896E+01
-12.000000 -6.000000 8.547596E+00
-12.000000 -8.000000 -2.781959E+01
-12.000000 -10.000000 -4.855991E+01
-12.000000 -12.000000 -1.016423E+01
-12.000000 -14.000000 2.271393E+01
-12.000000 -16.000000 2.268214E+01
-12.000000 -18.000000 7.554838E+00
-12.000000 -20.000000 -6.790483E+00
-12.000000 -22.000000 -5.482916E+00
-12.000000 -24.000000 1.455593E+01
-12.000000 -26.000000 2.558395E+01
-12.000000 -28.000000 1.344001E+01
-12.000000 -30.000000 -1.333389E+01
-12.000000 -32.000000 -2.414926E+01
-12.000000 -34.000000 -1.001978E+01
-12.000000 -36.000000 5.132971E+00
-12.000000 -38.000000 1.427011E+01
-12.000000 -40.000000 2.901761E+01
-10.000000 40.000000 -8.241917E+00
-10.000000 38.000000 1.515041E+01
-10.000000 36.000000 2.533370E+01
-10.000000 34.000000 2.691734E+01
-10.000000 32.000000 1.137746E+01
-10.000000 30.000000 2.079237E+01
-10.000000 28.000000 5.384163E+01
-10.000000 26.000000 8.385612E+01
-10.000000 24.000000 3.522514E+01
-10.000000 22.000000 -4.137737E+01
-10.000000 20.000000 -2.880037E+01
-10.000000 18.000000 4.896644E+01
-10.000000 16.000000 8.414432E+01
-10.000000 14.000000 9.865361E+01
-10.000000 12.000000 1.528248E+02
-10.000000 10.000000 2.026669E+02
-10.000000 8.000000 1.728940E+02
-10.000000 6.000000 1.062226E+02
-10.000000 4.000000 5.361977E+01
-10.000000 2.000000 1.894824E+01
-10.000000 0.000000 -2.439953E+00
-10.000000 -2.000000 2.266727E+00
-10.000000 -4.000000 3.033757E+01
-10.000000 -6.000000 4.054724E+01
-10.000000 -8.000000 9.558126E+00
-10.000000 -10.000000 -7.631603E+00
-10.000000 -12.000000 1.172458E+01
-10.000000 -14.000000 3.481616E+01
-10.000000 -16.000000 3.658945E+01
-10.000000 -18.000000 2.325377E+01
-10.000000 -20.000000 1.048959E+01
-10.000000 -22.000000 1.155968E+01
-10.000000 -24.000000 3.142564E+01
-10.000000 -26.000000 4.501787E+01
-10.000000 -28.000000 2.976514E+01
-10.000000 -30.000000 3.129851E+00
-10.000000 -32.000000 -4.453932E+00
-10.000000 -34.000000 1.002024E+01
-10.000000 -36.000000 1.805338E+01
-10.000000 -38.000000 1.733821E+01
-10.000000 -40.000000 2.398758E+01
-8.000000 40.000000 -1.262298E+01
-8.000000 38.000000 1.205983E+01
-8.000000 36.000000 2.268051E+01
-8.000000 34.000000 2.168934E+01
-8.000000 32.000000 4.797985E+00
-8.000000 30.000000 1.459449E+01
-8.000000 28.000000 5.329361E+01
-8.000000 26.000000 9.694059E+01
-8.000000 24.000000 8.063416E+01
-8.000000 22.000000 2.314187E+01
-8.000000 20.000000 8.766277E+00
-8.000000 18.000000 2.113792E+00
-8.000000 16.000000 1.124271E+00
-8.000000 14.000000 3.217616E+01
-8.000000 12.000000 1.118563E+02
-8.000000 10.000000 1.735228E+02
-8.000000 8.000000 1.440552E+02
-8.000000 6.000000 7.055531E+01
-8.000000 4.000000 1.282835E+01
-8.000000 2.000000 -1.636497E+01
-8.000000 0.000000 -2.770149E+01
-8.000000 -2.000000 -6.664875E+00
-8.000000 -4.000000 3.059325E+01
-8.000000 -6.000000 4.596792E+01
-8.000000 -8.000000 2.496312E+01
-8.000000 -10.000000 9.978615E+00
-8.000000 -12.000000 1.117759E+01
-8.000000 -14.000000 2.216147E+01
-8.000000 -16.000000 2.254533E+01
-8.000000 -18.000000 1.263614E+01
-8.000000 -20.000000 3.213665E+00
-8.000000 -22.000000 6.231531E+00
-8.000000 -24.000000 2.805856E+01
-8.000000 -26.000000 4.811510E+01
-8.000000 -28.000000 3.625819E+01
-8.000000 -30.000000 1.236681E+01
-8.000000 -32.000000 9.677036E+00
-8.000000 -34.000000 2.480391E+01
-8.000000 -36.000000 2.529106E+01
-8.000000 -38.000000 1.786055E+01
-8.000000 -40.000000 2.508711E+01
-6.000000 40.000000 -2.079359E+01
-6.000000 38.000000 3.918060E+00
-6.000000 36.000000 1.945121E+01
-6.000000 34.000000 2.188951E+01
-6.000000 32.000000 7.715546E+00
-6.000000 30.000000 1.584715E+01
-6.000000 28.000000 5.187700E+01
-6.000000 26.000000 9.172440E+01
-6.000000 24.000000 8.057270E+01
-6.000000 22.000000 3.229095E+01
-6.000000 20.000000 1.858598E+01
-6.000000 18.000000 1.042807E+01
-6.000000 16.000000 8.390072E+00
-6.000000 14.000000 4.512517E+01
-6.000000 12.000000 1.177084E+02
-6.000000 10.000000 1.664441E+02
-6.000000 8.000000 1.263591E+02
-6.000000 6.000000 4.936138E+01
-6.000000 4.000000 -3.489330E+00
-6.000000 2.000000 -2.717152E+01
-6.000000 0.000000 -3.275492E+01
-6.000000 -2.000000 -1.044938E+01
-6.000000 -4.000000 2.225672E+01
-6.000000 -6.000000 3.501900E+01
-6.000000 -8.000000 1.995927E+01
-6.000000 -10.000000 3.716221E+00
-6.000000 -12.000000 -1.819050E+00
-6.000000 -14.000000 -2.824533E+00
-6.000000 -16.000000 -6.436026E+00
-6.000000 -18.000000 -1.175537E+01
-6.000000 -20.000000 -1.926810E+01
-6.000000 -22.000000 -1.435354E+01
-6.000000 -24.000000 8.462787E+00
-6.000000 -26.000000 2.939617E+01
-6.000000 -28.000000 2.174925E+01
-6.000000 -30.000000 3.754912E+00
-6.000000 -32.000000 1.181258E+01
-6.000000 -34.000000 3.437880E+01
-6.000000 -36.000000 2.753236E+01
-6.000000 -38.000000 1.570096E+01
-6.000000 -40.000000 2.934669E+01
-4.000000 40.000000 -2.795229E+01
-4.000000 38.000000 -4.329168E+00
-4.000000 36.000000 1.336833E+01
-4.000000 34.000000 2.085402E+01
-4.000000 32.000000 1.120419E+01
-4.000000 30.000000 1.791640E+01
-4.000000 28.000000 4.654853E+01
-4.000000 26.000000 7.424277E+01
-4.000000 24.000000 5.149286E+01
-4.000000 22.000000 5.400223E+00
-4.000000 20.000000 6.148006E+00
-4.000000 18.000000 2.749180E+01
-4.000000 16.000000 4.289443E+01
-4.000000 14.000000 8.347232E+01
-4.000000 12.000000 1.412581E+02
-4.000000 10.000000 1.744366E+02
-4.000000 8.000000 1.244748E+02
-4.000000 6.000000 5.078509E+01
-4.000000 4.000000 2.699608E+00
-4.000000 2.000000 -2.040140E+01
-4.000000 0.000000 -2.043845E+01
-4.000000 -2.000000 5.689468E-01
-4.000000 -4.000000 2.261498E+01
-4.000000 -6.000000 2.812903E+01
-4.000000 -8.000000 1.733741E+01
-4.000000 -10.000000 2.578968E+00
-4.000000 -12.000000 -8.989979E+00
-4.000000 -14.000000 -2.232051E+01
-4.000000 -16.000000 -3.104504E+01
-4.000000 -18.000000 -3.207881E+01
-4.000000 -20.000000 -3.557407E+01
-4.000000 -22.000000 -3.069057E+01
-4.000000 -24.000000 -1.049162E+01
-4.000000 -26.000000 2.448575E+00
-4.000000 -28.000000 -5.490211E+00
-4.000000 -30.000000 -1.647031E+01
-4.000000 -32.000000 2.114484E+00
-4.000000 -34.000000 3.224993E+01
-4.000000 -36.000000 2.537545E+01
-4.000000 -38.000000 1.404246E+01
-4.000000 -40.000000 3.079556E+01
-2.000000 40.000000 -2.845662E+01
-2.000000 38.000000 -9.074606E+00
-2.000000 36.000000 1.851217E+00
-2.000000 34.000000 1.004021E+01
-2.000000 32.000000 6.626471E+00
-2.000000 30.000000 1.890502E+01
-2.000000 28.000000 4.374744E+01
-2.000000 26.000000 5.893030E+01
-2.000000 24.000000 1.647704E+01
-2.000000 22.000000 -3.495568E+01
-2.000000 20.000000 -2.221122E+01
-2.000000 18.000000 2.657042E+01
-2.000000 16.000000 5.962154E+01
-2.000000 14.000000 1.013853E+02
-2.000000 12.000000 1.480503E+02
-2.000000 10.000000 1.744538E+02
-2.000000 8.000000 1.280201E+02
-2.000000 6.000000 6.581716E+01
-2.000000 4.000000 2.394883E+01
-2.000000 2.000000 -7.306442E-01
-2.000000 0.000000 -4.288353E+00
-2.000000 -2.000000 9.893353E+00
-2.000000 -4.000000 2.124656E+01
-2.000000 -6.000000 2.266490E+01
-2.000000 -8.000000 1.853317E+01
-2.000000 -10.000000 1.893938E+01
-2.000000 -12.000000 7.239716E+00
-2.000000 -14.000000 -1.597351E+01
-2.000000 -16.000000 -3.175651E+01
-2.000000 -18.000000 -3.308702E+01
-2.000000 -20.000000 -3.473871E+01
-2.000000 -22.000000 -3.173500E+01
-2.000000 -24.000000 -1.292409E+01
-2.000000 -26.000000 -7.814573E+00
-2.000000 -28.000000 -2.135736E+01
-2.000000 -30.000000 -3.427427E+01
-2.000000 -32.000000 -1.826483E+01
-2.000000 -34.000000 1.283071E+01
-2.000000 -36.000000 1.610367E+01
-2.000000 -38.000000 1.044422E+01
-2.000000 -40.000000 2.698724E+01
0.000000 40.000000 -2.369339E+01
0.000000 38.000000 -9.679092E+00
0.000000 36.000000 -6.417011E+00
0.000000 34.000000 -4.145178E+00
0.000000 32.000000 -7.297989E+00
0.000000 30.000000 1.087127E+01
0.000000 28.000000 3.772073E+01
0.000000 26.000000 4.874305E+01
0.000000 24.000000 -6.988182E-01
0.000000 22.000000 -5.277527E+01
0.000000 20.000000 -4.128406E+01
0.000000 18.000000 7.823967E+00
0.000000 16.000000 4.264038E+01
0.000000 14.000000 8.061520E+01
0.000000 12.000000 1.266840E+02
0.000000 10.000000 1.572798E+02
0.000000 8.000000 1.242657E+02
0.000000 6.000000 7.704930E+01
0.000000 4.000000 5.126852E+01
0.000000 2.000000 2.798216E+01
0.000000 0.000000 1.111515E+01
0.000000 -2.000000 9.635696E+00
0.000000 -4.000000 1.320533E+01
0.000000 -6.000000 1.685036E+01
0.000000 -8.000000 1.877447E+01
0.000000 -10.000000 3.232542E+01
0.000000 -12.000000 3.024951E+01
0.000000 -14.000000 8.039310E+00
0.000000 -16.000000 -1.066193E+01
0.000000 -18.000000 -1.481515E+01
0.000000 -20.000000 -2.035542E+01
0.000000 -22.000000 -1.938616E+01
0.000000 -24.000000 1.841582E+00
0.000000 -26.000000 5.290734E+00
0.000000 -28.000000 -1.869561E+01
0.000000 -30.000000 -4.360898E+01
0.000000 -32.000000 -4.075777E+01
0.000000 -34.000000 -1.292663E+01
0.000000 -36.000000 -9.094329E-01
0.000000 -38.000000 1.308785E+00
0.000000 -40.000000 2.149722E+01
2.000000 40.000000 -1.943011E+01
2.000000 38.000000 -6.461994E+00
2.000000 36.000000 -5.277617E+00
2.000000 34.000000 -1.227777E+01
2.000000 32.000000 -2.370110E+01
2.000000 30.000000 -5.019270E+00
2.000000 28.000000 2.938760E+01
2.000000 26.000000 4.736946E+01
2.000000 24.000000 6.608469E+00
2.000000 22.000000 -4.073754E+01
2.000000 20.000000 -3.709682E+01
2.000000 18.000000 -6.190514E+00
2.000000 16.000000 1.477186E+01
2.000000 14.000000 4.681191E+01
2.000000 12.000000 9.942317E+01
2.000000 10.000000 1.342808E+02
2.000000 8.000000 1.067551E+02
2.000000 6.000000 6.665618E+01
2.000000 4.000000 5.438387E+01
2.000000 2.000000 3.534904E+01
2.000000 0.000000 1.575154E+01
2.000000 -2.000000 1.155790E+01
2.000000 -4.000000 1.588333E+01
2.000000 -6.000000 1.871898E+01
2.000000 -8.000000 1.715455E+01
2.000000 -10.000000 2.871197E+01
2.000000 -12.000000 3.744220E+01
2.000000 -14.000000 2.815393E+01
2.000000 -16.000000 1.543356E+01
2.000000 -18.000000 8.391033E+00
2.000000 -20.000000 -2.749130E+00
2.000000 -22.000000 -4.176470E+00
2.000000 -24.000000 1.612236E+01
2.000000 -26.000000 2.122043E+01
2.000000 -28.000000 -7.314180E+00
2.000000 -30.000000 -4.188797E+01
2.000000 -32.000000 -5.182513E+01
2.000000 -34.000000 -3.159062E+01
2.000000 -36.000000 -1.660534E+01
2.000000 -38.000000 -7.516036E+00
2.000000 -40.000000 1.613347E+01
4.000000 40.000000 -1.795009E+01
4.000000 38.000000 -3.375139E+00
4.000000 36.000000 -2.477610E+00
4.000000 34.000000 -1.533028E+01
4.000000 32.000000 -2.998116E+01
4.000000 30.000000 -1.186337E+01
4.000000 28.000000 2.826921E+01
4.000000 26.000000 5.367469E+01
4.000000 24.000000 2.394840E+01
4.000000 22.000000 -1.792124E+01
4.000000 20.000000 -2.012259E+01
4.000000 18.000000 -4.860397E+00
4.000000 16.000000 5.217850E+00
4.000000 14.000000 3.497317E+01
4.000000 12.000000 9.131805E+01
4.000000 10.000000 1.247537E+02
4.000000 8.000000 9.641137E+01
4.000000 6.000000 5.426247E+01
4.000000 4.000000 3.264244E+01
4.000000 2.000000 7.195961E+00
4.000000 0.000000 -1.131449E+01
4.000000 -2.000000 -3.574379E+00
4.000000 -4.000000 1.412451E+01
4.000000 -6.000000 1.836173E+01
4.000000 -8.000000 1.127870E+01
4.000000 -10.000000 2.206412E+01
4.000000 -12.000000 4.037999E+01
4.000000 -14.000000 4.137021E+01
4.000000 -16.000000 3.423209E+01
4.000000 -18.000000 2.293678E+01
4.000000 -20.000000 6.906409E+00
4.000000 -22.000000 3.249348E+00
4.000000 -24.000000 1.961240E+01
4.000000 -26.000000 2.632718E+01
4.000000 -28.000000 1.575118E+00
4.000000 -30.000000 -3.361437E+01
4.000000 -32.000000 -4.921367E+01
4.000000 -34.000000 -3.628577E+01
4.000000 -36.000000 -2.236230E+01
4.000000 -38.000000 -1.219161E+01
4.000000 -40.000000 9.651119E+00
6.000000 40.000000 -2.040753E+01
6.000000 38.000000 -2.555157E+00
6.000000 36.000000 -1.288270E+00
6.000000 34.000000 -1.251743E+01
6.000000 32.000000 -2.310922E+01
6.000000 30.000000 -4.411375E+00
6.000000 28.000000 3.483696E+01
6.000000 26.000000 6.247702E+01
6.000000 24.000000 4.242469E+01
6.000000 22.000000 3.265980E+00
6.000000 20.000000 -4.360615E+00
6.000000 18.000000 7.870022E+00
6.000000 16.000000 2.154525E+01
6.000000 14.000000 5.287994E+01
6.000000 12.000000 1.039873E+02
6.000000 10.000000 1.321923E+02
6.000000 8.000000 1.048423E+02
6.000000 6.000000 5.823053E+01
6.000000 4.000000 1.480756E+01
6.000000 2.000000 -3.008556E+01
6.000000 0.000000 -5.751401E+01
6.000000 -2.000000 -4.314329E+01
6.000000 -4.000000 -8.191586E+00
6.000000 -6.000000 8.196043E+00
6.000000 -8.000000 2.028280E+00
6.000000 -10.000000 9.764202E+00
6.000000 -12.000000 3.162916E+01
6.000000 -14.000000 3.939945E+01
6.000000 -16.000000 3.556555E+01
6.000000 -18.000000 2.173293E+01
6.000000 -20.000000 4.381330E+00
6.000000 -22.000000 2.999372E+00
6.000000 -24.000000 2.119929E+01
6.000000 -26.000000 3.087204E+01
6.000000 -28.000000 7.367719E+00
6.000000 -30.000000 -2.666648E+01
6.000000 -32.000000 -4.208736E+01
6.000000 -34.000000 -3.205595E+01
6.000000 -36.000000 -2.113408E+01
6.000000 -38.000000 -1.420094E+01
6.000000 -40.000000 4.536607E+00
8.000000 40.000000 -2.718992E+01
8.000000 38.000000 -3.442001E+00
8.000000 36.000000 1.926911E+00
8.000000 34.000000 -2.573922E+00
8.000000 32.000000 -9.962869E+00
8.000000 30.000000 7.042223E+00
8.000000 28.000000 4.252541E+01
8.000000 26.000000 7.000178E+01
8.000000 24.000000 5.224360E+01
8.000000 22.000000 7.654472E+00
8.000000 20.000000 1.526070E-02
8.000000 18.000000 2.430658E+01
8.000000 16.000000 4.596683E+01
8.000000 14.000000 7.780390E+01
8.000000 12.000000 1.248832E+02
8.000000 10.000000 1.585937E+02
8.000000 8.000000 1.385652E+02
8.000000 6.000000 9.363310E+01
8.000000 4.000000 3.343633E+01
8.000000 2.000000 -4.049204E+01
8.000000 0.000000 -9.296989E+01
8.000000 -2.000000 -8.842104E+01
8.000000 -4.000000 -4.586010E+01
8.000000 -6.000000 -1.571809E+01
8.000000 -8.000000 -1.426638E+01
8.000000 -10.000000 -1.182996E+01
8.000000 -12.000000 6.530562E+00
8.000000 -14.000000 2.060015E+01
8.000000 -16.000000 1.880285E+01
8.000000 -18.000000 4.893476E+00
8.000000 -20.000000 -8.635564E+00
8.000000 -22.000000 -4.860747E+00
8.000000 -24.000000 1.726321E+01
8.000000 -26.000000 2.973254E+01
8.000000 -28.000000 7.525831E+00
8.000000 -30.000000 -2.273568E+01
8.000000 -32.000000 -3.444648E+01
8.000000 -34.000000 -2.483001E+01
8.000000 -36.000000 -1.660175E+01
8.000000 -38.000000 -1.270243E+01
8.000000 -40.000000 3.248318E+00
10.000000 40.000000 -3.389365E+01
10.000000 38.000000 -6.396899E+00
10.000000 36.000000 4.596931E+00
10.000000 34.000000 6.082985E+00
10.000000 32.000000 -4.149723E-02
10.000000 30.000000 1.274809E+01
10.000000 28.000000 4.182928E+01
10.000000 26.000000 6.492118E+01
10.000000 24.000000 4.278866E+01
10.000000 22.000000 -4.683025E+00
10.000000 20.000000 -5.184151E+00
10.000000 18.000000 3.308751E+01
10.000000 16.000000 5.936992E+01
10.000000 14.000000 9.134565E+01
10.000000 12.000000 1.437424E+02
10.000000 10.000000 1.970030E+02
10.000000 8.000000 1.976662E+02
10.000000 6.000000 1.666770E+02
10.000000 4.000000 9.279999E+01
10.000000 2.000000 -1.696902E+01
10.000000 0.000000 -1.083712E+02
10.000000 -2.000000 -1.295900E+02
10.000000 -4.000000 -9.066353E+01
10.000000 -6.000000 -4.844809E+01
10.000000 -8.000000 -3.929615E+01
10.000000 -10.000000 -4.176349E+01
10.000000 -12.000000 -2.493469E+01
10.000000 -14.000000 -6.485498E+00
10.000000 -16.000000 -8.009609E+00
10.000000 -18.000000 -2.076464E+01
10.000000 -20.000000 -2.957299E+01
10.000000 -22.000000 -2.215246E+01
10.000000 -24.000000 3.747853E+00
10.000000 -26.000000 1.861774E+01
10.000000 -28.000000 1.230274E+00
10.000000 -30.000000 -2.185666E+01
10.000000 -32.000000 -2.647306E+01
10.000000 -34.000000 -1.381803E+01
10.000000 -36.000000 -7.710459E+00
10.000000 -38.000000 -8.264926E+00
10.000000 -40.000000 4.995221E+00
12.000000 40.000000 -3.523905E+01
12.000000 38.000000 -1.009725E+01
12.000000 36.000000 2.826212E+00
12.000000 34.000000 3.639957E+00
12.000000 32.000000 -3.811921E+00
12.000000 30.000000 4.238359E+00
12.000000 28.000000 2.505535E+01
12.000000 26.000000 4.238920E+01
12.000000 24.000000 2.184442E+01
12.000000 22.000000 -1.386160E+01
12.000000 20.000000 -7.962066E+00
12.000000 18.000000 2.994422E+01
12.000000 16.000000 5.478407E+01
12.000000 14.000000 8.759627E+01
12.000000 12.000000 1.526290E+02
12.000000 10.000000 2.286574E+02
12.000000 8.000000 2.503593E+02
12.000000 6.000000 2.327900E+02
12.000000 4.000000 1.523230E+02
12.000000 2.000000 1.950413E+01
12.000000 0.000000 -1.005939E+02
12.000000 -2.000000 -1.507855E+02
12.000000 -4.000000 -1.285102E+02
12.000000 -6.000000 -8.063375E+01
12.000000 -8.000000 -6.252618E+01
12.000000 -10.000000 -6.566620E+01
12.000000 -12.000000 -5.761230E+01
12.000000 -14.000000 -4.423391E+01
12.000000 -16.000000 -4.183933E+01
12.000000 -18.000000 -4.537514E+01
12.000000 -20.000000 -4.918549E+01
12.000000 -22.000000 -3.908902E+01
12.000000 -24.000000 -9.758653E+00
12.000000 -26.000000 8.601738E+00
12.000000 -28.000000 -4.527918E+00
12.000000 -30.000000 -2.192606E+01
12.000000 -32.000000 -1.826348E+01
12.000000 -34.000000 -8.918440E-01
12.000000 -36.000000 3.247556E+00
12.000000 -38.000000 -1.390641E+00
12.000000 -40.000000 9.129120E+00
14.000000 40.000000 -3.066558E+01
14.000000 38.000000 -1.199813E+01
14.000000 36.000000 -2.652256E+00
14.000000 34.000000 -1.066306E+01
14.000000 32.000000 -2.457645E+01
14.000000 30.000000 -2.252803E+01
14.000000 28.000000 -7.538411E+00
14.000000 26.000000 1.286591E+01
14.000000 24.000000 -2.520552E-01
14.000000 22.000000 -2.357974E+01
14.000000 20.000000 -1.120020E+01
14.000000 18.000000 2.264961E+01
14.000000 16.000000 4.130877E+01
14.000000 14.000000 7.082670E+01
14.000000 12.000000 1.441133E+02
14.000000 10.000000 2.334437E+02
14.000000 8.000000 2.610547E+02
14.000000 6.000000 2.486358E+02
14.000000 4.000000 1.791432E+02
14.000000 2.000000 5.182063E+01
14.000000 0.000000 -7.483235E+01
14.000000 -2.000000 -1.441854E+02
14.000000 -4.000000 -1.455155E+02
14.000000 -6.000000 -1.074112E+02
14.000000 -8.000000 -8.624145E+01
14.000000 -10.000000 -8.676722E+01
14.000000 -12.000000 -8.681861E+01
14.000000 -14.000000 -7.769395E+01
14.000000 -16.000000 -6.560174E+01
14.000000 -18.000000 -5.505340E+01
14.000000 -20.000000 -5.288635E+01
14.000000 -22.000000 -4.292368E+01
14.000000 -24.000000 -1.547501E+01
14.000000 -26.000000 6.086120E+00
14.000000 -28.000000 -4.645209E-01
14.000000 -30.000000 -1.337556E+01
14.000000 -32.000000 -5.628118E+00
14.000000 -34.000000 1.280365E+01
14.000000 -36.000000 1.377314E+01
14.000000 -38.000000 4.904432E+00
14.000000 -40.000000 9.777519E+00
16.000000 40.000000 -2.522743E+01
16.000000 38.000000 -1.486550E+01
16.000000 36.000000 -1.164143E+01
16.000000 34.000000 -2.779510E+01
16.000000 32.000000 -4.961095E+01
16.000000 30.000000 -5.519361E+01
16.000000 28.000000 -4.188999E+01
16.000000 26.000000 -1.470768E+01
16.000000 24.000000 -2.353923E+01
16.000000 22.000000 -4.320210E+01
16.000000 20.000000 -2.822493E+01
16.000000 18.000000 4.594000E+00
16.000000 16.000000 2.024983E+01
16.000000 14.000000 4.823057E+01
16.000000 12.000000 1.196605E+02
16.000000 10.000000 2.058796E+02
16.000000 8.000000 2.325356E+02
16.000000 6.000000 2.212969E+02
16.000000 4.000000 1.746058E+02
16.000000 2.000000 7.535314E+01
16.000000 0.000000 -3.941323E+01
16.000000 -2.000000 -1.177622E+02
16.000000 -4.000000 -1.413244E+02
16.000000 -6.000000 -1.246442E+02
16.000000 -8.000000 -1.133848E+02
16.000000 -10.000000 -1.149711E+02
16.000000 -12.000000 -1.092510E+02
16.000000 -14.000000 -9.229190E+01
16.000000 -16.000000 -6.708114E+01
16.000000 -18.000000 -4.434762E+01
16.000000 -20.000000 -3.574000E+01
16.000000 -22.000000 -3.006412E+01
16.000000 -24.000000 -7.818697E+00
16.000000 -26.000000 1.558992E+01
16.000000 -28.000000 1.492390E+01
16.000000 -30.000000 1.979751E+00
16.000000 -32.000000 8.808112E+00
16.000000 -34.000000 2.754015E+01
16.000000 -36.000000 2.361141E+01
16.000000 -38.000000 5.789407E+00
16.000000 -40.000000 1.733903E+00
18.000000 40.000000 -2.907258E+01
18.000000 38.000000 -2.446857E+01
18.000000 36.000000 -2.272986E+01
18.000000 34.000000 -3.706059E+01
18.000000 32.000000 -6.124161E+01
18.000000 30.000000 -7.358218E+01
18.000000 28.000000 -5.915087E+01
18.000000 26.000000 -3.056275E+01
18.000000 24.000000 -4.275182E+01
18.000000 22.000000 -6.553153E+01
18.000000 20.000000 -5.851104E+01
18.000000 18.000000 -3.116765E+01
18.000000 16.000000 -1.441592E+01
18.000000 14.000000 1.692052E+01
18.000000 12.000000 8.727313E+01
18.000000 10.000000 1.693455E+02
18.000000 8.000000 1.986818E+02
18.000000 6.000000 1.884261E+02
18.000000 4.000000 1.562369E+02
18.000000 2.000000 8.021641E+01
18.000000 0.000000 -1.313076E+01
18.000000 -2.000000 -8.678654E+01
18.000000 -4.000000 -1.244567E+02
18.000000 -6.000000 -1.277795E+02
18.000000 -8.000000 -1.315066E+02
18.000000 -10.000000 -1.385843E+02
18.000000 -12.000000 -1.265031E+02
18.000000 -14.000000 -9.822779E+01
18.000000 -16.000000 -5.787625E+01
18.000000 -18.000000 -2.265086E+01
18.000000 -20.000000 -9.108778E+00
18.000000 -22.000000 -3.434765E+00
18.000000 -24.000000 1.692294E+01
18.000000 -26.000000 3.531594E+01
18.000000 -28.000000 2.878634E+01
18.000000 -30.000000 1.121298E+01
18.000000 -32.000000 1.472760E+01
18.000000 -34.000000 3.426781E+01
18.000000 -36.000000 2.799889E+01
18.000000 -38.000000 3.212400E+00
18.000000 -40.000000 -1.041941E+01
20.000000 40.000000 -4.786912E+01
20.000000 38.000000 -4.273498E+01
20.000000 36.000000 -3.355549E+01
20.000000 34.000000 -3.498106E+01
20.000000 32.000000 -5.313308E+01
20.000000 30.000000 -6.748201E+01
20.000000 28.000000 -5.284140E+01
20.000000 26.000000 -2.857686E+01
20.000000 24.000000 -5.196805E+01
20.000000 22.000000 -8.259456E+01
20.000000 20.000000 -8.124876E+01
20.000000 18.000000 -5.697573E+01
20.000000 16.000000 -4.169597E+01
20.000000 14.000000 -1.172589E+01
20.000000 12.000000 5.754477E+01
20.000000 10.000000 1.382877E+02
20.000000 8.000000 1.700990E+02
20.000000 6.000000 1.651347E+02
20.000000 4.000000 1.393327E+02
20.000000 2.000000 7.503601E+01
20.000000 0.000000 -1.100929E+00
20.000000 -2.000000 -6.379889E+01
20.000000 -4.000000 -1.071915E+02
20.000000 -6.000000 -1.285115E+02
20.000000 -8.000000 -1.444445E+02
20.000000 -10.000000 -1.563603E+02
20.000000 -12.000000 -1.449169E+02
20.000000 -14.000000 -1.102245E+02
20.000000 -16.000000 -5.738127E+01
20.000000 -18.000000 -7.514224E+00
20.000000 -20.000000 1.439674E+01
20.000000 -22.000000 2.499543E+01
20.000000 -24.000000 4.183029E+01
20.000000 -26.000000 4.853130E+01
20.000000 -28.000000 3.131764E+01
20.000000 -30.000000 1.117831E+01
20.000000 -32.000000 1.144796E+01
20.000000 -34.000000 2.868098E+01
20.000000 -36.000000 2.276095E+01
20.000000 -38.000000 -1.545179E+00
20.000000 -40.000000 -2.172017E+01
22.000000 40.000000 -7.430958E+01
22.000000 38.000000 -6.628643E+01
22.000000 36.000000 -4.647212E+01
22.000000 34.000000 -2.929093E+01
22.000000 32.000000 -3.311183E+01
22.000000 30.000000 -4.224564E+01
22.000000 28.000000 -3.104194E+01
22.000000 26.000000 -1.702485E+01
22.000000 24.000000 -4.960829E+01
22.000000 22.000000 -8.443762E+01
22.000000 20.000000 -8.045463E+01
22.000000 18.000000 -5.196352E+01
22.000000 16.000000 -4.088978E+01
22.000000 14.000000 -1.964671E+01
22.000000 12.000000 3.793600E+01
22.000000 10.000000 1.101584E+02
22.000000 8.000000 1.419629E+02
22.000000 6.000000 1.457724E+02
22.000000 4.000000 1.292534E+02
22.000000 2.000000 7.417355E+01
22.000000 0.000000 8.995047E+00
22.000000 -2.000000 -4.614147E+01
22.000000 -4.000000 -9.391509E+01
22.000000 -6.000000 -1.288371E+02
22.000000 -8.000000 -1.552349E+02
22.000000 -10.000000 -1.725856E+02
22.000000 -12.000000 -1.639887E+02
22.000000 -14.000000 -1.313474E+02
22.000000 -16.000000 -7.416615E+01
22.000000 -18.000000 -1.153254E+01
22.000000 -20.000000 1.898426E+01
22.000000 -22.000000 3.003586E+01
22.000000 -24.000000 4.410824E+01
22.000000 -26.000000 4.356343E+01
22.000000 -28.000000 2.131868E+01
22.000000 -30.000000 -1.291011E+00
22.000000 -32.000000 -3.605639E+00
22.000000 -34.000000 1.325712E+01
22.000000 -36.000000 9.804835E+00
22.000000 -38.000000 -7.958222E+00
22.000000 -40.000000 -2.677219E+01
24.000000 40.000000 -9.172630E+01
24.000000 38.000000 -8.798970E+01
24.000000 36.000000 -6.589065E+01
24.000000 34.000000 -3.525566E+01
24.000000 32.000000 -2.424839E+01
24.000000 30.000000 -2.395158E+01
24.000000 28.000000 -1.220179E+01
24.000000 26.000000 -2.838687E+00
24.000000 24.000000 -3.232166E+01
24.000000 22.000000 -6.228639E+01
24.000000 20.000000 -5.254032E+01
24.000000 18.000000 -2.193566E+01
24.000000 16.000000 -1.467614E+01
24.000000 14.000000 -2.515555E+00
24.000000 12.000000 4.012120E+01
24.000000 10.000000 9.905236E+01
24.000000 8.000000 1.264005E+02
24.000000 6.000000 1.335605E+02
24.000000 4.000000 1.270171E+02
24.000000 2.000000 7.798623E+01
24.000000 0.000000 1.565518E+01
24.000000 -2.000000 -3.859125E+01
24.000000 -4.000000 -8.773149E+01
24.000000 -6.000000 -1.236319E+02
24.000000 -8.000000 -1.570848E+02
24.000000 -10.000000 -1.817865E+02
24.000000 -12.000000 -1.832278E+02
24.000000 -14.000000 -1.632006E+02
24.000000 -16.000000 -1.119565E+02
24.000000 -18.000000 -4.698767E+01
24.000000 -20.000000 -1.375149E+01
24.000000 -22.000000 -1.345551E+00
24.000000 -24.000000 1.892366E+01
24.000000 -26.000000 2.033746E+01
24.000000 -28.000000 -8.871346E-01
24.000000 -30.000000 -2.392874E+01
24.000000 -32.000000 -2.602427E+01
24.000000 -34.000000 -5.818498E+00
24.000000 -36.000000 -2.981242E+00
24.000000 -38.000000 -1.066495E+01
24.000000 -40.000000 -2.187344E+01
26.000000 40.000000 -9.737629E+01
26.000000 38.000000 -1.015157E+02
26.000000 36.000000 -8.319283E+01
26.000000 34.000000 -4.897673E+01
26.000000 32.000000 -3.028035E+01
26.000000 30.000000 -2.186114E+01
26.000000 28.000000 -3.619442E+00
26.000000 26.000000 9.902159E+00
26.000000 24.000000 -1.272887E+01
26.000000 22.000000 -3.250086E+01
26.000000 20.000000 -1.227474E+01
26.000000 18.000000 1.544698E+01
26.000000 16.000000 1.832809E+01
26.000000 14.000000 2.548441E+01
26.000000 12.000000 5.833275E+01
26.000000 10.000000 1.052421E+02
26.000000 8.000000 1.274230E+02
26.000000 6.000000 1.345271E+02
26.000000 4.000000 1.299564E+02
26.000000 2.000000 7.916079E+01
26.000000 0.000000 1.109301E+01
26.000000 -2.000000 -4.719930E+01
26.000000 -4.000000 -9.128825E+01
26.000000 -6.000000 -1.212142E+02
26.000000 -8.000000 -1.535924E+02
26.000000 -10.000000 -1.817952E+02
26.000000 -12.000000 -1.967874E+02
26.000000 -14.000000 -1.917262E+02
26.000000 -16.000000 -1.571549E+02
26.000000 -18.000000 -1.067517E+02
26.000000 -20.000000 -7.252435E+01
26.000000 -22.000000 -5.049861E+01
26.000000 -24.000000 -2.434705E+01
26.000000 -26.000000 -1.626951E+01
26.000000 -28.000000 -2.768212E+01
26.000000 -30.000000 -4.296423E+01
26.000000 -32.000000 -3.963376E+01
26.000000 -34.000000 -1.674631E+01
26.000000 -36.000000 -8.015633E+00
26.000000 -38.000000 -8.804788E+00
26.000000 -40.000000 -1.411998E+01
28.000000 40.000000 -9.812882E+01
28.000000 38.000000 -1.044451E+02
28.000000 36.000000 -8.841736E+01
28.000000 34.000000 -5.848251E+01
28.000000 32.000000 -3.772836E+01
28.000000 30.000000 -2.232159E+01
28.000000 28.000000 -8.284550E-01
28.000000 26.000000 1.374896E+01
28.000000 24.000000 -4.559694E+00
28.000000 22.000000 -1.602927E+01
28.000000 20.000000 1.179037E+01
28.000000 18.000000 3.809449E+01
28.000000 16.000000 4.277248E+01
28.000000 14.000000 5.493359E+01
28.000000 12.000000 8.387139E+01
28.000000 10.000000 1.206746E+02
28.000000 8.000000 1.352295E+02
28.000000 6.000000 1.361494E+02
28.000000 4.000000 1.205731E+02
28.000000 2.000000 6.182561E+01
28.000000 0.000000 -1.335319E+01
28.000000 -2.000000 -7.244309E+01
28.000000 -4.000000 -1.080176E+02
28.000000 -6.000000 -1.297743E+02
28.000000 -8.000000 -1.557189E+02
28.000000 -10.000000 -1.808853E+02
28.000000 -12.000000 -1.996699E+02
28.000000 -14.000000 -2.023798E+02
28.000000 -16.000000 -1.838412E+02
28.000000 -18.000000 -1.503058E+02
28.000000 -20.000000 -1.185877E+02
28.000000 -22.000000 -8.855855E+01
28.000000 -24.000000 -5.836098E+01
28.000000 -26.000000 -4.387273E+01
28.000000 -28.000000 -4.348565E+01
28.000000 -30.000000 -4.868595E+01
28.000000 -32.000000 -3.885050E+01
28.000000 -34.000000 -1.423579E+01
28.000000 -36.000000 -4.628145E+00
28.000000 -38.000000 -8.039745E+00
28.000000 -40.000000 -1.497412E+01
30.000000 40.000000 -9.770354E+01
30.000000 38.000000 -1.002678E+02
30.000000 36.000000 -8.181251E+01
30.000000 34.000000 -5.424911E+01
30.000000 32.000000 -3.525690E+01
30.000000 30.000000 -1.884583E+01
30.000000 28.000000 9.606037E-01
30.000000 26.000000 1.150790E+01
30.000000 24.000000 -5.398951E+00
30.000000 22.000000 -1.781936E+01
30.000000 20.000000 3.734261E+00
30.000000 18.000000 3.198809E+01
30.000000 16.000000 4.748435E+01
30.000000 14.000000 7.148277E+01
30.000000 12.000000 1.076507E+02
30.000000 10.000000 1.404150E+02
30.000000 8.000000 1.359317E+02
30.000000 6.000000 1.169335E+02
30.000000 4.000000 8.553509E+01
30.000000 2.000000 2.298134E+01
30.000000 0.000000 -5.174958E+01
30.000000 -2.000000 -1.031313E+02
30.000000 -4.000000 -1.241025E+02
30.000000 -6.000000 -1.319020E+02
30.000000 -8.000000 -1.509998E+02
30.000000 -10.000000 -1.754497E+02
30.000000 -12.000000 -1.948394E+02
30.000000 -14.000000 -1.997724E+02
30.000000 -16.000000 -1.877323E+02
30.000000 -18.000000 -1.642622E+02
30.000000 -20.000000 -1.350353E+02
30.000000 -22.000000 -9.960403E+01
30.000000 -24.000000 -6.414611E+01
30.000000 -26.000000 -4.304590E+01
30.000000 -28.000000 -3.816006E+01
30.000000 -30.000000 -3.933079E+01
30.000000 -32.000000 -2.875423E+01
30.000000 -34.000000 -5.714998E+00
30.000000 -36.000000 -4.531670E-02
30.000000 -38.000000 -1.101888E+01
30.000000 -40.000000 -2.384796E+01
32.000000 40.000000 -9.683678E+01
32.000000 38.000000 -9.353361E+01
32.000000 36.000000 -6.790018E+01
32.000000 34.000000 -3.637251E+01
32.000000 32.000000 -2.130181E+01
32.000000 30.000000 -1.281811E+01
32.000000 28.000000 1.218824E+00
32.000000 26.000000 6.711626E+00
32.000000 24.000000 -1.682649E+01
32.000000 22.000000 -3.871967E+01
32.000000 20.000000 -2.416513E+01
32.000000 18.000000 9.414463E+00
32.000000 16.000000 3.373998E+01
32.000000 14.000000 6.904832E+01
32.000000 12.000000 1.177037E+02
32.000000 10.000000 1.514260E+02
32.000000 8.000000 1.238687E+02
32.000000 6.000000 8.269120E+01
32.000000 4.000000 4.209071E+01
32.000000 2.000000 -1.555815E+01
32.000000 0.000000 -8.280799E+01
32.000000 -2.000000 -1.200982E+02
32.000000 -4.000000 -1.208643E+02
32.000000 -6.000000 -1.175984E+02
32.000000 -8.000000 -1.378717E+02
32.000000 -10.000000 -1.699743E+02
32.000000 -12.000000 -1.889948E+02
32.000000 -14.000000 -1.903615E+02
32.000000 -16.000000 -1.770582E+02
32.000000 -18.000000 -1.554552E+02
32.000000 -20.000000 -1.261941E+02
32.000000 -22.000000 -8.963996E+01
32.000000 -24.000000 -4.920940E+01
32.000000 -26.000000 -2.191194E+01
32.000000 -28.000000 -1.705094E+01
32.000000 -30.000000 -1.980291E+01
32.000000 -32.000000 -1.545308E+01
32.000000 -34.000000 1.183899E+00
32.000000 -36.000000 3.715248E-01
32.000000 -38.000000 -1.611437E+01
32.000000 -40.000000 -3.369254E+01
34.000000 40.000000 -9.268969E+01
34.000000 38.000000 -8.471060E+01
34.000000 36.000000 -5.556228E+01
34.000000 34.000000 -2.078501E+01
34.000000 32.000000 -5.880634E+00
34.000000 30.000000 -3.009996E+00
34.000000 28.000000 1.241179E+00
34.000000 26.000000 -3.494638E+00
34.000000 24.000000 -3.784285E+01
34.000000 22.000000 -6.642611E+01
34.000000 20.000000 -5.361813E+01
34.000000 18.000000 -1.479616E+01
34.000000 16.000000 1.583067E+01
34.000000 14.000000 5.737566E+01
34.000000 12.000000 1.088261E+02
34.000000 10.000000 1.365769E+02
34.000000 8.000000 9.457635E+01
34.000000 6.000000 4.341792E+01
34.000000 4.000000 8.120729E+00
34.000000 2.000000 -3.411119E+01
34.000000 0.000000 -8.549015E+01
34.000000 -2.000000 -1.069478E+02
34.000000 -4.000000 -9.199038E+01
34.000000 -6.000000 -8.792184E+01
34.000000 -8.000000 -1.174684E+02
34.000000 -10.000000 -1.595763E+02
34.000000 -12.000000 -1.758405E+02
34.000000 -14.000000 -1.728017E+02
34.000000 -16.000000 -1.577974E+02
34.000000 -18.000000 -1.337610E+02
34.000000 -20.000000 -1.050073E+02
34.000000 -22.000000 -7.236131E+01
34.000000 -24.000000 -2.979524E+01
34.000000 -26.000000 5.972214E-01
34.000000 -28.000000 4.636282E+00
34.000000 -30.000000 -3.251276E+00
34.000000 -32.000000 -7.536293E+00
34.000000 -34.000000 4.430174E+00
34.000000 -36.000000 -1.542316E+00
34.000000 -38.000000 -2.204062E+01
34.000000 -40.000000 -4.168815E+01
36.000000 40.000000 -8.530637E+01
36.000000 38.000000 -7.663361E+01
36.000000 36.000000 -5.086975E+01
36.000000 34.000000 -1.711104E+01
36.000000 32.000000 4.139252E-01
36.000000 30.000000 6.311380E+00
36.000000 28.000000 5.386787E+00
36.000000 26.000000 -1.035316E+01
36.000000 24.000000 -5.326846E+01
36.000000 22.000000 -8.608210E+01
36.000000 20.000000 -7.750704E+01
36.000000 18.000000 -3.450529E+01
36.000000 16.000000 2.123119E+00
36.000000 14.000000 4.366775E+01
36.000000 12.000000 8.753101E+01
36.000000 10.000000 1.023326E+02
36.000000 8.000000 5.123027E+01
36.000000 6.000000 -3.917198E-01
36.000000 4.000000 -1.645316E+01
36.000000 2.000000 -3.535814E+01
36.000000 0.000000 -6.100912E+01
36.000000 -2.000000 -6.596822E+01
36.000000 -4.000000 -4.919864E+01
36.000000 -6.000000 -4.946119E+01
36.000000 -8.000000 -8.437950E+01
36.000000 -10.000000 -1.284788E+02
36.000000 -12.000000 -1.459829E+02
36.000000 -14.000000 -1.458281E+02
36.000000 -16.000000 -1.308929E+02
36.000000 -18.000000 -1.044850E+02
36.000000 -20.000000 -8.181564E+01
36.000000 -22.000000 -5.808826E+01
36.000000 -24.000000 -2.000793E+01
36.000000 -26.000000 9.684145E+00
36.000000 -28.000000 1.152828E+01
36.000000 -30.000000 -3.428593E-01
36.000000 -32.000000 -9.332861E+00
36.000000 -34.000000 2.216177E+00
36.000000 -36.000000 -4.996054E+00
36.000000 -38.000000 -2.751954E+01
36.000000 -40.000000 -4.660778E+01
38.000000 40.000000 -7.999138E+01
38.000000 38.000000 -7.375603E+01
38.000000 36.000000 -5.265699E+01
38.000000 34.000000 -2.149115E+01
38.000000 32.000000 -3.249546E+00
38.000000 30.000000 7.733335E+00
38.000000 28.000000 1.194909E+01
38.000000 26.000000 -3.741856E-01
38.000000 24.000000 -4.402853E+01
38.000000 22.000000 -8.677990E+01
38.000000 20.000000 -8.477320E+01
38.000000 18.000000 -4.258659E+01
38.000000 16.000000 -8.426626E+00
38.000000 14.000000 2.694910E+01
38.000000 12.000000 6.104292E+01
38.000000 10.000000 6.837907E+01
38.000000 8.000000 1.151536E+01
38.000000 6.000000 -3.848078E+01
38.000000 4.000000 -3.498230E+01
38.000000 2.000000 -3.213473E+01
38.000000 0.000000 -3.761941E+01
38.000000 -2.000000 -3.206054E+01
38.000000 -4.000000 -1.816948E+01
38.000000 -6.000000 -2.036234E+01
38.000000 -8.000000 -5.312610E+01
38.000000 -10.000000 -8.563824E+01
38.000000 -12.000000 -9.593280E+01
38.000000 -14.000000 -9.872947E+01
38.000000 -16.000000 -9.275858E+01
38.000000 -18.000000 -7.638227E+01
38.000000 -20.000000 -6.674258E+01
38.000000 -22.000000 -5.627016E+01
38.000000 -24.000000 -2.979387E+01
38.000000 -26.000000 -3.561729E+00
38.000000 -28.000000 3.978062E-01
38.000000 -30.000000 -1.087519E+01
38.000000 -32.000000 -1.834032E+01
38.000000 -34.000000 -4.213091E+00
38.000000 -36.000000 -8.451296E+00
38.000000 -38.000000 -2.967142E+01
38.000000 -40.000000 -4.654828E+01
40.000000 40.000000 -7.731796E+01
40.000000 38.000000 -7.413525E+01
40.000000 36.000000 -5.834935E+01
40.000000 34.000000 -3.097840E+01
40.000000 32.000000 -1.267685E+01
40.000000 30.000000 1.530184E+00
40.000000 28.000000 1.637331E+01
40.000000 26.000000 2.067622E+01
40.000000 24.000000 -1.164608E+01
40.000000 22.000000 -6.112304E+01
40.000000 20.000000 -6.981630E+01
40.000000 18.000000 -4.362104E+01
40.000000 16.000000 -1.959401E+01
40.000000 14.000000 8.014626E+00
40.000000 12.000000 3.521471E+01
40.000000 10.000000 4.161789E+01
40.000000 8.000000 -9.251345E+00
40.000000 6.000000 -5.401572E+01
40.000000 4.000000 -4.509979E+01
40.000000 2.000000 -3.585822E+01
40.000000 0.000000 -3.850145E+01
40.000000 -2.000000 -3.278612E+01
40.000000 -4.000000 -2.056779E+01
40.000000 -6.000000 -1.890084E+01
40.000000 -8.000000 -3.840486E+01
40.000000 -10.000000 -4.744159E+01
40.000000 -12.000000 -3.982836E+01
40.000000 -14.000000 -4.537046E+01
40.000000 -16.000000 -5.838239E+01
40.000000 -18.000000 -6.332036E+01
40.000000 -20.000000 -6.915730E+01
40.000000 -22.000000 -6.964700E+01
40.000000 -24.000000 -4.929753E+01
40.000000 -26.000000 -2.323194E+01
40.000000 -28.000000 -1.401299E+01
40.000000 -30.000000 -2.506143E+01
40.000000 -32.000000 -3.094475E+01
40.000000 -34.000000 -1.146768E+01
40.000000 -36.000000 -9.936065E+00
40.000000 -38.000000 -2.864657E+01
40.000000 -40.000000 -4.200729E+01
42.000000 40.000000 -7.435001E+01
42.000000 38.000000 -7.360242E+01
42.000000 36.000000 -6.349321E+01
42.000000 34.000000 -4.124262E+01
42.000000 32.000000 -2.391864E+01
42.000000 30.000000 -7.649565E+00
42.000000 28.000000 1.645014E+01
42.000000 26.000000 3.425555E+01
42.000000 24.000000 1.532871E+01
42.000000 22.000000 -2.959459E+01
42.000000 20.000000 -4.731237E+01
42.000000 18.000000 -4.085734E+01
42.000000 16.000000 -2.895140E+01
42.000000 14.000000 -8.617752E+00
42.000000 12.000000 1.671323E+01
42.000000 10.000000 2.692706E+01
42.000000 8.000000 -1.076497E+01
42.000000 6.000000 -4.547469E+01
42.000000 4.000000 -4.036633E+01
42.000000 2.000000 -3.916513E+01
42.000000 0.000000 -4.931704E+01
42.000000 -2.000000 -4.991660E+01
42.000000 -4.000000 -4.178201E+01
42.000000 -6.000000 -3.498524E+01
42.000000 -8.000000 -3.868762E+01
42.000000 -10.000000 -3.312412E+01
42.000000 -12.000000 -2.073715E+01
42.000000 -14.000000 -3.098984E+01
42.000000 -16.000000 -5.645433E+01
42.000000 -18.000000 -7.695773E+01
42.000000 -20.000000 -9.361596E+01
42.000000 -22.000000 -8.887929E+01
42.000000 -24.000000 -5.369200E+01
42.000000 -26.000000 -2.288420E+01
42.000000 -28.000000 -1.792521E+01
42.000000 -30.000000 -3.162588E+01
42.000000 -32.000000 -3.803462E+01
42.000000 -34.000000 -1.705127E+01
42.000000 -36.000000 -1.125259E+01
42.000000 -38.000000 -2.556074E+01
42.000000 -40.000000 -3.448080E+01
44.000000 40.000000 -6.887070E+01
44.000000 38.000000 -7.196675E+01
44.000000 36.000000 -6.730269E+01
44.000000 34.000000 -5.142883E+01
44.000000 32.000000 -3.623004E+01
44.000000 30.000000 -1.791584E+01
44.000000 28.000000 1.055782E+01
44.000000 26.000000 3.238736E+01
44.000000 24.000000 1.832458E+01
44.000000 22.000000 -1.901953E+01
44.000000 20.000000 -3.397321E+01
44.000000 18.000000 -3.039567E+01
44.000000 16.000000 -2.598317E+01
44.000000 14.000000 -1.402707E+01
44.000000 12.000000 6.498138E+00
44.000000 10.000000 1.925475E+01
44.000000 8.000000 -5.441883E+00
44.000000 6.000000 -2.535668E+01
44.000000 4.000000 -2.148057E+01
44.000000 2.000000 -2.964401E+01
44.000000 0.000000 -4.789640E+01
44.000000 -2.000000 -5.811823E+01
44.000000 -4.000000 -5.888821E+01
44.000000 -6.000000 -5.458320E+01
44.000000 -8.000000 -5.294542E+01
44.000000 -10.000000 -5.106769E+01
44.000000 -12.000000 -4.641759E+01
44.000000 -14.000000 -5.695554E+01
44.000000 -16.000000 -8.304565E+01
44.000000 -18.000000 -1.060645E+02
44.000000 -20.000000 -1.215295E+02
44.000000 -22.000000 -9.969264E+01
44.000000 -24.000000 -3.805185E+01
44.000000 -26.000000 -1.421635E+00
