-18.000000 -38.000000 1.775694E+01
-18.000000 -40.000000 1.337471E+01
-16.000000 40.000000 2.451341E+01
-16.000000 38.000000 2.755881E+01
-16.000000 36.000000 2.808424E+01
-16.000000 34.000000 3.317458E+01
-16.000000 32.000000 3.779300E+01
-16.000000 30.000000 3.421598E+01
-16.000000 28.000000 2.389396E+01
-16.000000 26.000000 1.079353E+01
-16.000000 24.000000 2.962903E+00
-16.000000 22.000000 5.375717E+00
-16.000000 20.000000 1.402307E+01
-16.000000 18.000000 2.106660E+01
-16.000000 16.000000 1.675624E+01
-16.000000 14.000000 1.097754E+00
-16.000000 12.000000 -1.537625E+01
-16.000000 10.000000 -1.668441E+01
-16.000000 8.000000 2.164424E+00
-16.000000 6.000000 1.025033E+01
-16.000000 4.000000 4.689524E+00
-16.000000 2.000000 -1.966316E+00
-16.000000 0.000000 -2.644709E+00
-16.000000 -2.000000 5.268955E-01
-16.000000 -4.000000 4.461679E-01
-16.000000 -6.000000 5.407858E-01
-16.000000 -8.000000 1.789935E+00
-16.000000 -10.000000 -6.975746E-02
-16.000000 -12.000000 -4.165686E+00
-16.000000 -14.000000 -4.880323E+00
-16.000000 -16.000000 3.081305E+00
-16.000000 -18.000000 1.639010E+01
-16.000000 -20.000000 2.573283E+01
-16.000000 -22.000000 2.613046E+01
-16.000000 -24.000000 2.215650E+01
-16.000000 -26.000000 2.141373E+01
-16.000000 -28.000000 2.795043E+01
-16.000000 -30.000000 3.278696E+01
-16.000000 -32.000000 3.278742E+01
-16.000000 -34.000000 2.884878E+01
-16.000000 -36.000000 1.935299E+01
-16.000000 -38.000000 1.088203E+01
-16.000000 -40.000000 9.683782E+00
-14.000000 40.000000 2.106879E+01
-14.000000 38.000000 2.542568E+01
-14.000000 36.000000 2.552887E+01
-14.000000 34.000000 2.649743E+01
-14.000000 32.000000 2.800558E+01
-14.000000 30.000000 2.387880E+01
-14.000000 28.000000 1.353612E+01
-14.000000 26.000000 9.841785E-01
-14.000000 24.000000 -7.196800E+00
-14.000000 22.000000 -2.767015E+00
-14.000000 20.000000 7.005859E+00
-14.000000 18.000000 1.472423E+01
-14.000000 16.000000 1.276051E+01
-14.000000 14.000000 1.815720E+00
-14.000000 12.000000 -6.811219E+00
-14.000000 10.000000 -1.367273E-01
-14.000000 8.000000 1.853056E+01
-14.000000 6.000000 2.611616E+01
-14.000000 4.000000 1.932158E+01
-14.000000 2.000000 1.055791E+01
-14.000000 0.000000 8.348869E+00
-14.000000 -2.000000 1.042083E+01
-14.000000 -4.000000 1.120482E+01
-14.000000 -6.000000 1.363130E+01
-14.000000 -8.000000 1.633473E+01
-14.000000 -10.000000 1.482047E+01
-14.000000 -12.000000 5.690337E+00
-14.000000 -14.000000 -2.517954E+00
-14.000000 -16.000000 -3.229257E+00
-14.000000 -18.000000 4.220125E+00
-14.000000 -20.000000 8.220172E+00
-14.000000 -22.000000 1.604840E+00
-14.000000 -24.000000 -6.524095E+00
-14.000000 -26.000000 -5.023175E+00
-14.000000 -28.000000 7.307308E+00
-14.000000 -30.000000 1.585894E+01
-14.000000 -32.000000 1.827617E+01
-14.000000 -34.000000 1.726057E+01
-14.000000 -36.000000 1.031636E+01
-14.000000 -38.000000 3.705278E+00
-14.000000 -40.000000 6.475785E+00
-12.000000 40.000000 1.510198E+01
-12.000000 38.000000 2.159326E+01
-12.000000 36.000000 2.050739E+01
-12.000000 34.000000 1.712870E+01
-12.000000 32.000000 1.651527E+01
-12.000000 30.000000 1.395798E+01
-12.000000 28.000000 4.728490E+00
-12.000000 26.000000 -7.443930E+00
-12.000000 24.000000 -1.458307E+01
-12.000000 22.000000 -6.911945E+00
-12.000000 20.000000 4.774932E+00
-12.000000 18.000000 1.425072E+01
-12.000000 16.000000 1.604002E+01
-12.000000 14.000000 1.196133E+01
-12.000000 12.000000 1.138620E+01
-12.000000 10.000000 2.427282E+01
-12.000000 8.000000 3.854759E+01
-12.000000 6.000000 3.917731E+01
-12.000000 4.000000 2.538071E+01
-12.000000 2.000000 1.317205E+01
-12.000000 0.000000 1.069224E+01
-12.000000 -2.000000 1.284575E+01
-12.000000 -4.000000 1.439921E+01
-12.000000 -6.000000 1.896392E+01
-12.000000 -8.000000 2.314230E+01
-12.000000 -10.000000 2.181361E+01
-12.000000 -12.000000 1.012885E+01
-12.000000 -14.000000 -1.734230E+00
-12.000000 -16.000000 -6.549252E+00
-12.000000 -18.000000 -3.134753E+00
-12.000000 -20.000000 -4.536421E+00
-12.000000 -22.000000 -1.718141E+01
-12.000000 -24.000000 -2.972956E+01
-12.000000 -26.000000 -2.899572E+01
-12.000000 -28.000000 -1.526402E+01
-12.000000 -30.000000 -4.831676E+00
-12.000000 -32.000000 2.389946E-01
-12.000000 -34.000000 3.372767E+00
-12.000000 -36.000000 1.586610E+00
-12.000000 -38.000000 -1.472023E+00
-12.000000 -40.000000 4.544253E+00
-10.000000 40.000000 7.182796E+00
-10.000000 38.000000 1.388169E+01
-10.000000 36.000000 1.218540E+01
-10.000000 34.000000 7.817212E+00
-10.000000 32.000000 7.086408E+00
-10.000000 30.000000 5.945286E+00
-10.000000 28.000000 -1.611625E+00
-10.000000 26.000000 -1.241105E+01
-10.000000 24.000000 -1.681338E+01
-10.000000 22.000000 -5.211497E+00
-10.000000 20.000000 9.015756E+00
-10.000000 18.000000 2.114757E+01
-10.000000 16.000000 2.658353E+01
-10.000000 14.000000 2.683087E+01
-10.000000 12.000000 2.849569E+01
-10.000000 10.000000 4.219854E+01
-10.000000 8.000000 5.019489E+01
-10.000000 6.000000 4.283454E+01
-10.000000 4.000000 2.263237E+01
-10.000000 2.000000 8.136151E+00
-10.000000 0.000000 5.841656E+00
-10.000000 -2.000000 9.395218E+00
-10.000000 -4.000000 1.237893E+01
-10.000000 -6.000000 1.732502E+01
-10.000000 -8.000000 2.070654E+01
-10.000000 -10.000000 1.777437E+01
-10.000000 -12.000000 5.324270E+00
-10.000000 -14.000000 -6.143755E+00
-10.000000 -16.000000 -8.499094E+00
-10.000000 -18.000000 -4.606605E+00
-10.000000 -20.000000 -8.616591E+00
-10.000000 -22.000000 -2.490994E+01
-10.000000 -24.000000 -4.150999E+01
-10.000000 -26.000000 -4.450741E+01
-10.000000 -28.000000 -3.395231E+01
-10.000000 -30.000000 -2.448631E+01
-10.000000 -32.000000 -1.723638E+01
-10.000000 -34.000000 -9.442634E+00
-10.000000 -36.000000 -5.102183E+00
-10.000000 -38.000000 -4.041949E+00
-10.000000 -40.000000 3.772042E+00
-8.000000 40.000000 -2.027437E+00
-8.000000 38.000000 2.084058E+00
-8.000000 36.000000 1.643609E+00
-8.000000 34.000000 1.684249E+00
-8.000000 32.000000 2.988794E+00
-8.000000 30.000000 1.415438E+00
-8.000000 28.000000 -5.600076E+00
-8.000000 26.000000 -1.290406E+01
-8.000000 24.000000 -1.190716E+01
-8.000000 22.000000 2.394707E+00
-8.000000 20.000000 1.860664E+01
-8.000000 18.000000 3.177436E+01
-8.000000 16.000000 3.616048E+01
-8.000000 14.000000 3.553065E+01
-8.000000 12.000000 3.458551E+01
-8.000000 10.000000 4.358955E+01
-8.000000 8.000000 4.655346E+01
-8.000000 6.000000 3.484670E+01
-8.000000 4.000000 1.330223E+01
-8.000000 2.000000 5.322981E-02
-8.000000 0.000000 -4.356093E-01
-8.000000 -2.000000 4.562769E+00
-8.000000 -4.000000 6.951396E+00
-8.000000 -6.000000 1.096639E+01
-8.000000 -8.000000 1.365572E+01
-8.000000 -10.000000 8.842615E+00
-8.000000 -12.000000 -3.366858E+00
-8.000000 -14.000000 -1.283179E+01
-8.000000 -16.000000 -1.010045E+01
-8.000000 -18.000000 -2.278371E+00
-8.000000 -20.000000 -5.737931E+00
-8.000000 -22.000000 -2.320662E+01
-8.000000 -24.000000 -4.264367E+01
-8.000000 -26.000000 -5.004852E+01
-8.000000 -28.000000 -4.342844E+01
-8.000000 -30.000000 -3.710848E+01
-8.000000 -32.000000 -2.960750E+01
-8.000000 -34.000000 -1.801145E+01
-8.000000 -36.000000 -9.023197E+00
-8.000000 -38.000000 -5.199708E+00
-8.000000 -40.000000 3.636728E+00
-6.000000 40.000000 -1.204076E+01
-6.000000 38.000000 -1.011455E+01
-6.000000 36.000000 -8.163399E+00
-6.000000 34.000000 -9.431305E-01
-6.000000 32.000000 4.263095E+00
-6.000000 30.000000 2.622295E+00
-6.000000 28.000000 -4.636840E+00
-6.000000 26.000000 -9.116274E+00
-6.000000 24.000000 -2.270943E+00
-6.000000 22.000000 1.322517E+01
-6.000000 20.000000 2.889508E+01
-6.000000 18.000000 3.862198E+01
-6.000000 16.000000 3.666967E+01
-6.000000 14.000000 3.150703E+01
-6.000000 12.000000 2.575022E+01
-6.000000 10.000000 2.830787E+01
-6.000000 8.000000 3.060666E+01
-6.000000 6.000000 1.840142E+01
-6.000000 4.000000 7.653530E-01
-6.000000 2.000000 -7.527824E+00
-6.000000 0.000000 -4.664964E+00
-6.000000 -2.000000 8.328289E-01
-6.000000 -4.000000 1.714320E+00
-6.000000 -6.000000 5.051040E+00
-6.000000 -8.000000 7.109272E+00
-6.000000 -10.000000 5.390110E-01
-6.000000 -12.000000 -1.132094E+01
-6.000000 -14.000000 -1.822182E+01
-6.000000 -16.000000 -1.140366E+01
-6.000000 -18.000000 -5.620909E-02
-6.000000 -20.000000 -1.153370E+00
-6.000000 -22.000000 -1.664882E+01
-6.000000 -24.000000 -3.563754E+01
-6.000000 -26.000000 -4.492222E+01
-6.000000 -28.000000 -4.173305E+01
-6.000000 -30.000000 -3.864525E+01
-6.000000 -32.000000 -3.261783E+01
-6.000000 -34.000000 -2.104741E+01
-6.000000 -36.000000 -1.076575E+01
-6.000000 -38.000000 -5.464518E+00
-6.000000 -40.000000 3.260074E+00
-4.000000 40.000000 -2.200088E+01
-4.000000 38.000000 -1.930079E+01
-4.000000 36.000000 -1.409025E+01
-4.000000 34.000000 -4.892826E-01
-4.000000 32.000000 8.795350E+00
-4.000000 30.000000 8.532984E+00
-4.000000 28.000000 2.160662E+00
-4.000000 26.000000 -1.891273E+00
-4.000000 24.000000 6.684308E+00
-4.000000 22.000000 2.120982E+01
-4.000000 20.000000 3.254568E+01
-4.000000 18.000000 3.455271E+01
-4.000000 16.000000 2.631581E+01
-4.000000 14.000000 1.738332E+01
-4.000000 12.000000 8.791297E+00
-4.000000 10.000000 8.433734E+00
-4.000000 8.000000 1.331729E+01
-4.000000 6.000000 3.761747E+00
-4.000000 4.000000 -9.527329E+00
-4.000000 2.000000 -1.439730E+01
-4.000000 0.000000 -8.967629E+00
-4.000000 -2.000000 -3.516563E+00
-4.000000 -4.000000 -2.582532E+00
-4.000000 -6.000000 1.671442E+00
-4.000000 -8.000000 2.772442E+00
-4.000000 -10.000000 -5.133926E+00
-4.000000 -12.000000 -1.785309E+01
-4.000000 -14.000000 -2.385394E+01
-4.000000 -16.000000 -1.429478E+01
-4.000000 -18.000000 1.859206E+00
-4.000000 -20.000000 5.085547E+00
-4.000000 -22.000000 -7.994628E+00
-4.000000 -24.000000 -2.487111E+01
-4.000000 -26.000000 -3.199103E+01
-4.000000 -28.000000 -2.982971E+01
-4.000000 -30.000000 -2.971645E+01
-4.000000 -32.000000 -2.700963E+01
-4.000000 -34.000000 -1.864651E+01
-4.000000 -36.000000 -1.027913E+01
-4.000000 -38.000000 -5.326333E+00
-4.000000 -40.000000 2.193802E+00
-2.000000 40.000000 -2.894577E+01
-2.000000 38.000000 -2.322058E+01
-2.000000 36.000000 -1.485937E+01
-2.000000 34.000000 1.897190E+00
-2.000000 32.000000 1.367037E+01
-2.000000 30.000000 1.494469E+01
-2.000000 28.000000 9.651891E+00
-2.000000 26.000000 4.837645E+00
-2.000000 24.000000 1.100025E+01
-2.000000 22.000000 2.121940E+01
-2.000000 20.000000 2.550546E+01
-2.000000 18.000000 2.036056E+01
-2.000000 16.000000 1.018905E+01
-2.000000 14.000000 1.781653E+00
-2.000000 12.000000 -2.954664E+00
-2.000000 10.000000 -7.686162E-02
-2.000000 8.000000 5.867142E+00
-2.000000 6.000000 -1.989793E+00
-2.000000 4.000000 -1.550402E+01
-2.000000 2.000000 -2.129956E+01
-2.000000 0.000000 -1.635585E+01
-2.000000 -2.000000 -1.136920E+01
-2.000000 -4.000000 -9.487448E+00
-2.000000 -6.000000 -4.190105E+00
-2.000000 -8.000000 -2.632616E+00
-2.000000 -10.000000 -9.747479E+00
-2.000000 -12.000000 -2.186872E+01
-2.000000 -14.000000 -2.697121E+01
-2.000000 -16.000000 -1.536268E+01
-2.000000 -18.000000 4.236876E+00
-2.000000 -20.000000 1.063023E+01
-2.000000 -22.000000 -5.293107E-02
-2.000000 -24.000000 -1.338355E+01
-2.000000 -26.000000 -1.648578E+01
-2.000000 -28.000000 -1.319579E+01
-2.000000 -30.000000 -1.537429E+01
-2.000000 -32.000000 -1.677209E+01
-2.000000 -34.000000 -1.247090E+01
-2.000000 -36.000000 -7.875138E+00
-2.000000 -38.000000 -5.152328E+00
-2.000000 -40.000000 1.295507E+00
0.000000 40.000000 -3.086057E+01
0.000000 38.000000 -2.208216E+01
0.000000 36.000000 -1.209586E+01
0.000000 34.000000 5.394921E+00
0.000000 32.000000 1.808947E+01
0.000000 30.000000 1.960783E+01
0.000000 28.000000 1.330099E+01
0.000000 26.000000 7.584371E+00
0.000000 24.000000 1.152042E+01
0.000000 22.000000 1.617353E+01
0.000000 20.000000 1.413826E+01
0.000000 18.000000 5.559096E+00
0.000000 16.000000 -3.522082E+00
0.000000 14.000000 -7.407322E+00
0.000000 12.000000 -3.622861E+00
0.000000 10.000000 3.427825E+00
0.000000 8.000000 7.380583E+00
0.000000 6.000000 -3.650864E+00
0.000000 4.000000 -2.248615E+01
0.000000 2.000000 -3.181946E+01
0.000000 0.000000 -2.792644E+01
0.000000 -2.000000 -2.188840E+01
0.000000 -4.000000 -1.901878E+01
0.000000 -6.000000 -1.320462E+01
0.000000 -8.000000 -1.002725E+01
0.000000 -10.000000 -1.407275E+01
0.000000 -12.000000 -2.201645E+01
0.000000 -14.000000 -2.386166E+01
0.000000 -16.000000 -1.162667E+01
0.000000 -18.000000 6.049830E+00
0.000000 -20.000000 1.217753E+01
0.000000 -22.000000 4.780252E+00
0.000000 -24.000000 -2.663135E+00
0.000000 -26.000000 -2.100363E+00
0.000000 -28.000000 1.827977E+00
0.000000 -30.000000 -7.798879E-01
0.000000 -32.000000 -5.362149E+00
0.000000 -34.000000 -5.824391E+00
0.000000 -36.000000 -5.298701E+00
0.000000 -38.000000 -4.725860E+00
0.000000 -40.000000 1.392099E+00
2.000000 40.000000 -2.807204E+01
2.000000 38.000000 -1.764950E+01
2.000000 36.000000 -8.180383E+00
2.000000 34.000000 8.491720E+00
2.000000 32.000000 2.113913E+01
2.000000 30.000000 2.181586E+01
2.000000 28.000000 1.382136E+01
2.000000 26.000000 7.581471E+00
2.000000 24.000000 1.053092E+01
2.000000 22.000000 1.130115E+01
2.000000 20.000000 6.234280E+00
2.000000 18.000000 -1.800527E+00
2.000000 16.000000 -8.329944E+00
2.000000 14.000000 -6.988505E+00
2.000000 12.000000 4.349242E+00
2.000000 10.000000 1.470257E+01
2.000000 8.000000 1.557297E+01
2.000000 6.000000 -1.879232E+00
2.000000 4.000000 -3.062158E+01
2.000000 2.000000 -4.772488E+01
2.000000 0.000000 -4.713018E+01
2.000000 -2.000000 -3.940926E+01
2.000000 -4.000000 -3.203731E+01
2.000000 -6.000000 -2.154947E+01
2.000000 -8.000000 -1.494289E+01
2.000000 -10.000000 -1.594504E+01
2.000000 -12.000000 -2.019052E+01
2.000000 -14.000000 -1.876159E+01
2.000000 -16.000000 -7.255756E+00
2.000000 -18.000000 6.264506E+00
2.000000 -20.000000 1.072638E+01
2.000000 -22.000000 7.164781E+00
2.000000 -24.000000 5.721989E+00
2.000000 -26.000000 9.240956E+00
2.000000 -28.000000 1.354915E+01
2.000000 -30.000000 1.005710E+01
2.000000 -32.000000 2.915728E+00
2.000000 -34.000000 -1.390060E+00
2.000000 -36.000000 -3.779230E+00
2.000000 -38.000000 -3.890331E+00
2.000000 -40.000000 2.329154E+00
4.000000 40.000000 -2.166987E+01
4.000000 38.000000 -1.122827E+01
4.000000 36.000000 -3.634548E+00
4.000000 34.000000 9.876984E+00
4.000000 32.000000 2.092315E+01
4.000000 30.000000 2.209780E+01
4.000000 28.000000 1.523091E+01
4.000000 26.000000 8.567487E+00
4.000000 24.000000 8.614302E+00
4.000000 22.000000 7.583216E+00
4.000000 20.000000 2.922514E+00
4.000000 18.000000 -2.272478E+00
4.000000 16.000000 -4.234729E+00
4.000000 14.000000 1.078239E+00
4.000000 12.000000 1.395058E+01
4.000000 10.000000 2.717872E+01
4.000000 8.000000 2.809759E+01
4.000000 6.000000 5.736593E+00
4.000000 4.000000 -3.414902E+01
4.000000 2.000000 -6.283808E+01
4.000000 0.000000 -6.985634E+01
4.000000 -2.000000 -6.152752E+01
4.000000 -4.000000 -4.702489E+01
4.000000 -6.000000 -2.726224E+01
4.000000 -8.000000 -1.531637E+01
4.000000 -10.000000 -1.466893E+01
4.000000 -12.000000 -1.883755E+01
4.000000 -14.000000 -1.694675E+01
4.000000 -16.000000 -6.701214E+00
4.000000 -18.000000 4.689826E+00
4.000000 -20.000000 8.128289E+00
4.000000 -22.000000 7.376480E+00
4.000000 -24.000000 9.941527E+00
4.000000 -26.000000 1.531374E+01
4.000000 -28.000000 1.983574E+01
4.000000 -30.000000 1.403833E+01
4.000000 -32.000000 4.791676E+00
4.000000 -34.000000 -4.782409E-01
4.000000 -36.000000 -3.555245E+00
4.000000 -38.000000 -2.975519E+00
4.000000 -40.000000 4.378730E+00
6.000000 40.000000 -1.307741E+01
6.000000 38.000000 -2.858934E+00
6.000000 36.000000 2.538371E+00
6.000000 34.000000 1.074122E+01
6.000000 32.000000 1.851217E+01
6.000000 30.000000 2.185057E+01
6.000000 28.000000 1.811631E+01
6.000000 26.000000 9.901967E+00
6.000000 24.000000 6.069293E+00
6.000000 22.000000 4.814615E+00
6.000000 20.000000 1.372673E+00
6.000000 18.000000 -2.102522E+00
6.000000 16.000000 -7.593460E-01
6.000000 14.000000 7.278846E+00
6.000000 12.000000 2.133854E+01
6.000000 10.000000 3.872423E+01
6.000000 8.000000 4.370778E+01
6.000000 6.000000 2.117845E+01
6.000000 4.000000 -2.810679E+01
6.000000 2.000000 -7.048255E+01
6.000000 0.000000 -8.715751E+01
6.000000 -2.000000 -7.905609E+01
6.000000 -4.000000 -5.799267E+01
6.000000 -6.000000 -2.948481E+01
6.000000 -8.000000 -1.321026E+01
6.000000 -10.000000 -1.246341E+01
6.000000 -12.000000 -1.885956E+01
6.000000 -14.000000 -1.900815E+01
6.000000 -16.000000 -1.089636E+01
6.000000 -18.000000 8.743382E-02
6.000000 -20.000000 5.002804E+00
6.000000 -22.000000 6.030102E+00
6.000000 -24.000000 9.607390E+00
6.000000 -26.000000 1.452524E+01
6.000000 -28.000000 1.706954E+01
6.000000 -30.000000 9.692473E+00
6.000000 -32.000000 3.388541E-01
6.000000 -34.000000 -3.456750E+00
6.000000 -36.000000 -4.010530E+00
6.000000 -38.000000 -1.295200E+00
6.000000 -40.000000 7.897455E+00
8.000000 40.000000 -4.043851E+00
8.000000 38.000000 6.694943E+00
8.000000 36.000000 1.089277E+01
8.000000 34.000000 1.441890E+01
8.000000 32.000000 1.796784E+01
8.000000 30.000000 2.061748E+01
8.000000 28.000000 1.810374E+01
8.000000 26.000000 9.385813E+00
8.000000 24.000000 3.667834E+00
8.000000 22.000000 2.828113E+00
8.000000 20.000000 8.588314E-02
8.000000 18.000000 -3.990392E+00
8.000000 16.000000 -2.707641E+00
8.000000 14.000000 6.487390E+00
8.000000 12.000000 2.449068E+01
8.000000 10.000000 4.890366E+01
8.000000 8.000000 5.950570E+01
8.000000 6.000000 4.099586E+01
8.000000 4.000000 -1.355905E+01
8.000000 2.000000 -6.934981E+01
8.000000 0.000000 -9.705450E+01
8.000000 -2.000000 -9.074283E+01
8.000000 -4.000000 -6.474508E+01
8.000000 -6.000000 -2.971181E+01
8.000000 -8.000000 -9.664404E+00
8.000000 -10.000000 -8.434729E+00
8.000000 -12.000000 -1.887283E+01
8.000000 -14.000000 -2.440228E+01
8.000000 -16.000000 -1.933786E+01
8.000000 -18.000000 -6.839346E+00
8.000000 -20.000000 1.805244E+00
8.000000 -22.000000 3.569236E+00
8.000000 -24.000000 4.317507E+00
8.000000 -26.000000 7.217889E+00
8.000000 -28.000000 7.756360E+00
8.000000 -30.000000 -2.439082E-01
8.000000 -32.000000 -7.932139E+00
8.000000 -34.000000 -7.796063E+00
8.000000 -36.000000 -3.363502E+00
8.000000 -38.000000 1.603525E+00
8.000000 -40.000000 1.177966E+01
10.000000 40.000000 2.994653E+00
10.000000 38.000000 1.563383E+01
10.000000 36.000000 2.122965E+01
10.000000 34.000000 2.303147E+01
10.000000 32.000000 2.192583E+01
10.000000 30.000000 1.962223E+01
10.000000 28.000000 1.467376E+01
10.000000 26.000000 7.162089E+00
10.000000 24.000000 2.564742E+00
10.000000 22.000000 1.694862E+00
10.000000 20.000000 -1.283382E+00
10.000000 18.000000 -6.955413E+00
10.000000 16.000000 -8.325306E+00
10.000000 14.000000 -5.481567E-01
10.000000 12.000000 2.047962E+01
10.000000 10.000000 5.195377E+01
10.000000 8.000000 6.882290E+01
10.000000 6.000000 5.510089E+01
10.000000 4.000000 4.818573E-01
10.000000 2.000000 -6.200680E+01
10.000000 0.000000 -9.780194E+01
10.000000 -2.000000 -9.468111E+01
10.000000 -4.000000 -6.717052E+01
10.000000 -6.000000 -2.918220E+01
10.000000 -8.000000 -7.322606E+00
10.000000 -10.000000 -6.227023E+00
10.000000 -12.000000 -2.098280E+01
10.000000 -14.000000 -3.099407E+01
10.000000 -16.000000 -2.735642E+01
10.000000 -18.000000 -1.287167E+01
10.000000 -20.000000 -1.818919E+00
10.000000 -22.000000 -4.561720E-01
10.000000 -24.000000 -3.689770E+00
10.000000 -26.000000 -3.050051E+00
10.000000 -28.000000 -2.148153E+00
10.000000 -30.000000 -9.565748E+00
10.000000 -32.000000 -1.497307E+01
10.000000 -34.000000 -1.020761E+01
10.000000 -36.000000 -2.040727E+00
10.000000 -38.000000 3.896717E+00
10.000000 -40.000000 1.466201E+01
12.000000 40.000000 6.005537E+00
12.000000 38.000000 2.203447E+01
12.000000 36.000000 3.089459E+01
12.000000 34.000000 3.369402E+01
12.000000 32.000000 2.896899E+01
12.000000 30.000000 2.080179E+01
12.000000 28.000000 1.162167E+01
12.000000 26.000000 4.323187E+00
12.000000 24.000000 2.455100E+00
12.000000 22.000000 3.116072E+00
12.000000 20.000000 4.320354E-01
12.000000 18.000000 -6.202851E+00
12.000000 16.000000 -1.080075E+01
12.000000 14.000000 -7.237193E+00
12.000000 12.000000 1.254236E+01
12.000000 10.000000 4.700474E+01
12.000000 8.000000 6.989557E+01
12.000000 6.000000 6.088659E+01
12.000000 4.000000 1.015738E+01
12.000000 2.000000 -5.189194E+01
12.000000 0.000000 -9.121086E+01
12.000000 -2.000000 -9.349390E+01
12.000000 -4.000000 -6.965491E+01
12.000000 -6.000000 -3.442840E+01
12.000000 -8.000000 -1.387428E+01
12.000000 -10.000000 -1.235308E+01
12.000000 -12.000000 -2.736926E+01
12.000000 -14.000000 -3.682263E+01
12.000000 -16.000000 -3.196700E+01
12.000000 -18.000000 -1.685035E+01
12.000000 -20.000000 -5.499445E+00
12.000000 -22.000000 -4.812480E+00
12.000000 -24.000000 -1.014397E+01
12.000000 -26.000000 -1.148880E+01
12.000000 -28.000000 -9.539833E+00
12.000000 -30.000000 -1.365605E+01
12.000000 -32.000000 -1.604306E+01
12.000000 -34.000000 -9.665396E+00
12.000000 -36.000000 -1.068542E+00
12.000000 -38.000000 4.921383E+00
12.000000 -40.000000 1.601865E+01
14.000000 40.000000 3.689846E+00
14.000000 38.000000 2.249548E+01
14.000000 36.000000 3.548609E+01
14.000000 34.000000 4.196127E+01
14.000000 32.000000 3.659357E+01
14.000000 30.000000 2.412948E+01
14.000000 28.000000 1.117249E+01
14.000000 26.000000 2.613065E+00
14.000000 24.000000 2.947044E+00
14.000000 22.000000 7.759801E+00
14.000000 20.000000 8.468099E+00
14.000000 18.000000 3.465792E+00
14.000000 16.000000 -3.198703E+00
14.000000 14.000000 -5.453265E+00
14.000000 12.000000 9.015850E+00
14.000000 10.000000 4.236572E+01
14.000000 8.000000 6.876974E+01
14.000000 6.000000 6.423015E+01
14.000000 4.000000 1.856827E+01
14.000000 2.000000 -4.149389E+01
14.000000 0.000000 -8.399285E+01
14.000000 -2.000000 -9.506061E+01
14.000000 -4.000000 -7.989341E+01
14.000000 -6.000000 -5.044033E+01
14.000000 -8.000000 -3.141912E+01
14.000000 -10.000000 -2.823362E+01
14.000000 -12.000000 -3.939124E+01
14.000000 -14.000000 -4.444670E+01
14.000000 -16.000000 -3.624641E+01
14.000000 -18.000000 -1.947811E+01
14.000000 -20.000000 -7.591012E+00
14.000000 -22.000000 -7.193408E+00
14.000000 -24.000000 -1.375262E+01
14.000000 -26.000000 -1.626126E+01
14.000000 -28.000000 -1.308479E+01
14.000000 -30.000000 -1.371181E+01
14.000000 -32.000000 -1.344212E+01
14.000000 -34.000000 -6.385074E+00
14.000000 -36.000000 1.253659E+00
14.000000 -38.000000 6.063440E+00
14.000000 -40.000000 1.634176E+01
16.000000 40.000000 -4.247902E+00
16.000000 38.000000 1.561714E+01
16.000000 36.000000 3.287189E+01
16.000000 34.000000 4.525196E+01
16.000000 32.000000 4.264637E+01
16.000000 30.000000 2.789834E+01
16.000000 28.000000 1.214314E+01
16.000000 26.000000 2.186285E+00
16.000000 24.000000 4.477730E+00
16.000000 22.000000 1.472166E+01
16.000000 20.000000 2.088304E+01
16.000000 18.000000 1.954253E+01
16.000000 16.000000 1.322165E+01
16.000000 14.000000 8.017447E+00
16.000000 12.000000 1.651470E+01
16.000000 10.000000 4.497390E+01
16.000000 8.000000 7.204380E+01
16.000000 6.000000 6.977136E+01
16.000000 4.000000 2.775603E+01
16.000000 2.000000 -3.111870E+01
16.000000 0.000000 -7.805977E+01
16.000000 -2.000000 -9.899102E+01
16.000000 -4.000000 -9.518684E+01
16.000000 -6.000000 -7.329020E+01
16.000000 -8.000000 -5.577726E+01
16.000000 -10.000000 -5.097228E+01
16.000000 -12.000000 -5.714703E+01
16.000000 -14.000000 -5.675916E+01
16.000000 -16.000000 -4.363507E+01
16.000000 -18.000000 -2.310826E+01
16.000000 -20.000000 -9.333232E+00
16.000000 -22.000000 -7.989424E+00
16.000000 -24.000000 -1.500937E+01
16.000000 -26.000000 -1.838999E+01
16.000000 -28.000000 -1.444598E+01
16.000000 -30.000000 -1.353480E+01
16.000000 -32.000000 -1.084759E+01
16.000000 -34.000000 -1.058275E+00
16.000000 -36.000000 6.125313E+00
16.000000 -38.000000 8.433246E+00
16.000000 -40.000000 1.667805E+01
18.000000 40.000000 -1.522103E+01
18.000000 38.000000 3.118618E+00
18.000000 36.000000 2.233520E+01
18.000000 34.000000 4.115918E+01
18.000000 32.000000 4.427209E+01
18.000000 30.000000 2.972640E+01
18.000000 28.000000 1.230594E+01
18.000000 26.000000 8.131633E-01
18.000000 24.000000 5.526261E+00
18.000000 22.000000 2.135426E+01
18.000000 20.000000 3.338555E+01
18.000000 18.000000 3.690568E+01
18.000000 16.000000 3.374698E+01
18.000000 14.000000 2.955207E+01
18.000000 12.000000 3.414394E+01
18.000000 10.000000 5.764297E+01
18.000000 8.000000 8.303077E+01
18.000000 6.000000 8.001580E+01
18.000000 4.000000 3.845702E+01
18.000000 2.000000 -2.106569E+01
18.000000 0.000000 -7.245648E+01
18.000000 -2.000000 -1.025923E+02
18.000000 -4.000000 -1.106735E+02
18.000000 -6.000000 -9.728820E+01
18.000000 -8.000000 -8.139976E+01
18.000000 -10.000000 -7.553267E+01
18.000000 -12.000000 -7.781557E+01
18.000000 -14.000000 -7.411306E+01
18.000000 -16.000000 -5.651607E+01
18.000000 -18.000000 -3.021026E+01
18.000000 -20.000000 -1.163041E+01
18.000000 -22.000000 -7.873780E+00
18.000000 -24.000000 -1.436306E+01
18.000000 -26.000000 -1.880911E+01
18.000000 -28.000000 -1.549805E+01
18.000000 -30.000000 -1.393507E+01
18.000000 -32.000000 -8.439206E+00
18.000000 -34.000000 4.615090E+00
18.000000 -36.000000 1.216902E+01
18.000000 -38.000000 1.247748E+01
18.000000 -40.000000 1.748656E+01
20.000000 40.000000 -2.539375E+01
20.000000 38.000000 -1.251164E+01
20.000000 36.000000 4.680288E+00
20.000000 34.000000 2.813845E+01
20.000000 32.000000 3.911686E+01
20.000000 30.000000 2.906962E+01
20.000000 28.000000 1.217214E+01
20.000000 26.000000 -7.853603E-01
20.000000 24.000000 5.459587E+00
20.000000 22.000000 2.522507E+01
20.000000 20.000000 4.229939E+01
20.000000 18.000000 5.066778E+01
20.000000 16.000000 5.159487E+01
20.000000 14.000000 5.051572E+01
20.000000 12.000000 5.412509E+01
20.000000 10.000000 7.362019E+01
20.000000 8.000000 9.350772E+01
20.000000 6.000000 8.864876E+01
20.000000 4.000000 4.693531E+01
20.000000 2.000000 -1.364244E+01
20.000000 0.000000 -6.826832E+01
20.000000 -2.000000 -1.055713E+02
20.000000 -4.000000 -1.221810E+02
20.000000 -6.000000 -1.147357E+02
20.000000 -8.000000 -9.991742E+01
20.000000 -10.000000 -9.447452E+01
20.000000 -12.000000 -9.688579E+01
20.000000 -14.000000 -9.446291E+01
20.000000 -16.000000 -7.392221E+01
20.000000 -18.000000 -3.918668E+01
20.000000 -20.000000 -1.251260E+01
20.000000 -22.000000 -5.783703E+00
20.000000 -24.000000 -1.330710E+01
20.000000 -26.000000 -1.872871E+01
20.000000 -28.000000 -1.480999E+01
20.000000 -30.000000 -1.265081E+01
20.000000 -32.000000 -5.642492E+00
20.000000 -34.000000 1.049707E+01
20.000000 -36.000000 1.829638E+01
20.000000 -38.000000 1.610831E+01
20.000000 -40.000000 1.771150E+01
22.000000 40.000000 -3.356648E+01
22.000000 38.000000 -2.743704E+01
22.000000 36.000000 -1.389562E+01
22.000000 34.000000 1.085229E+01
22.000000 32.000000 2.871396E+01
22.000000 30.000000 2.673491E+01
22.000000 28.000000 1.313679E+01
22.000000 26.000000 1.633749E-01
22.000000 24.000000 6.000191E+00
22.000000 22.000000 2.614098E+01
22.000000 20.000000 4.482283E+01
22.000000 18.000000 5.430495E+01
22.000000 16.000000 5.667833E+01
22.000000 14.000000 5.779526E+01
22.000000 12.000000 6.193334E+01
22.000000 10.000000 7.854556E+01
22.000000 8.000000 9.387565E+01
22.000000 6.000000 8.870844E+01
22.000000 4.000000 4.950118E+01
22.000000 2.000000 -8.960115E+00
22.000000 0.000000 -6.475619E+01
22.000000 -2.000000 -1.056440E+02
22.000000 -4.000000 -1.266098E+02
22.000000 -6.000000 -1.219742E+02
22.000000 -8.000000 -1.072669E+02
22.000000 -10.000000 -1.024309E+02
22.000000 -12.000000 -1.080132E+02
22.000000 -14.000000 -1.095656E+02
22.000000 -16.000000 -8.694625E+01
22.000000 -18.000000 -4.529243E+01
22.000000 -20.000000 -1.276153E+01
22.000000 -22.000000 -3.376963E+00
22.000000 -24.000000 -1.173271E+01
22.000000 -26.000000 -1.786044E+01
22.000000 -28.000000 -1.287556E+01
22.000000 -30.000000 -9.447293E+00
22.000000 -32.000000 -8.439035E-01
22.000000 -34.000000 1.699654E+01
22.000000 -36.000000 2.342367E+01
22.000000 -38.000000 1.713004E+01
22.000000 -40.000000 1.594581E+01
24.000000 40.000000 -3.883681E+01
24.000000 38.000000 -3.839249E+01
24.000000 36.000000 -2.839431E+01
24.000000 34.000000 -3.843343E+00
24.000000 32.000000 1.905990E+01
24.000000 30.000000 2.452846E+01
24.000000 28.000000 1.374248E+01
24.000000 26.000000 2.760696E-01
24.000000 24.000000 5.047240E+00
24.000000 22.000000 2.318449E+01
24.000000 20.000000 3.978472E+01
24.000000 18.000000 4.604202E+01
24.000000 16.000000 4.688727E+01
24.000000 14.000000 4.782786E+01
24.000000 12.000000 5.231894E+01
24.000000 10.000000 6.662517E+01
24.000000 8.000000 8.285647E+01
24.000000 6.000000 7.992741E+01
24.000000 4.000000 4.531015E+01
24.000000 2.000000 -8.064835E+00
24.000000 0.000000 -6.085653E+01
24.000000 -2.000000 -9.987295E+01
24.000000 -4.000000 -1.211719E+02
24.000000 -6.000000 -1.166891E+02
24.000000 -8.000000 -1.019382E+02
24.000000 -10.000000 -9.778102E+01
24.000000 -12.000000 -1.079776E+02
24.000000 -14.000000 -1.140102E+02
24.000000 -16.000000 -9.256942E+01
24.000000 -18.000000 -4.994156E+01
24.000000 -20.000000 -1.543410E+01
24.000000 -22.000000 -3.616077E+00
24.000000 -24.000000 -9.874692E+00
24.000000 -26.000000 -1.598243E+01
24.000000 -28.000000 -1.087645E+01
24.000000 -30.000000 -4.383676E+00
24.000000 -32.000000 6.922878E+00
24.000000 -34.000000 2.263627E+01
24.000000 -36.000000 2.561663E+01
24.000000 -38.000000 1.607832E+01
24.000000 -40.000000 1.236218E+01
26.000000 40.000000 -4.035279E+01
26.000000 38.000000 -4.343623E+01
26.000000 36.000000 -3.645694E+01
26.000000 34.000000 -1.229680E+01
26.000000 32.000000 1.374458E+01
26.000000 30.000000 2.313656E+01
26.000000 28.000000 1.220689E+01
26.000000 26.000000 -4.744521E+00
26.000000 24.000000 -3.804890E+00
26.000000 22.000000 1.213409E+01
26.000000 20.000000 2.750126E+01
26.000000 18.000000 3.350349E+01
26.000000 16.000000 3.408489E+01
26.000000 14.000000 3.311173E+01
26.000000 12.000000 3.578081E+01
26.000000 10.000000 4.763847E+01
26.000000 8.000000 6.670912E+01
26.000000 6.000000 6.724086E+01
26.000000 4.000000 3.763657E+01
26.000000 2.000000 -1.074206E+01
26.000000 0.000000 -5.824743E+01
26.000000 -2.000000 -9.085612E+01
26.000000 -4.000000 -1.064190E+02
26.000000 -6.000000 -9.857918E+01
26.000000 -8.000000 -8.463727E+01
26.000000 -10.000000 -8.424123E+01
26.000000 -12.000000 -1.022769E+02
26.000000 -14.000000 -1.147227E+02
26.000000 -16.000000 -9.837407E+01
26.000000 -18.000000 -5.815690E+01
26.000000 -20.000000 -2.275337E+01
26.000000 -22.000000 -8.339272E+00
26.000000 -24.000000 -1.074345E+01
26.000000 -26.000000 -1.503986E+01
26.000000 -28.000000 -7.142498E+00
26.000000 -30.000000 3.625273E+00
26.000000 -32.000000 1.609814E+01
26.000000 -34.000000 2.768929E+01
26.000000 -36.000000 2.537743E+01
26.000000 -38.000000 1.331265E+01
26.000000 -40.000000 7.406977E+00
28.000000 40.000000 -3.892138E+01
28.000000 38.000000 -4.156808E+01
28.000000 36.000000 -3.540903E+01
28.000000 34.000000 -1.275674E+01
28.000000 32.000000 1.270692E+01
28.000000 30.000000 2.107928E+01
28.000000 28.000000 7.309391E+00
28.000000 26.000000 -1.510360E+01
28.000000 24.000000 -2.240004E+01
28.000000 22.000000 -8.751342E+00
28.000000 20.000000 1.011819E+01
28.000000 18.000000 2.288299E+01
28.000000 16.000000 2.609904E+01
28.000000 14.000000 2.377537E+01
28.000000 12.000000 2.373713E+01
28.000000 10.000000 3.373318E+01
28.000000 8.000000 5.400111E+01
28.000000 6.000000 5.718511E+01
28.000000 4.000000 3.298559E+01
28.000000 2.000000 -1.075078E+01
28.000000 0.000000 -5.345732E+01
28.000000 -2.000000 -7.853713E+01
28.000000 -4.000000 -8.608126E+01
28.000000 -6.000000 -7.517693E+01
28.000000 -8.000000 -6.379862E+01
28.000000 -10.000000 -6.995397E+01
28.000000 -12.000000 -9.828784E+01
28.000000 -14.000000 -1.189000E+02
28.000000 -16.000000 -1.081178E+02
28.000000 -18.000000 -7.048935E+01
28.000000 -20.000000 -3.557628E+01
28.000000 -22.000000 -1.890847E+01
28.000000 -24.000000 -1.657618E+01
28.000000 -26.000000 -1.611568E+01
28.000000 -28.000000 -1.866998E+00
28.000000 -30.000000 1.350411E+01
28.000000 -32.000000 2.563035E+01
28.000000 -34.000000 3.270368E+01
28.000000 -36.000000 2.369590E+01
28.000000 -38.000000 8.503954E+00
28.000000 -40.000000 1.825630E+00
30.000000 40.000000 -3.436644E+01
30.000000 38.000000 -3.420360E+01
30.000000 36.000000 -2.771834E+01
30.000000 34.000000 -7.113020E+00
30.000000 32.000000 1.503520E+01
30.000000 30.000000 1.874044E+01
30.000000 28.000000 -1.480670E-01
30.000000 26.000000 -2.976277E+01
30.000000 24.000000 -4.673004E+01
30.000000 22.000000 -3.493586E+01
30.000000 20.000000 -1.053006E+01
30.000000 18.000000 1.092297E+01
30.000000 16.000000 1.907073E+01
30.000000 14.000000 2.008870E+01
30.000000 12.000000 2.185186E+01
30.000000 10.000000 3.362716E+01
30.000000 8.000000 5.472968E+01
30.000000 6.000000 6.004700E+01
30.000000 4.000000 3.870484E+01
30.000000 2.000000 -2.541983E+00
30.000000 0.000000 -4.209021E+01
30.000000 -2.000000 -6.309171E+01
30.000000 -4.000000 -6.522446E+01
30.000000 -6.000000 -5.525758E+01
30.000000 -8.000000 -5.024887E+01
30.000000 -10.000000 -6.426659E+01
30.000000 -12.000000 -9.982550E+01
30.000000 -14.000000 -1.253766E+02
30.000000 -16.000000 -1.184169E+02
30.000000 -18.000000 -8.481027E+01
30.000000 -20.000000 -5.220963E+01
30.000000 -22.000000 -3.456062E+01
30.000000 -24.000000 -2.621046E+01
30.000000 -26.000000 -1.739270E+01
30.000000 -28.000000 3.422523E+00
30.000000 -30.000000 2.348388E+01
30.000000 -32.000000 3.503896E+01
30.000000 -34.000000 3.603809E+01
30.000000 -36.000000 2.057390E+01
30.000000 -38.000000 3.161899E+00
30.000000 -40.000000 -3.335290E+00
32.000000 40.000000 -2.734166E+01
32.000000 38.000000 -2.452069E+01
32.000000 36.000000 -1.758263E+01
32.000000 34.000000 7.354821E-01
32.000000 32.000000 1.844942E+01
32.000000 30.000000 1.604451E+01
32.000000 28.000000 -8.426642E+00
32.000000 26.000000 -4.289917E+01
32.000000 24.000000 -6.785401E+01
32.000000 22.000000 -5.884197E+01
32.000000 20.000000 -3.231462E+01
32.000000 18.000000 -4.678555E+00
32.000000 16.000000 1.126461E+01
32.000000 14.000000 2.126923E+01
32.000000 12.000000 3.166888E+01
32.000000 10.000000 5.101464E+01
32.000000 8.000000 7.185826E+01
32.000000 6.000000 7.592057E+01
32.000000 4.000000 5.084304E+01
32.000000 2.000000 8.513435E+00
32.000000 0.000000 -2.952115E+01
32.000000 -2.000000 -5.102372E+01
32.000000 -4.000000 -5.287255E+01
32.000000 -6.000000 -4.420306E+01
32.000000 -8.000000 -4.512924E+01
32.000000 -10.000000 -6.611328E+01
32.000000 -12.000000 -1.040844E+02
32.000000 -14.000000 -1.308323E+02
32.000000 -16.000000 -1.249876E+02
32.000000 -18.000000 -9.389428E+01
32.000000 -20.000000 -6.428979E+01
32.000000 -22.000000 -4.808531E+01
32.000000 -24.000000 -3.566841E+01
32.000000 -26.000000 -1.892790E+01
32.000000 -28.000000 8.203070E+00
32.000000 -30.000000 3.185105E+01
32.000000 -32.000000 4.115813E+01
32.000000 -34.000000 3.629728E+01
32.000000 -36.000000 1.680758E+01
32.000000 -38.000000 -1.186202E+00
32.000000 -40.000000 -7.764897E+00
34.000000 40.000000 -2.111657E+01
34.000000 38.000000 -1.528530E+01
34.000000 36.000000 -6.774413E+00
34.000000 34.000000 8.835898E+00
34.000000 32.000000 2.131192E+01
34.000000 30.000000 1.364265E+01
34.000000 28.000000 -1.380229E+01
34.000000 26.000000 -4.757202E+01
34.000000 24.000000 -7.515233E+01
34.000000 22.000000 -7.091422E+01
34.000000 20.000000 -4.874027E+01
34.000000 18.000000 -2.053754E+01
34.000000 16.000000 2.185424E+00
34.000000 14.000000 2.249609E+01
34.000000 12.000000 4.544265E+01
34.000000 10.000000 7.340212E+01
34.000000 8.000000 9.083269E+01
34.000000 6.000000 8.760146E+01
34.000000 4.000000 5.538618E+01
34.000000 2.000000 1.218785E+01
34.000000 0.000000 -2.271129E+01
34.000000 -2.000000 -4.265339E+01
34.000000 -4.000000 -4.540002E+01
34.000000 -6.000000 -3.897847E+01
34.000000 -8.000000 -4.368628E+01
34.000000 -10.000000 -6.785670E+01
34.000000 -12.000000 -1.039907E+02
34.000000 -14.000000 -1.279285E+02
34.000000 -16.000000 -1.209775E+02
34.000000 -18.000000 -9.076584E+01
34.000000 -20.000000 -6.484217E+01
34.000000 -22.000000 -5.202225E+01
34.000000 -24.000000 -3.940438E+01
34.000000 -26.000000 -2.019565E+01
34.000000 -28.000000 9.818413E+00
34.000000 -30.000000 3.411232E+01
34.000000 -32.000000 4.050702E+01
34.000000 -34.000000 3.270451E+01
34.000000 -36.000000 1.271212E+01
34.000000 -38.000000 -4.267531E+00
34.000000 -40.000000 -1.067654E+01
36.000000 40.000000 -1.731293E+01
36.000000 38.000000 -9.120785E+00
36.000000 36.000000 6.074800E-01
36.000000 34.000000 1.441939E+01
36.000000 32.000000 2.366680E+01
36.000000 30.000000 1.403431E+01
36.000000 28.000000 -1.216638E+01
36.000000 26.000000 -4.232069E+01
36.000000 24.000000 -6.757701E+01
36.000000 22.000000 -6.751014E+01
36.000000 20.000000 -5.215190E+01
36.000000 18.000000 -2.831064E+01
36.000000 16.000000 -3.882454E+00
36.000000 14.000000 2.236960E+01
36.000000 12.000000 5.385509E+01
36.000000 10.000000 8.616422E+01
36.000000 8.000000 9.736614E+01
36.000000 6.000000 8.334854E+01
36.000000 4.000000 4.333349E+01
36.000000 2.000000 1.901861E+00
36.000000 0.000000 -2.564640E+01
36.000000 -2.000000 -3.880031E+01
36.000000 -4.000000 -4.020356E+01
36.000000 -6.000000 -3.603037E+01
36.000000 -8.000000 -4.286533E+01
36.000000 -10.000000 -6.635970E+01
36.000000 -12.000000 -9.636547E+01
36.000000 -14.000000 -1.125504E+02
36.000000 -16.000000 -1.020102E+02
36.000000 -18.000000 -7.427373E+01
36.000000 -20.000000 -5.263346E+01
36.000000 -22.000000 -4.374143E+01
36.000000 -24.000000 -3.394674E+01
36.000000 -26.000000 -1.738966E+01
36.000000 -28.000000 8.131065E+00
36.000000 -30.000000 2.824596E+01
36.000000 -32.000000 3.247257E+01
36.000000 -34.000000 2.508463E+01
36.000000 -36.000000 8.427555E+00
36.000000 -38.000000 -5.991594E+00
36.000000 -40.000000 -1.181231E+01
38.000000 40.000000 -1.558566E+01
38.000000 38.000000 -8.000339E+00
38.000000 36.000000 1.048038E+00
38.000000 34.000000 1.460171E+01
38.000000 32.000000 2.461810E+01
38.000000 30.000000 1.774570E+01
38.000000 28.000000 -3.258352E+00
38.000000 26.000000 -2.793056E+01
38.000000 24.000000 -4.789365E+01
38.000000 22.000000 -5.048439E+01
38.000000 20.000000 -4.149108E+01
38.000000 18.000000 -2.475462E+01
38.000000 16.000000 -3.673824E+00
38.000000 14.000000 2.160912E+01
38.000000 12.000000 5.241554E+01
38.000000 10.000000 8.305189E+01
38.000000 8.000000 8.670840E+01
38.000000 6.000000 6.238619E+01
38.000000 4.000000 1.631497E+01
38.000000 2.000000 -2.069193E+01
38.000000 0.000000 -3.700883E+01
38.000000 -2.000000 -3.835805E+01
38.000000 -4.000000 -3.529021E+01
38.000000 -6.000000 -3.063316E+01
38.000000 -8.000000 -3.730315E+01
38.000000 -10.000000 -5.885307E+01
38.000000 -12.000000 -8.214283E+01
38.000000 -14.000000 -9.043633E+01
38.000000 -16.000000 -7.543865E+01
38.000000 -18.000000 -5.042614E+01
38.000000 -20.000000 -3.340826E+01
38.000000 -22.000000 -2.906116E+01
38.000000 -24.000000 -2.373382E+01
38.000000 -26.000000 -1.176072E+01
38.000000 -28.000000 6.837832E+00
38.000000 -30.000000 1.972446E+01
38.000000 -32.000000 2.060257E+01
38.000000 -34.000000 1.592836E+01
38.000000 -36.000000 4.630777E+00
38.000000 -38.000000 -7.092242E+00
38.000000 -40.000000 -1.214668E+01
40.000000 40.000000 -1.527165E+01
40.000000 38.000000 -1.104904E+01
40.000000 36.000000 -4.900018E+00
40.000000 34.000000 9.786896E+00
40.000000 32.000000 2.416529E+01
40.000000 30.000000 2.372635E+01
40.000000 28.000000 9.917043E+00
40.000000 26.000000 -8.262855E+00
40.000000 24.000000 -2.147619E+01
40.000000 22.000000 -2.607607E+01
40.000000 20.000000 -2.382744E+01
40.000000 18.000000 -1.618415E+01
40.000000 16.000000 -2.482642E+00
40.000000 14.000000 1.663836E+01
40.000000 12.000000 4.099793E+01
40.000000 10.000000 6.538130E+01
40.000000 8.000000 6.359223E+01
40.000000 6.000000 3.215769E+01
40.000000 4.000000 -1.530884E+01
40.000000 2.000000 -4.486682E+01
40.000000 0.000000 -4.780859E+01
40.000000 -2.000000 -3.486067E+01
40.000000 -4.000000 -2.532658E+01
40.000000 -6.000000 -1.945356E+01
40.000000 -8.000000 -2.529006E+01
40.000000 -10.000000 -4.407526E+01
40.000000 -12.000000 -6.304422E+01
40.000000 -14.000000 -6.739142E+01
40.000000 -16.000000 -5.196531E+01
40.000000 -18.000000 -3.163208E+01
40.000000 -20.000000 -1.970632E+01
40.000000 -22.000000 -1.835597E+01
40.000000 -24.000000 -1.561007E+01
40.000000 -26.000000 -7.122709E+00
40.000000 -28.000000 6.947495E+00
40.000000 -30.000000 1.393661E+01
40.000000 -32.000000 1.181888E+01
40.000000 -34.000000 9.087911E+00
40.000000 -36.000000 1.542325E+00
40.000000 -38.000000 -8.036441E+00
40.000000 -40.000000 -1.216572E+01
42.000000 40.000000 -1.565814E+01
42.000000 38.000000 -1.581618E+01
42.000000 36.000000 -1.349987E+01
42.000000 34.000000 2.746777E+00
42.000000 32.000000 2.282318E+01
42.000000 30.000000 2.945619E+01
42.000000 28.000000 2.261598E+01
42.000000 26.000000 9.594742E+00
42.000000 24.000000 2.255679E+00
42.000000 22.000000 -3.205706E+00
42.000000 20.000000 -7.123586E+00
42.000000 18.000000 -9.630776E+00
42.000000 16.000000 -5.434735E+00
42.000000 14.000000 5.235374E+00
42.000000 12.000000 2.156170E+01
42.000000 10.000000 4.002554E+01
42.000000 8.000000 3.785628E+01
42.000000 6.000000 5.825225E+00
42.000000 4.000000 -3.770928E+01
42.000000 2.000000 -5.869898E+01
42.000000 0.000000 -5.043442E+01
42.000000 -2.000000 -2.665636E+01
42.000000 -4.000000 -1.017727E+01
42.000000 -6.000000 -2.886535E+00
42.000000 -8.000000 -8.799160E+00
42.000000 -10.000000 -2.428108E+01
42.000000 -12.000000 -4.198584E+01
42.000000 -14.000000 -4.838848E+01
42.000000 -16.000000 -3.951698E+01
42.000000 -18.000000 -2.634840E+01
42.000000 -20.000000 -1.843268E+01
42.000000 -22.000000 -1.679568E+01
42.000000 -24.000000 -1.295904E+01
42.000000 -26.000000 -4.653946E+00
42.000000 -28.000000 7.407334E+00
42.000000 -30.000000 1.244318E+01
42.000000 -32.000000 1.001580E+01
42.000000 -34.000000 7.077657E+00
42.000000 -36.000000 -2.818491E-01
42.000000 -38.000000 -8.801618E+00
42.000000 -40.000000 -1.216513E+01
44.000000 40.000000 -1.552446E+01
44.000000 38.000000 -1.882895E+01
44.000000 36.000000 -1.896983E+01
44.000000 34.000000 -3.521313E+00
44.000000 32.000000 1.904803E+01
44.000000 30.000000 3.065602E+01
44.000000 28.000000 2.952787E+01
44.000000 26.000000 2.017097E+01
44.000000 24.000000 1.492267E+01
44.000000 22.000000 7.799784E+00
44.000000 20.000000 -8.084081E-01
44.000000 18.000000 -1.045993E+01
44.000000 16.000000 -1.283356E+01
44.000000 14.000000 -8.169111E+00
44.000000 12.000000 2.571662E+00
44.000000 10.000000 1.817867E+01
44.000000 8.000000 1.909478E+01
44.000000 6.000000 -6.636681E+00
44.000000 4.000000 -4.220941E+01
44.000000 2.000000 -5.650462E+01
44.000000 0.000000 -4.360040E+01
44.000000 -2.000000 -1.684985E+01
44.000000 -4.000000 3.791797E+00
44.000000 -6.000000 1.340610E+01
44.000000 -8.000000 7.881466E+00
44.000000 -10.000000 -5.338933E+00
44.000000 -12.000000 -2.323171E+01
44.000000 -14.000000 -3.456508E+01
44.000000 -16.000000 -3.528251E+01
44.000000 -18.000000 -2.921900E+01
44.000000 -20.000000 -2.424213E+01
44.000000 -22.000000 -2.177094E+01
44.000000 -24.000000 -1.653577E+01
44.000000 -26.000000 -6.152664E+00
44.000000 -28.000000 6.796840E+00
44.000000 -30.000000 1.278435E+01
44.000000 -32.000000 1.188212E+01
44.000000 -34.000000 9.352232E+00
44.000000 -36.000000 1.964860E-01
44.000000 -38.000000 -9.466049E+00
44.000000 -40.000000 -1.234911E+01
46.000000 40.000000 -1.326556E+01
46.000000 38.000000 -1.665447E+01
46.000000 36.000000 -1.873574E+01
46.000000 34.000000 -8.857465E+00
46.000000 32.000000 1.086872E+01
46.000000 30.000000 2.493984E+01
46.000000 28.000000 2.793095E+01
46.000000 26.000000 2.164309E+01
46.000000 24.000000 1.545186E+01
46.000000 22.000000 5.201441E+00
46.000000 20.000000 -6.553124E+00
46.000000 18.000000 -1.759340E+01
46.000000 16.000000 -2.007163E+01
46.000000 14.000000 -1.577503E+01
46.000000 12.000000 -6.601463E+00
46.000000 10.000000 5.955619E+00
46.000000 8.000000 8.019685E+00
46.000000 6.000000 -9.173277E+00
46.000000 4.000000 -3.324925E+01
46.000000 2.000000 -3.927649E+01
46.000000 0.000000 -2.613130E+01
46.000000 -2.000000 -3.858618E+00
46.000000 -4.000000 1.317405E+01
46.000000 -6.000000 2.083063E+01
46.000000 -8.000000 1.681680E+01
46.000000 -10.000000 6.770865E+00
46.000000 -12.000000 -8.338324E+00
46.000000 -14.000000 -2.116155E+01
46.000000 -16.000000 -2.875896E+01
46.000000 -18.000000 -3.035332E+01
46.000000 -20.000000 -3.006928E+01
46.000000 -22.000000 -2.935360E+01
46.000000 -24.000000 -2.524030E+01
46.000000 -26.000000 -1.417101E+01
46.000000 -28.000000 7.000909E-01
46.000000 -30.000000 1.017342E+01
46.000000 -32.000000 1.337468E+01
46.000000 -34.000000 1.344399E+01
46.000000 -36.000000 3.264080E+00
46.000000 -38.000000 -9.076919E+00
46.000000 -40.000000 -1.233057E+01
48.000000 40.000000 -9.341844E+00
48.000000 38.000000 -1.049234E+01
48.000000 36.000000 -1.568714E+01
48.000000 34.000000 -1.398138E+01
48.000000 32.000000 1.203115E+00
48.000000 30.000000 1.608902E+01
48.000000 28.000000 2.058798E+01
48.000000 26.000000 1.626454E+01
48.000000 24.000000 9.562620E+00
48.000000 22.000000 -1.967418E+00
48.000000 20.000000 -1.497950E+01
48.000000 18.000000 -2.394365E+01
48.000000 16.000000 -2.269923E+01
48.000000 14.000000 -1.605442E+01
48.000000 12.000000 -8.395776E+00
48.000000 10.000000 -2.479503E+00
48.000000 8.000000 -3.149412E+00
48.000000 6.000000 -1.116160E+01
48.000000 4.000000 -1.635760E+01
48.000000 2.000000 -7.718536E+00
48.000000 0.000000 4.956475E+00
48.000000 -2.000000 1.475446E+01
48.000000 -4.000000 1.891728E+01
48.000000 -6.000000 1.962036E+01
48.000000 -8.000000 1.713524E+01
48.000000 -10.000000 1.120441E+01
48.000000 -12.000000 6.202829E-01
48.000000 -14.000000 -9.792805E+00
48.000000 -16.000000 -1.907721E+01
48.000000 -18.000000 -2.699089E+01
48.000000 -20.000000 -3.323039E+01
48.000000 -22.000000 -3.724572E+01
48.000000 -24.000000 -3.593039E+01
48.000000 -26.000000 -2.639525E+01
48.000000 -28.000000 -1.114423E+01
48.000000 -30.000000 2.625324E+00
48.000000 -32.000000 1.186380E+01
48.000000 -34.000000 1.571078E+01
48.000000 -36.000000 6.721608E+00
48.000000 -38.000000 -6.854355E+00
48.000000 -40.000000 -1.130136E+01
50.000000 40.000000 -6.577720E+00
50.000000 38.000000 -4.911315E+00
50.000000 36.000000 -1.241893E+01
50.000000 34.000000 -1.693258E+01
50.000000 32.000000 -5.851872E+00
50.000000 30.000000 8.317440E+00
50.000000 28.000000 1.286923E+01
50.000000 26.000000 9.893556E+00
50.000000 24.000000 3.815078E+00
50.000000 22.000000 -5.622936E+00
50.000000 20.000000 -1.628084E+01
50.000000 18.000000 -2.136262E+01
50.000000 16.000000 -1.660135E+01
50.000000 14.000000 -1.085016E+01
50.000000 12.000000 -9.445584E+00
50.000000 10.000000 -1.527947E+01
50.000000 8.000000 -2.366961E+01
50.000000 6.000000 -2.338450E+01
50.000000 4.000000 5.915160E+00
50.000000 2.000000 3.993787E+01
50.000000 0.000000 4.842731E+01
50.000000 -2.000000 3.638284E+01
50.000000 -4.000000 2.115369E+01
50.000000 -6.000000 1.389341E+01
50.000000 -8.000000 1.314892E+01
50.000000 -10.000000 1.026140E+01
50.000000 -12.000000 2.034892E+00
50.000000 -14.000000 -5.924143E+00
50.000000 -16.000000 -1.287598E+01
50.000000 -18.000000 -2.233111E+01
50.000000 -20.000000 -3.316329E+01
50.000000 -22.000000 -4.107508E+01
50.000000 -24.000000 -4.244621E+01
50.000000 -26.000000 -3.608001E+01
50.000000 -28.000000 -2.207675E+01
50.000000 -30.000000 -8.046267E+00
50.000000 -32.000000 5.152589E+00
50.000000 -34.000000 1.330830E+01
50.000000 -36.000000 7.647056E+00
50.000000 -38.000000 -4.509925E+00
50.000000 -40.000000 -9.345821E+00
52.000000 40.000000 -7.055746E+00
52.000000 38.000000 -3.024592E+00
52.000000 36.000000 -1.002886E+01
52.000000 34.000000 -1.620790E+01
52.000000 32.000000 -8.760452E+00
52.000000 30.000000 3.783400E+00
52.000000 28.000000 9.163061E+00
52.000000 26.000000 6.263616E+00
52.000000 24.000000 1.232551E+00
52.000000 22.000000 -3.757127E+00
52.000000 20.000000 -8.902731E+00
52.000000 18.000000 -9.086787E+00
52.000000 16.000000 -2.609860E+00
52.000000 14.000000 1.539164E-01
52.000000 12.000000 -7.488282E+00
52.000000 10.000000 -2.983879E+01
52.000000 8.000000 -5.124086E+01
52.000000 6.000000 -5.464620E+01
52.000000 4.000000 2.664785E+01
52.000000 2.000000 1.018511E+02
52.000000 0.000000 9.459685E+01
52.000000 -2.000000 5.401921E+01
52.000000 -4.000000 1.689811E+01
52.000000 -6.000000 2.448314E+00
52.000000 -8.000000 4.622959E+00
