-14.000000 16.000000 -7.954644E+01
-14.000000 14.000000 -1.152524E+02
-14.000000 12.000000 -1.206695E+02
-14.000000 10.000000 -8.191686E+01
-14.000000 8.000000 -3.071257E+01
-14.000000 6.000000 -1.265556E+01
-14.000000 4.000000 -1.432708E+01
-14.000000 2.000000 -4.783688E+00
-14.000000 0.000000 6.597023E+00
-14.000000 -2.000000 1.189446E+01
-14.000000 -4.000000 5.218597E+00
-14.000000 -6.000000 -5.946770E+00
-14.000000 -8.000000 -6.436449E+00
-14.000000 -10.000000 -6.742649E-01
-14.000000 -12.000000 -2.726134E+00
-14.000000 -14.000000 -7.669562E+00
-14.000000 -16.000000 -6.530862E+00
-14.000000 -18.000000 -3.023995E+00
-14.000000 -20.000000 -2.603555E+00
-14.000000 -22.000000 -5.802190E+00
-14.000000 -24.000000 -5.340731E+00
-14.000000 -26.000000 1.285154E+00
-14.000000 -28.000000 4.985534E+00
-14.000000 -30.000000 4.619396E+00
-14.000000 -32.000000 1.685436E+01
-14.000000 -34.000000 3.491092E+01
-14.000000 -36.000000 4.395806E+01
-14.000000 -38.000000 3.848757E+01
-14.000000 -40.000000 2.772327E+01
-12.000000 40.000000 -1.161879E+01
-12.000000 38.000000 -2.294955E+01
-12.000000 36.000000 -3.454676E+01
-12.000000 34.000000 -4.049100E+01
-12.000000 32.000000 -4.534713E+01
-12.000000 30.000000 -4.915293E+01
-12.000000 28.000000 -3.835025E+01
-12.000000 26.000000 -3.602520E+01
-12.000000 24.000000 -4.006312E+01
-12.000000 22.000000 -3.738046E+01
-12.000000 20.000000 -3.213539E+01
-12.000000 18.000000 -4.781258E+01
-12.000000 16.000000 -9.173773E+01
-12.000000 14.000000 -1.419932E+02
-12.000000 12.000000 -1.576299E+02
-12.000000 10.000000 -1.171658E+02
-12.000000 8.000000 -5.068655E+01
-12.000000 6.000000 -2.744431E+01
-12.000000 4.000000 -3.002152E+01
-12.000000 2.000000 -1.761457E+01
-12.000000 0.000000 -3.531635E+00
-12.000000 -2.000000 1.022274E+00
-12.000000 -4.000000 -5.497017E+00
-12.000000 -6.000000 -1.006026E+01
-12.000000 -8.000000 -2.041281E+00
-12.000000 -10.000000 1.046289E+01
-12.000000 -12.000000 8.438540E+00
-12.000000 -14.000000 4.300319E+00
-12.000000 -16.000000 7.432110E+00
-12.000000 -18.000000 1.157143E+01
-12.000000 -20.000000 1.578051E+01
-12.000000 -22.000000 1.423839E+01
-12.000000 -24.000000 1.124510E+01
-12.000000 -26.000000 1.422024E+01
-12.000000 -28.000000 1.454431E+01
-12.000000 -30.000000 1.038904E+01
-12.000000 -32.000000 1.821391E+01
-12.000000 -34.000000 3.580940E+01
-12.000000 -36.000000 4.440410E+01
-12.000000 -38.000000 3.463294E+01
-12.000000 -40.000000 2.164615E+01
-10.000000 40.000000 -1.549410E+01
-10.000000 38.000000 -2.518164E+01
-10.000000 36.000000 -3.371110E+01
-10.000000 34.000000 -3.622812E+01
-10.000000 32.000000 -3.635465E+01
-10.000000 30.000000 -3.762677E+01
-10.000000 28.000000 -3.093744E+01
-10.000000 26.000000 -3.382307E+01
-10.000000 24.000000 -3.946645E+01
-10.000000 22.000000 -3.540044E+01
-10.000000 20.000000 -3.094681E+01
-10.000000 18.000000 -4.734724E+01
-10.000000 16.000000 -9.480383E+01
-10.000000 14.000000 -1.557408E+02
-10.000000 12.000000 -1.830651E+02
-10.000000 10.000000 -1.544169E+02
-10.000000 8.000000 -8.860321E+01
-10.000000 6.000000 -5.145414E+01
-10.000000 4.000000 -4.040676E+01
-10.000000 2.000000 -2.821083E+01
-10.000000 0.000000 -1.680846E+01
-10.000000 -2.000000 -1.642834E+01
-10.000000 -4.000000 -2.300469E+01
-10.000000 -6.000000 -2.049072E+01
-10.000000 -8.000000 -4.868368E+00
-10.000000 -10.000000 1.480503E+01
-10.000000 -12.000000 1.586923E+01
-10.000000 -14.000000 1.006759E+01
-10.000000 -16.000000 1.355291E+01
-10.000000 -18.000000 2.077801E+01
-10.000000 -20.000000 2.934765E+01
-10.000000 -22.000000 3.117248E+01
-10.000000 -24.000000 2.594136E+01
-10.000000 -26.000000 2.822426E+01
-10.000000 -28.000000 2.687228E+01
-10.000000 -30.000000 1.655305E+01
-10.000000 -32.000000 1.595502E+01
-10.000000 -34.000000 3.080246E+01
-10.000000 -36.000000 3.896595E+01
-10.000000 -38.000000 2.796757E+01
-10.000000 -40.000000 1.563780E+01
-8.000000 40.000000 -2.054201E+01
-8.000000 38.000000 -2.788585E+01
-8.000000 36.000000 -3.226576E+01
-8.000000 34.000000 -3.228289E+01
-8.000000 32.000000 -3.168448E+01
-8.000000 30.000000 -3.423746E+01
-8.000000 28.000000 -2.858397E+01
-8.000000 26.000000 -3.337963E+01
-8.000000 24.000000 -4.037493E+01
-8.000000 22.000000 -3.328967E+01
-8.000000 20.000000 -2.810074E+01
-8.000000 18.000000 -4.041233E+01
-8.000000 16.000000 -8.275100E+01
-8.000000 14.000000 -1.454604E+02
-8.000000 12.000000 -1.804871E+02
-8.000000 10.000000 -1.674647E+02
-8.000000 8.000000 -1.161720E+02
-8.000000 6.000000 -7.622560E+01
-8.000000 4.000000 -5.067439E+01
-8.000000 2.000000 -3.496408E+01
-8.000000 0.000000 -2.943894E+01
-8.000000 -2.000000 -3.301174E+01
-8.000000 -4.000000 -4.107587E+01
-8.000000 -6.000000 -3.765165E+01
-8.000000 -8.000000 -1.581465E+01
-8.000000 -10.000000 8.964804E+00
-8.000000 -12.000000 1.375465E+01
-8.000000 -14.000000 5.179632E+00
-8.000000 -16.000000 5.737089E+00
-8.000000 -18.000000 1.655275E+01
-8.000000 -20.000000 2.826010E+01
-8.000000 -22.000000 3.329775E+01
-8.000000 -24.000000 3.070803E+01
-8.000000 -26.000000 3.287678E+01
-8.000000 -28.000000 3.097533E+01
-8.000000 -30.000000 1.944469E+01
-8.000000 -32.000000 1.315220E+01
-8.000000 -34.000000 2.231755E+01
-8.000000 -36.000000 2.919005E+01
-8.000000 -38.000000 2.158526E+01
-8.000000 -40.000000 1.220929E+01
-6.000000 40.000000 -2.275247E+01
-6.000000 38.000000 -3.030503E+01
-6.000000 36.000000 -3.400094E+01
-6.000000 34.000000 -3.539198E+01
-6.000000 32.000000 -3.674116E+01
-6.000000 30.000000 -4.068102E+01
-6.000000 28.000000 -3.487657E+01
-6.000000 26.000000 -3.711100E+01
-6.000000 24.000000 -4.340502E+01
-6.000000 22.000000 -3.591262E+01
-6.000000 20.000000 -2.846063E+01
-6.000000 18.000000 -3.388229E+01
-6.000000 16.000000 -6.421444E+01
-6.000000 14.000000 -1.084742E+02
-6.000000 12.000000 -1.333799E+02
-6.000000 10.000000 -1.312172E+02
-6.000000 8.000000 -1.090247E+02
-6.000000 6.000000 -8.521347E+01
-6.000000 4.000000 -6.117924E+01
-6.000000 2.000000 -4.553958E+01
-6.000000 0.000000 -4.347433E+01
-6.000000 -2.000000 -4.852865E+01
-6.000000 -4.000000 -5.959748E+01
-6.000000 -6.000000 -5.802633E+01
-6.000000 -8.000000 -3.226493E+01
-6.000000 -10.000000 -4.987705E+00
-6.000000 -12.000000 2.427912E+00
-6.000000 -14.000000 -6.130627E+00
-6.000000 -16.000000 -8.916439E+00
-6.000000 -18.000000 5.657711E-01
-6.000000 -20.000000 1.351448E+01
-6.000000 -22.000000 2.183152E+01
-6.000000 -24.000000 2.307363E+01
-6.000000 -26.000000 2.496310E+01
-6.000000 -28.000000 2.399157E+01
-6.000000 -30.000000 1.507977E+01
-6.000000 -32.000000 8.873592E+00
-6.000000 -34.000000 1.326231E+01
-6.000000 -36.000000 1.958218E+01
-6.000000 -38.000000 1.662112E+01
-6.000000 -40.000000 1.022298E+01
-4.000000 40.000000 -2.200646E+01
-4.000000 38.000000 -3.247825E+01
-4.000000 36.000000 -3.887951E+01
-4.000000 34.000000 -4.355944E+01
-4.000000 32.000000 -4.714456E+01
-4.000000 30.000000 -5.015372E+01
-4.000000 28.000000 -4.302311E+01
-4.000000 26.000000 -4.225028E+01
-4.000000 24.000000 -4.815975E+01
-4.000000 22.000000 -4.389574E+01
-4.000000 20.000000 -3.606963E+01
-4.000000 18.000000 -3.649230E+01
-4.000000 16.000000 -5.185969E+01
-4.000000 14.000000 -6.640435E+01
-4.000000 12.000000 -6.936529E+01
-4.000000 10.000000 -7.219770E+01
-4.000000 8.000000 -8.037463E+01
-4.000000 6.000000 -8.018978E+01
-4.000000 4.000000 -7.213873E+01
-4.000000 2.000000 -5.969030E+01
-4.000000 0.000000 -5.364326E+01
-4.000000 -2.000000 -5.416389E+01
-4.000000 -4.000000 -6.198765E+01
-4.000000 -6.000000 -5.989272E+01
-4.000000 -8.000000 -3.679856E+01
-4.000000 -10.000000 -1.368155E+01
-4.000000 -12.000000 -8.461118E+00
-4.000000 -14.000000 -1.856194E+01
-4.000000 -16.000000 -2.465556E+01
-4.000000 -18.000000 -1.810822E+01
-4.000000 -20.000000 -5.302036E+00
-4.000000 -22.000000 4.795728E+00
-4.000000 -24.000000 7.638374E+00
-4.000000 -26.000000 1.009427E+01
-4.000000 -28.000000 1.076994E+01
-4.000000 -30.000000 4.007554E+00
-4.000000 -32.000000 -5.462732E-01
-4.000000 -34.000000 1.626852E+00
-4.000000 -36.000000 9.466609E+00
-4.000000 -38.000000 1.215973E+01
-4.000000 -40.000000 9.348519E+00
-2.000000 40.000000 -1.927504E+01
-2.000000 38.000000 -3.354608E+01
-2.000000 36.000000 -4.247981E+01
-2.000000 34.000000 -4.911098E+01
-2.000000 32.000000 -5.509561E+01
-2.000000 30.000000 -5.869758E+01
-2.000000 28.000000 -4.742227E+01
-2.000000 26.000000 -4.288117E+01
-2.000000 24.000000 -5.036679E+01
-2.000000 22.000000 -4.861020E+01
-2.000000 20.000000 -4.220575E+01
-2.000000 18.000000 -4.512249E+01
-2.000000 16.000000 -5.454329E+01
-2.000000 14.000000 -5.018584E+01
-2.000000 12.000000 -3.643040E+01
-2.000000 10.000000 -3.846554E+01
-2.000000 8.000000 -5.898928E+01
-2.000000 6.000000 -7.088568E+01
-2.000000 4.000000 -7.180496E+01
-2.000000 2.000000 -5.845077E+01
-2.000000 0.000000 -4.937986E+01
-2.000000 -2.000000 -4.550586E+01
-2.000000 -4.000000 -4.863682E+01
-2.000000 -6.000000 -4.752556E+01
-2.000000 -8.000000 -3.255118E+01
-2.000000 -10.000000 -1.509027E+01
-2.000000 -12.000000 -1.265960E+01
-2.000000 -14.000000 -2.409960E+01
-2.000000 -16.000000 -3.078262E+01
-2.000000 -18.000000 -2.537460E+01
-2.000000 -20.000000 -1.489321E+01
-2.000000 -22.000000 -7.369033E+00
-2.000000 -24.000000 -5.992157E+00
-2.000000 -26.000000 -5.042740E+00
-2.000000 -28.000000 -4.549388E+00
-2.000000 -30.000000 -9.519680E+00
-2.000000 -32.000000 -1.274951E+01
-2.000000 -34.000000 -1.083227E+01
-2.000000 -36.000000 -8.748055E-01
-2.000000 -38.000000 6.951468E+00
-2.000000 -40.000000 7.913116E+00
0.000000 40.000000 -1.689853E+01
0.000000 38.000000 -3.194310E+01
0.000000 36.000000 -3.984423E+01
0.000000 34.000000 -4.630555E+01
0.000000 32.000000 -5.379755E+01
0.000000 30.000000 -5.831448E+01
0.000000 28.000000 -4.690634E+01
0.000000 26.000000 -3.938426E+01
0.000000 24.000000 -4.479967E+01
0.000000 22.000000 -4.392867E+01
0.000000 20.000000 -3.960499E+01
0.000000 18.000000 -5.130881E+01
0.000000 16.000000 -6.956303E+01
0.000000 14.000000 -7.226921E+01
0.000000 12.000000 -6.254347E+01
0.000000 10.000000 -5.769068E+01
0.000000 8.000000 -6.089406E+01
0.000000 6.000000 -5.949336E+01
0.000000 4.000000 -5.168861E+01
0.000000 2.000000 -3.597071E+01
0.000000 0.000000 -2.693600E+01
0.000000 -2.000000 -2.525074E+01
0.000000 -4.000000 -3.098179E+01
0.000000 -6.000000 -3.627412E+01
0.000000 -8.000000 -3.018814E+01
0.000000 -10.000000 -1.320849E+01
0.000000 -12.000000 -8.638319E+00
0.000000 -14.000000 -1.956064E+01
0.000000 -16.000000 -2.421246E+01
0.000000 -18.000000 -1.834633E+01
0.000000 -20.000000 -1.073450E+01
0.000000 -22.000000 -8.578020E+00
0.000000 -24.000000 -1.202802E+01
0.000000 -26.000000 -1.513943E+01
0.000000 -28.000000 -1.552238E+01
0.000000 -30.000000 -1.990635E+01
0.000000 -32.000000 -2.410727E+01
0.000000 -34.000000 -2.182371E+01
0.000000 -36.000000 -9.516285E+00
0.000000 -38.000000 1.543176E+00
0.000000 -40.000000 5.290170E+00
2.000000 40.000000 -1.564216E+01
2.000000 38.000000 -2.666458E+01
2.000000 36.000000 -2.982608E+01
2.000000 34.000000 -3.366354E+01
2.000000 32.000000 -4.197564E+01
2.000000 30.000000 -4.792177E+01
2.000000 28.000000 -3.992753E+01
2.000000 26.000000 -3.344501E+01
2.000000 24.000000 -3.653417E+01
2.000000 22.000000 -3.749827E+01
2.000000 20.000000 -3.738131E+01
2.000000 18.000000 -5.561226E+01
2.000000 16.000000 -8.580413E+01
2.000000 14.000000 -1.070530E+02
2.000000 12.000000 -1.128848E+02
2.000000 10.000000 -1.076328E+02
2.000000 8.000000 -8.814048E+01
2.000000 6.000000 -6.236212E+01
2.000000 4.000000 -3.460267E+01
2.000000 2.000000 -1.175172E+01
2.000000 0.000000 6.483803E-01
2.000000 -2.000000 -8.004532E-01
2.000000 -4.000000 -1.137716E+01
2.000000 -6.000000 -2.248807E+01
2.000000 -8.000000 -2.112191E+01
2.000000 -10.000000 -5.084814E+00
2.000000 -12.000000 -3.149033E-02
2.000000 -14.000000 -1.153368E+01
2.000000 -16.000000 -1.461430E+01
2.000000 -18.000000 -8.096601E+00
2.000000 -20.000000 -1.801635E+00
2.000000 -22.000000 -2.703909E+00
2.000000 -24.000000 -9.719848E+00
2.000000 -26.000000 -1.495853E+01
2.000000 -28.000000 -1.617177E+01
2.000000 -30.000000 -2.359778E+01
2.000000 -32.000000 -3.094546E+01
2.000000 -34.000000 -2.901050E+01
2.000000 -36.000000 -1.610240E+01
2.000000 -38.000000 -2.996059E+00
2.000000 -40.000000 3.453735E+00
4.000000 40.000000 -1.150020E+01
4.000000 38.000000 -1.850311E+01
4.000000 36.000000 -1.701126E+01
4.000000 34.000000 -1.765845E+01
4.000000 32.000000 -2.723388E+01
4.000000 30.000000 -3.607511E+01
4.000000 28.000000 -2.880491E+01
4.000000 26.000000 -2.465549E+01
4.000000 24.000000 -3.173106E+01
4.000000 22.000000 -3.693347E+01
4.000000 20.000000 -3.989908E+01
4.000000 18.000000 -5.879075E+01
4.000000 16.000000 -9.434274E+01
4.000000 14.000000 -1.273055E+02
4.000000 12.000000 -1.466655E+02
4.000000 10.000000 -1.488860E+02
4.000000 8.000000 -1.211321E+02
4.000000 6.000000 -7.968261E+01
4.000000 4.000000 -3.294099E+01
4.000000 2.000000 1.062454E+00
4.000000 0.000000 1.812026E+01
4.000000 -2.000000 1.607383E+01
4.000000 -4.000000 1.442963E+00
4.000000 -6.000000 -1.230419E+01
4.000000 -8.000000 -9.699018E+00
4.000000 -10.000000 4.085711E+00
4.000000 -12.000000 6.432364E+00
4.000000 -14.000000 -4.082655E+00
4.000000 -16.000000 -7.443292E+00
4.000000 -18.000000 -2.467598E+00
4.000000 -20.000000 3.491015E+00
4.000000 -22.000000 4.830779E+00
4.000000 -24.000000 1.293824E+00
4.000000 -26.000000 -1.620087E+00
4.000000 -28.000000 -5.536080E+00
4.000000 -30.000000 -1.780579E+01
4.000000 -32.000000 -2.833328E+01
4.000000 -34.000000 -2.825810E+01
4.000000 -36.000000 -1.818523E+01
4.000000 -38.000000 -5.600660E+00
4.000000 -40.000000 1.840214E+00
6.000000 40.000000 -2.777881E+00
6.000000 38.000000 -7.505465E+00
6.000000 36.000000 -5.719324E+00
6.000000 34.000000 -7.436502E+00
6.000000 32.000000 -1.817546E+01
6.000000 30.000000 -2.642167E+01
6.000000 28.000000 -1.922081E+01
6.000000 26.000000 -1.732083E+01
6.000000 24.000000 -2.884095E+01
6.000000 22.000000 -3.891701E+01
6.000000 20.000000 -4.405068E+01
6.000000 18.000000 -5.822625E+01
6.000000 16.000000 -8.841515E+01
6.000000 14.000000 -1.233193E+02
6.000000 12.000000 -1.514384E+02
6.000000 10.000000 -1.652678E+02
6.000000 8.000000 -1.465374E+02
6.000000 6.000000 -1.049156E+02
6.000000 4.000000 -4.855054E+01
6.000000 2.000000 -2.759365E+00
6.000000 0.000000 2.152946E+01
6.000000 -2.000000 2.205184E+01
6.000000 -4.000000 5.228958E+00
6.000000 -6.000000 -1.066620E+01
6.000000 -8.000000 -5.011343E+00
6.000000 -10.000000 9.460997E+00
6.000000 -12.000000 1.092595E+01
6.000000 -14.000000 2.379333E+00
6.000000 -16.000000 -1.390447E+00
6.000000 -18.000000 1.578382E+00
6.000000 -20.000000 7.329726E+00
6.000000 -22.000000 1.311339E+01
6.000000 -24.000000 1.752108E+01
6.000000 -26.000000 1.921804E+01
6.000000 -28.000000 1.352771E+01
6.000000 -30.000000 -1.930934E+00
6.000000 -32.000000 -1.599738E+01
6.000000 -34.000000 -2.010507E+01
6.000000 -36.000000 -1.452632E+01
6.000000 -38.000000 -5.197055E+00
6.000000 -40.000000 -7.579918E-01
8.000000 40.000000 7.584949E+00
8.000000 38.000000 4.699615E+00
8.000000 36.000000 3.145279E+00
8.000000 34.000000 -4.663090E+00
8.000000 32.000000 -1.697643E+01
8.000000 30.000000 -2.119452E+01
8.000000 28.000000 -1.203917E+01
8.000000 26.000000 -1.173129E+01
8.000000 24.000000 -2.530120E+01
8.000000 22.000000 -3.780180E+01
8.000000 20.000000 -4.311599E+01
8.000000 18.000000 -5.013098E+01
8.000000 16.000000 -6.873386E+01
8.000000 14.000000 -1.021894E+02
8.000000 12.000000 -1.404973E+02
8.000000 10.000000 -1.682428E+02
8.000000 8.000000 -1.676332E+02
8.000000 6.000000 -1.385567E+02
8.000000 4.000000 -8.167467E+01
8.000000 2.000000 -2.465470E+01
8.000000 0.000000 1.274957E+01
8.000000 -2.000000 2.308573E+01
8.000000 -4.000000 1.002839E+01
8.000000 -6.000000 -5.084822E+00
8.000000 -8.000000 2.450617E+00
8.000000 -10.000000 1.635420E+01
8.000000 -12.000000 1.826689E+01
8.000000 -14.000000 1.132127E+01
8.000000 -16.000000 6.803773E+00
8.000000 -18.000000 7.205518E+00
8.000000 -20.000000 1.265132E+01
8.000000 -22.000000 2.277476E+01
8.000000 -24.000000 3.372072E+01
8.000000 -26.000000 3.844427E+01
8.000000 -28.000000 3.340449E+01
8.000000 -30.000000 1.817718E+01
8.000000 -32.000000 1.207880E+00
8.000000 -34.000000 -7.205828E+00
8.000000 -36.000000 -6.606215E+00
8.000000 -38.000000 -2.684156E+00
8.000000 -40.000000 -4.049667E+00
10.000000 40.000000 1.653328E+01
10.000000 38.000000 1.321248E+01
10.000000 36.000000 7.615816E+00
10.000000 34.000000 -6.258075E+00
10.000000 32.000000 -2.020666E+01
10.000000 30.000000 -2.101147E+01
10.000000 28.000000 -6.546471E+00
10.000000 26.000000 -5.565504E+00
10.000000 24.000000 -1.918630E+01
10.000000 22.000000 -2.948358E+01
10.000000 20.000000 -3.030430E+01
10.000000 18.000000 -3.009773E+01
10.000000 16.000000 -4.060390E+01
10.000000 14.000000 -7.487408E+01
10.000000 12.000000 -1.252545E+02
10.000000 10.000000 -1.705074E+02
10.000000 8.000000 -1.908757E+02
10.000000 6.000000 -1.804353E+02
10.000000 4.000000 -1.263677E+02
10.000000 2.000000 -5.753451E+01
10.000000 0.000000 -4.204880E+00
10.000000 -2.000000 2.138402E+01
10.000000 -4.000000 2.121011E+01
10.000000 -6.000000 1.093873E+01
10.000000 -8.000000 1.729443E+01
10.000000 -10.000000 2.903922E+01
10.000000 -12.000000 3.099104E+01
10.000000 -14.000000 2.473007E+01
10.000000 -16.000000 1.820333E+01
10.000000 -18.000000 1.515867E+01
10.000000 -20.000000 1.914156E+01
10.000000 -22.000000 3.135736E+01
10.000000 -24.000000 4.521352E+01
10.000000 -26.000000 5.116986E+01
10.000000 -28.000000 4.640965E+01
10.000000 -30.000000 3.282872E+01
10.000000 -32.000000 1.721826E+01
10.000000 -34.000000 8.320243E+00
10.000000 -36.000000 4.156990E+00
10.000000 -38.000000 6.751299E-01
10.000000 -40.000000 -8.261549E+00
12.000000 40.000000 2.283320E+01
12.000000 38.000000 1.499685E+01
12.000000 36.000000 5.221334E+00
12.000000 34.000000 -1.024998E+01
12.000000 32.000000 -2.282522E+01
12.000000 30.000000 -2.146257E+01
12.000000 28.000000 -5.331652E+00
12.000000 26.000000 -1.659792E+00
12.000000 24.000000 -9.222408E+00
12.000000 22.000000 -1.261694E+01
12.000000 20.000000 -6.194061E+00
12.000000 18.000000 -1.202709E+00
12.000000 16.000000 -1.282850E+01
12.000000 14.000000 -5.116041E+01
12.000000 12.000000 -1.097068E+02
12.000000 10.000000 -1.719336E+02
12.000000 8.000000 -2.102881E+02
12.000000 6.000000 -2.166209E+02
12.000000 4.000000 -1.669391E+02
12.000000 2.000000 -9.032066E+01
12.000000 0.000000 -2.443343E+01
12.000000 -2.000000 1.645787E+01
12.000000 -4.000000 3.362887E+01
12.000000 -6.000000 3.221150E+01
12.000000 -8.000000 3.807520E+01
12.000000 -10.000000 4.743417E+01
12.000000 -12.000000 4.848429E+01
12.000000 -14.000000 4.123696E+01
12.000000 -16.000000 3.124968E+01
12.000000 -18.000000 2.249233E+01
12.000000 -20.000000 2.148608E+01
12.000000 -22.000000 3.255576E+01
12.000000 -24.000000 4.685241E+01
12.000000 -26.000000 5.347727E+01
12.000000 -28.000000 4.806535E+01
12.000000 -30.000000 3.523228E+01
12.000000 -32.000000 2.498854E+01
12.000000 -34.000000 2.115077E+01
12.000000 -36.000000 1.528879E+01
12.000000 -38.000000 4.717497E+00
12.000000 -40.000000 -1.184930E+01
14.000000 40.000000 2.708719E+01
14.000000 38.000000 1.198983E+01
14.000000 36.000000 -1.555764E+00
14.000000 34.000000 -1.447188E+01
14.000000 32.000000 -2.475556E+01
14.000000 30.000000 -2.324766E+01
14.000000 28.000000 -7.329902E+00
14.000000 26.000000 -7.040863E-01
14.000000 24.000000 -1.860189E+00
14.000000 22.000000 2.259481E+00
14.000000 20.000000 1.303625E+01
14.000000 18.000000 1.868245E+01
14.000000 16.000000 3.411446E+00
14.000000 14.000000 -3.775759E+01
14.000000 12.000000 -9.624415E+01
14.000000 10.000000 -1.612207E+02
14.000000 8.000000 -2.074948E+02
14.000000 6.000000 -2.232455E+02
14.000000 4.000000 -1.802953E+02
14.000000 2.000000 -1.059870E+02
14.000000 0.000000 -3.715929E+01
14.000000 -2.000000 1.332611E+01
14.000000 -4.000000 4.126262E+01
14.000000 -6.000000 5.067529E+01
14.000000 -8.000000 6.107543E+01
14.000000 -10.000000 7.102460E+01
14.000000 -12.000000 6.972127E+01
14.000000 -14.000000 5.775239E+01
14.000000 -16.000000 3.913044E+01
14.000000 -18.000000 2.132563E+01
14.000000 -20.000000 1.383630E+01
14.000000 -22.000000 2.135653E+01
14.000000 -24.000000 3.417741E+01
14.000000 -26.000000 4.051279E+01
14.000000 -28.000000 3.492401E+01
14.000000 -30.000000 2.361371E+01
14.000000 -32.000000 2.025157E+01
14.000000 -34.000000 2.568888E+01
14.000000 -36.000000 2.272445E+01
14.000000 -38.000000 9.185392E+00
14.000000 -40.000000 -1.076884E+01
16.000000 40.000000 3.173684E+01
16.000000 38.000000 9.175772E+00
16.000000 36.000000 -8.311625E+00
16.000000 34.000000 -1.944026E+01
16.000000 32.000000 -2.880385E+01
16.000000 30.000000 -2.966691E+01
16.000000 28.000000 -1.344466E+01
16.000000 26.000000 -4.974279E+00
16.000000 24.000000 -4.656988E+00
16.000000 22.000000 4.000425E+00
16.000000 20.000000 1.428199E+01
16.000000 18.000000 1.588100E+01
16.000000 16.000000 -2.342834E+00
16.000000 14.000000 -3.803741E+01
16.000000 12.000000 -8.260133E+01
16.000000 10.000000 -1.318693E+02
16.000000 8.000000 -1.723449E+02
16.000000 6.000000 -1.881877E+02
16.000000 4.000000 -1.530620E+02
16.000000 2.000000 -8.957775E+01
16.000000 0.000000 -3.018834E+01
16.000000 -2.000000 1.724813E+01
16.000000 -4.000000 4.569920E+01
16.000000 -6.000000 6.187430E+01
16.000000 -8.000000 7.863741E+01
16.000000 -10.000000 9.140864E+01
16.000000 -12.000000 8.748553E+01
16.000000 -14.000000 6.840837E+01
16.000000 -16.000000 3.665893E+01
16.000000 -18.000000 8.452978E+00
16.000000 -20.000000 -4.135451E+00
16.000000 -22.000000 3.494406E-02
16.000000 -24.000000 1.001473E+01
16.000000 -26.000000 1.544876E+01
16.000000 -28.000000 1.003191E+01
16.000000 -30.000000 4.162035E-01
16.000000 -32.000000 4.420471E+00
16.000000 -34.000000 2.091447E+01
16.000000 -36.000000 2.532573E+01
16.000000 -38.000000 1.417986E+01
16.000000 -40.000000 -3.994204E+00
18.000000 40.000000 3.738027E+01
18.000000 38.000000 1.052946E+01
18.000000 36.000000 -1.026577E+01
18.000000 34.000000 -2.421587E+01
18.000000 32.000000 -3.343477E+01
18.000000 30.000000 -3.745350E+01
18.000000 28.000000 -2.627293E+01
18.000000 26.000000 -1.869491E+01
18.000000 24.000000 -1.905515E+01
18.000000 22.000000 -1.150807E+01
18.000000 20.000000 -5.686356E+00
18.000000 18.000000 -7.282007E+00
18.000000 16.000000 -2.145997E+01
18.000000 14.000000 -4.194974E+01
18.000000 12.000000 -6.447851E+01
18.000000 10.000000 -9.237578E+01
18.000000 8.000000 -1.219580E+02
18.000000 6.000000 -1.339614E+02
18.000000 4.000000 -1.075949E+02
18.000000 2.000000 -5.785240E+01
18.000000 0.000000 -9.276746E+00
18.000000 -2.000000 2.839736E+01
18.000000 -4.000000 5.279500E+01
18.000000 -6.000000 7.073642E+01
18.000000 -8.000000 9.076804E+01
18.000000 -10.000000 1.064254E+02
18.000000 -12.000000 9.865678E+01
18.000000 -14.000000 6.986680E+01
18.000000 -16.000000 2.654898E+01
18.000000 -18.000000 -1.088248E+01
18.000000 -20.000000 -2.583843E+01
18.000000 -22.000000 -2.168960E+01
18.000000 -24.000000 -1.356585E+01
18.000000 -26.000000 -8.657000E+00
18.000000 -28.000000 -1.469094E+01
18.000000 -30.000000 -2.670515E+01
18.000000 -32.000000 -1.625183E+01
18.000000 -34.000000 1.210575E+01
18.000000 -36.000000 2.605490E+01
18.000000 -38.000000 1.900785E+01
18.000000 -40.000000 3.097048E+00
20.000000 40.000000 4.324307E+01
20.000000 38.000000 1.523408E+01
20.000000 36.000000 -7.097202E+00
20.000000 34.000000 -2.436628E+01
20.000000 32.000000 -3.405409E+01
20.000000 30.000000 -4.226647E+01
20.000000 28.000000 -3.861334E+01
20.000000 26.000000 -3.482181E+01
20.000000 24.000000 -3.976533E+01
20.000000 22.000000 -3.614215E+01
20.000000 20.000000 -3.501896E+01
20.000000 18.000000 -3.624372E+01
20.000000 16.000000 -3.769488E+01
20.000000 14.000000 -4.322117E+01
20.000000 12.000000 -5.047345E+01
20.000000 10.000000 -6.348788E+01
20.000000 8.000000 -8.702766E+01
20.000000 6.000000 -9.778466E+01
20.000000 4.000000 -7.857081E+01
20.000000 2.000000 -3.785626E+01
20.000000 0.000000 5.656813E+00
20.000000 -2.000000 3.807970E+01
20.000000 -4.000000 6.317910E+01
20.000000 -6.000000 8.455814E+01
20.000000 -8.000000 1.056371E+02
20.000000 -10.000000 1.226363E+02
20.000000 -12.000000 1.088263E+02
20.000000 -14.000000 6.614805E+01
20.000000 -16.000000 1.251309E+01
20.000000 -18.000000 -2.851324E+01
20.000000 -20.000000 -4.043681E+01
20.000000 -22.000000 -3.216849E+01
20.000000 -24.000000 -2.314101E+01
20.000000 -26.000000 -1.944323E+01
20.000000 -28.000000 -2.791968E+01
20.000000 -30.000000 -4.379511E+01
20.000000 -32.000000 -3.085583E+01
20.000000 -34.000000 4.732255E+00
20.000000 -36.000000 2.500032E+01
20.000000 -38.000000 2.063317E+01
20.000000 -40.000000 5.186176E+00
22.000000 40.000000 4.895635E+01
22.000000 38.000000 1.916523E+01
22.000000 36.000000 -4.808155E+00
22.000000 34.000000 -2.204998E+01
22.000000 32.000000 -3.049880E+01
22.000000 30.000000 -4.158676E+01
22.000000 28.000000 -4.087614E+01
22.000000 26.000000 -3.969976E+01
22.000000 24.000000 -5.031812E+01
22.000000 22.000000 -4.975059E+01
22.000000 20.000000 -5.082922E+01
22.000000 18.000000 -5.099037E+01
22.000000 16.000000 -4.457157E+01
22.000000 14.000000 -4.259875E+01
22.000000 12.000000 -4.372020E+01
22.000000 10.000000 -5.356493E+01
22.000000 8.000000 -7.933214E+01
22.000000 6.000000 -9.295685E+01
22.000000 4.000000 -7.796060E+01
22.000000 2.000000 -4.038036E+01
22.000000 0.000000 1.747455E+00
22.000000 -2.000000 3.496708E+01
22.000000 -4.000000 6.341035E+01
22.000000 -6.000000 9.008177E+01
22.000000 -8.000000 1.180377E+02
22.000000 -10.000000 1.375913E+02
22.000000 -12.000000 1.140430E+02
22.000000 -14.000000 5.704415E+01
22.000000 -16.000000 -2.582949E+00
22.000000 -18.000000 -3.731190E+01
22.000000 -20.000000 -3.891098E+01
22.000000 -22.000000 -2.268236E+01
22.000000 -24.000000 -1.078367E+01
22.000000 -26.000000 -1.037148E+01
22.000000 -28.000000 -2.332084E+01
22.000000 -30.000000 -4.093323E+01
22.000000 -32.000000 -3.211262E+01
22.000000 -34.000000 1.376247E-01
22.000000 -36.000000 2.006843E+01
22.000000 -38.000000 1.717119E+01
22.000000 -40.000000 1.446560E+00
24.000000 40.000000 5.108920E+01
24.000000 38.000000 2.046138E+01
24.000000 36.000000 -4.652557E+00
24.000000 34.000000 -2.079114E+01
24.000000 32.000000 -2.505031E+01
24.000000 30.000000 -3.111530E+01
24.000000 28.000000 -2.868742E+01
24.000000 26.000000 -2.817862E+01
24.000000 24.000000 -3.881434E+01
24.000000 22.000000 -4.024139E+01
24.000000 20.000000 -3.903090E+01
24.000000 18.000000 -3.822292E+01
24.000000 16.000000 -3.587288E+01
24.000000 14.000000 -3.766678E+01
24.000000 12.000000 -4.344812E+01
24.000000 10.000000 -6.194332E+01
24.000000 8.000000 -9.458448E+01
24.000000 6.000000 -1.127270E+02
24.000000 4.000000 -1.017010E+02
24.000000 2.000000 -6.630365E+01
24.000000 0.000000 -2.343883E+01
24.000000 -2.000000 1.534914E+01
24.000000 -4.000000 4.943852E+01
24.000000 -6.000000 8.350724E+01
24.000000 -8.000000 1.228036E+02
24.000000 -10.000000 1.475240E+02
24.000000 -12.000000 1.124252E+02
24.000000 -14.000000 4.312466E+01
24.000000 -16.000000 -1.652969E+01
24.000000 -18.000000 -3.843768E+01
24.000000 -20.000000 -2.506444E+01
24.000000 -22.000000 1.497915E+00
24.000000 -24.000000 1.647647E+01
24.000000 -26.000000 1.501581E+01
24.000000 -28.000000 -1.544228E+00
24.000000 -30.000000 -2.279829E+01
24.000000 -32.000000 -2.272929E+01
24.000000 -34.000000 1.007862E-01
24.000000 -36.000000 1.431716E+01
24.000000 -38.000000 1.103429E+01
24.000000 -40.000000 -5.889631E+00
26.000000 40.000000 4.950827E+01
26.000000 38.000000 2.023113E+01
26.000000 36.000000 -5.082750E+00
26.000000 34.000000 -2.024903E+01
26.000000 32.000000 -1.836076E+01
26.000000 30.000000 -1.445468E+01
26.000000 28.000000 -7.344931E+00
26.000000 26.000000 -6.856243E+00
26.000000 24.000000 -1.432787E+01
26.000000 22.000000 -1.585201E+01
26.000000 20.000000 -1.139157E+01
26.000000 18.000000 -1.027449E+01
26.000000 16.000000 -1.505134E+01
26.000000 14.000000 -2.650210E+01
26.000000 12.000000 -4.458292E+01
26.000000 10.000000 -7.497563E+01
26.000000 8.000000 -1.135259E+02
26.000000 6.000000 -1.386214E+02
26.000000 4.000000 -1.325920E+02
26.000000 2.000000 -1.004885E+02
26.000000 0.000000 -5.777735E+01
26.000000 -2.000000 -1.144151E+01
26.000000 -4.000000 3.049082E+01
26.000000 -6.000000 7.502793E+01
26.000000 -8.000000 1.240347E+02
26.000000 -10.000000 1.502765E+02
26.000000 -12.000000 1.070345E+02
26.000000 -14.000000 2.966540E+01
26.000000 -16.000000 -2.782754E+01
26.000000 -18.000000 -3.761164E+01
26.000000 -20.000000 -1.195084E+01
26.000000 -22.000000 2.276561E+01
26.000000 -24.000000 4.222594E+01
26.000000 -26.000000 4.210526E+01
26.000000 -28.000000 2.535162E+01
26.000000 -30.000000 2.320578E+00
26.000000 -32.000000 -5.478098E+00
26.000000 -34.000000 6.794020E+00
26.000000 -36.000000 1.191281E+01
26.000000 -38.000000 5.227964E+00
26.000000 -40.000000 -1.312696E+01
28.000000 40.000000 5.047964E+01
28.000000 38.000000 2.084581E+01
28.000000 36.000000 -6.194321E+00
28.000000 34.000000 -2.144215E+01
28.000000 32.000000 -1.479212E+01
28.000000 30.000000 -3.626159E+00
28.000000 28.000000 9.677358E+00
28.000000 26.000000 1.136739E+01
28.000000 24.000000 5.713073E+00
28.000000 22.000000 6.284997E+00
28.000000 20.000000 1.450499E+01
28.000000 18.000000 1.622901E+01
28.000000 16.000000 4.789265E+00
28.000000 14.000000 -1.622239E+01
28.000000 12.000000 -4.582670E+01
28.000000 10.000000 -8.397639E+01
28.000000 8.000000 -1.227098E+02
28.000000 6.000000 -1.476608E+02
28.000000 4.000000 -1.438863E+02
28.000000 2.000000 -1.174438E+02
28.000000 0.000000 -8.052383E+01
28.000000 -2.000000 -3.186813E+01
28.000000 -4.000000 1.693869E+01
28.000000 -6.000000 7.033720E+01
28.000000 -8.000000 1.239556E+02
28.000000 -10.000000 1.474809E+02
28.000000 -12.000000 1.012064E+02
28.000000 -14.000000 2.293502E+01
28.000000 -16.000000 -3.183559E+01
28.000000 -18.000000 -3.639438E+01
28.000000 -20.000000 -6.142281E+00
28.000000 -22.000000 3.106992E+01
28.000000 -24.000000 5.518480E+01
28.000000 -26.000000 5.915061E+01
28.000000 -28.000000 4.571498E+01
28.000000 -30.000000 2.584433E+01
28.000000 -32.000000 1.481743E+01
28.000000 -34.000000 1.870042E+01
28.000000 -36.000000 1.405277E+01
28.000000 -38.000000 2.171526E+00
28.000000 -40.000000 -1.718635E+01
30.000000 40.000000 5.717934E+01
30.000000 38.000000 2.522770E+01
30.000000 36.000000 -5.273960E+00
30.000000 34.000000 -2.374593E+01
30.000000 32.000000 -1.714727E+01
30.000000 30.000000 -2.741237E+00
30.000000 28.000000 1.344349E+01
30.000000 26.000000 1.586502E+01
30.000000 24.000000 1.169149E+01
30.000000 22.000000 1.373762E+01
30.000000 20.000000 2.415837E+01
30.000000 18.000000 2.641775E+01
30.000000 16.000000 8.752580E+00
30.000000 14.000000 -2.125417E+01
30.000000 12.000000 -5.731789E+01
30.000000 10.000000 -9.315142E+01
30.000000 8.000000 -1.205323E+02
30.000000 6.000000 -1.327309E+02
30.000000 4.000000 -1.241777E+02
30.000000 2.000000 -1.038883E+02
30.000000 0.000000 -7.660189E+01
30.000000 -2.000000 -3.409192E+01
30.000000 -4.000000 1.629208E+01
30.000000 -6.000000 7.409560E+01
30.000000 -8.000000 1.289226E+02
30.000000 -10.000000 1.507639E+02
30.000000 -12.000000 1.026133E+02
30.000000 -14.000000 2.491716E+01
30.000000 -16.000000 -2.799867E+01
30.000000 -18.000000 -3.292869E+01
30.000000 -20.000000 -5.524050E+00
30.000000 -22.000000 2.838682E+01
30.000000 -24.000000 5.473726E+01
30.000000 -26.000000 6.521660E+01
30.000000 -28.000000 5.865868E+01
30.000000 -30.000000 4.296609E+01
30.000000 -32.000000 3.153212E+01
30.000000 -34.000000 3.163105E+01
30.000000 -36.000000 1.978076E+01
30.000000 -38.000000 2.725607E+00
30.000000 -40.000000 -1.774036E+01
32.000000 40.000000 6.769674E+01
32.000000 38.000000 3.375351E+01
32.000000 36.000000 -1.161825E+00
32.000000 34.000000 -2.496526E+01
32.000000 32.000000 -2.168773E+01
32.000000 30.000000 -7.652410E+00
32.000000 28.000000 7.969396E+00
32.000000 26.000000 8.249984E+00
32.000000 24.000000 2.627840E+00
32.000000 22.000000 4.134916E+00
32.000000 20.000000 1.425176E+01
32.000000 18.000000 1.597528E+01
32.000000 16.000000 -6.088036E+00
32.000000 14.000000 -4.273482E+01
32.000000 12.000000 -8.053014E+01
32.000000 10.000000 -1.051986E+02
32.000000 8.000000 -1.121842E+02
32.000000 6.000000 -1.074911E+02
32.000000 4.000000 -8.939123E+01
32.000000 2.000000 -6.999869E+01
32.000000 0.000000 -5.020501E+01
32.000000 -2.000000 -1.712045E+01
32.000000 -4.000000 2.901853E+01
32.000000 -6.000000 8.879009E+01
32.000000 -8.000000 1.434543E+02
32.000000 -10.000000 1.636756E+02
32.000000 -12.000000 1.139389E+02
32.000000 -14.000000 3.667180E+01
32.000000 -16.000000 -1.704618E+01
32.000000 -18.000000 -2.667675E+01
32.000000 -20.000000 -7.461649E+00
32.000000 -22.000000 2.055236E+01
32.000000 -24.000000 4.783102E+01
32.000000 -26.000000 6.482723E+01
32.000000 -28.000000 6.573248E+01
32.000000 -30.000000 5.473093E+01
32.000000 -32.000000 4.405588E+01
32.000000 -34.000000 4.248004E+01
32.000000 -36.000000 2.625764E+01
32.000000 -38.000000 5.566494E+00
32.000000 -40.000000 -1.629105E+01
34.000000 40.000000 7.782827E+01
34.000000 38.000000 4.409067E+01
34.000000 36.000000 5.686028E+00
34.000000 34.000000 -2.355504E+01
34.000000 32.000000 -2.518472E+01
34.000000 30.000000 -1.512063E+01
34.000000 28.000000 -9.171314E-01
34.000000 26.000000 -3.138670E+00
34.000000 24.000000 -1.158195E+01
34.000000 22.000000 -1.080865E+01
34.000000 20.000000 -7.838141E-01
34.000000 18.000000 9.672500E-01
34.000000 16.000000 -2.419445E+01
34.000000 14.000000 -6.456385E+01
34.000000 12.000000 -1.013042E+02
34.000000 10.000000 -1.166773E+02
34.000000 8.000000 -1.055998E+02
34.000000 6.000000 -8.492436E+01
34.000000 4.000000 -5.809722E+01
34.000000 2.000000 -3.719202E+01
34.000000 0.000000 -1.962756E+01
34.000000 -2.000000 6.638040E+00
34.000000 -4.000000 4.586648E+01
34.000000 -6.000000 1.021162E+02
34.000000 -8.000000 1.557534E+02
34.000000 -10.000000 1.770347E+02
34.000000 -12.000000 1.278905E+02
34.000000 -14.000000 5.193833E+01
34.000000 -16.000000 -4.089309E+00
34.000000 -18.000000 -1.965172E+01
34.000000 -20.000000 -7.724894E+00
34.000000 -22.000000 1.510463E+01
34.000000 -24.000000 4.214414E+01
34.000000 -26.000000 6.473240E+01
34.000000 -28.000000 6.892637E+01
34.000000 -30.000000 5.962741E+01
34.000000 -32.000000 5.128004E+01
34.000000 -34.000000 5.106731E+01
34.000000 -36.000000 3.445737E+01
34.000000 -38.000000 1.016941E+01
34.000000 -40.000000 -1.509418E+01
36.000000 40.000000 8.325766E+01
36.000000 38.000000 5.306388E+01
36.000000 36.000000 1.537578E+01
36.000000 34.000000 -1.812230E+01
36.000000 32.000000 -2.736745E+01
36.000000 30.000000 -2.312535E+01
36.000000 28.000000 -1.048100E+01
36.000000 26.000000 -9.933193E+00
36.000000 24.000000 -1.752046E+01
36.000000 22.000000 -1.536780E+01
36.000000 20.000000 -3.823098E+00
36.000000 18.000000 -1.832355E+00
36.000000 16.000000 -2.825416E+01
36.000000 14.000000 -6.949942E+01
36.000000 12.000000 -1.037465E+02
36.000000 10.000000 -1.159317E+02
36.000000 8.000000 -9.779079E+01
36.000000 6.000000 -6.919179E+01
36.000000 4.000000 -4.036619E+01
36.000000 2.000000 -1.933990E+01
36.000000 0.000000 -1.482892E+00
36.000000 -2.000000 1.888569E+01
36.000000 -4.000000 4.871312E+01
36.000000 -6.000000 9.759195E+01
36.000000 -8.000000 1.517658E+02
36.000000 -10.000000 1.774524E+02
36.000000 -12.000000 1.318835E+02
36.000000 -14.000000 5.927201E+01
36.000000 -16.000000 5.568503E+00
36.000000 -18.000000 -1.119771E+01
36.000000 -20.000000 -2.369038E+00
36.000000 -22.000000 1.654202E+01
36.000000 -24.000000 3.914517E+01
36.000000 -26.000000 6.569546E+01
36.000000 -28.000000 6.965322E+01
36.000000 -30.000000 5.646379E+01
36.000000 -32.000000 5.044296E+01
36.000000 -34.000000 5.667617E+01
36.000000 -36.000000 4.329791E+01
36.000000 -38.000000 1.591055E+01
36.000000 -40.000000 -1.315831E+01
38.000000 40.000000 8.351037E+01
38.000000 38.000000 5.841825E+01
38.000000 36.000000 2.516709E+01
38.000000 34.000000 -9.739096E+00
38.000000 32.000000 -2.722323E+01
38.000000 30.000000 -2.948543E+01
38.000000 28.000000 -1.496754E+01
38.000000 26.000000 -8.090948E+00
38.000000 24.000000 -1.329357E+01
38.000000 22.000000 -7.582009E+00
38.000000 20.000000 8.388803E+00
38.000000 18.000000 1.050349E+01
38.000000 16.000000 -1.647737E+01
38.000000 14.000000 -5.616275E+01
38.000000 12.000000 -8.681423E+01
38.000000 10.000000 -9.516486E+01
38.000000 8.000000 -7.811763E+01
38.000000 6.000000 -5.349769E+01
38.000000 4.000000 -3.099206E+01
38.000000 2.000000 -1.333927E+01
38.000000 0.000000 1.743482E+00
38.000000 -2.000000 1.425136E+01
38.000000 -4.000000 3.183044E+01
38.000000 -6.000000 7.100062E+01
38.000000 -8.000000 1.226308E+02
38.000000 -10.000000 1.509919E+02
38.000000 -12.000000 1.159863E+02
38.000000 -14.000000 5.590336E+01
38.000000 -16.000000 1.202761E+01
38.000000 -18.000000 -1.522259E+00
38.000000 -20.000000 7.794803E+00
38.000000 -22.000000 2.394112E+01
38.000000 -24.000000 3.935201E+01
38.000000 -26.000000 6.088748E+01
38.000000 -28.000000 6.270266E+01
38.000000 -30.000000 4.806870E+01
38.000000 -32.000000 4.483321E+01
38.000000 -34.000000 5.584399E+01
38.000000 -36.000000 4.652658E+01
38.000000 -38.000000 2.131039E+01
38.000000 -40.000000 -6.763645E+00
40.000000 40.000000 7.897972E+01
40.000000 38.000000 5.939667E+01
40.000000 36.000000 3.322928E+01
40.000000 34.000000 1.186592E+00
40.000000 32.000000 -2.110306E+01
40.000000 30.000000 -2.885449E+01
40.000000 28.000000 -1.321552E+01
40.000000 26.000000 -3.120550E+00
40.000000 24.000000 -6.545480E+00
40.000000 22.000000 3.309767E+00
40.000000 20.000000 2.496164E+01
40.000000 18.000000 2.782158E+01
40.000000 16.000000 1.832201E+00
40.000000 14.000000 -3.231711E+01
40.000000 12.000000 -5.623102E+01
40.000000 10.000000 -5.902391E+01
40.000000 8.000000 -4.569511E+01
40.000000 6.000000 -3.236439E+01
40.000000 4.000000 -2.263022E+01
40.000000 2.000000 -1.200282E+01
40.000000 0.000000 -3.293590E+00
40.000000 -2.000000 1.407337E+00
40.000000 -4.000000 7.294401E+00
40.000000 -6.000000 3.045512E+01
40.000000 -8.000000 7.166290E+01
40.000000 -10.000000 9.959457E+01
40.000000 -12.000000 8.410846E+01
40.000000 -14.000000 4.732222E+01
40.000000 -16.000000 1.874140E+01
40.000000 -18.000000 1.031466E+01
40.000000 -20.000000 1.969501E+01
40.000000 -22.000000 3.295047E+01
40.000000 -24.000000 4.063889E+01
40.000000 -26.000000 4.863376E+01
40.000000 -28.000000 4.588796E+01
40.000000 -30.000000 3.506040E+01
40.000000 -32.000000 3.681946E+01
40.000000 -34.000000 4.926159E+01
40.000000 -36.000000 4.490357E+01
40.000000 -38.000000 2.587714E+01
40.000000 -40.000000 2.913258E+00
42.000000 40.000000 7.020068E+01
42.000000 38.000000 5.530995E+01
42.000000 36.000000 3.831157E+01
42.000000 34.000000 1.468857E+01
42.000000 32.000000 -7.194407E+00
42.000000 30.000000 -1.845690E+01
42.000000 28.000000 -8.918749E+00
42.000000 26.000000 -1.362520E+00
42.000000 24.000000 -1.283720E+00
42.000000 22.000000 1.071477E+01
42.000000 20.000000 3.154552E+01
42.000000 18.000000 3.627733E+01
42.000000 16.000000 1.707147E+01
42.000000 14.000000 -6.282314E+00
42.000000 12.000000 -1.971097E+01
42.000000 10.000000 -1.581291E+01
42.000000 8.000000 -5.977259E+00
42.000000 6.000000 -5.202616E+00
42.000000 4.000000 -1.327197E+01
42.000000 2.000000 -1.428109E+01
42.000000 0.000000 -1.308967E+01
42.000000 -2.000000 -1.566426E+01
42.000000 -4.000000 -1.868356E+01
42.000000 -6.000000 -1.108587E+01
42.000000 -8.000000 1.693056E+01
42.000000 -10.000000 4.441526E+01
42.000000 -12.000000 5.126535E+01
42.000000 -14.000000 3.938580E+01
42.000000 -16.000000 2.783764E+01
42.000000 -18.000000 2.473603E+01
42.000000 -20.000000 3.202583E+01
42.000000 -22.000000 4.122980E+01
42.000000 -24.000000 3.988008E+01
42.000000 -26.000000 3.600419E+01
42.000000 -28.000000 2.785732E+01
42.000000 -30.000000 1.849158E+01
42.000000 -32.000000 2.550718E+01
42.000000 -34.000000 4.013995E+01
42.000000 -36.000000 4.163535E+01
42.000000 -38.000000 2.904092E+01
42.000000 -40.000000 1.204171E+01
44.000000 40.000000 6.006152E+01
44.000000 38.000000 4.765312E+01
44.000000 36.000000 3.998944E+01
44.000000 34.000000 2.914334E+01
44.000000 32.000000 1.050017E+01
44.000000 30.000000 -5.398268E+00
44.000000 28.000000 -2.116053E+00
44.000000 26.000000 3.015928E-01
44.000000 24.000000 -8.702526E-01
44.000000 22.000000 9.541402E+00
44.000000 20.000000 2.530082E+01
44.000000 18.000000 2.995770E+01
44.000000 16.000000 1.785829E+01
44.000000 14.000000 6.193986E+00
44.000000 12.000000 5.998143E+00
44.000000 10.000000 2.143502E+01
44.000000 8.000000 3.056513E+01
44.000000 6.000000 2.105729E+01
44.000000 4.000000 -5.154011E+00
44.000000 2.000000 -1.791753E+01
44.000000 0.000000 -2.144496E+01
44.000000 -2.000000 -2.518448E+01
44.000000 -4.000000 -3.256289E+01
44.000000 -6.000000 -3.535865E+01
44.000000 -8.000000 -1.993359E+01
44.000000 -10.000000 5.869483E+00
44.000000 -12.000000 2.951274E+01
44.000000 -14.000000 3.618244E+01
44.000000 -16.000000 3.797963E+01
44.000000 -18.000000 3.868014E+01
44.000000 -20.000000 4.192825E+01
44.000000 -22.000000 4.499778E+01
44.000000 -24.000000 3.768091E+01
44.000000 -26.000000 2.675110E+01
44.000000 -28.000000 1.487754E+01
44.000000 -30.000000 5.609453E+00
44.000000 -32.000000 1.427410E+01
44.000000 -34.000000 2.968739E+01
44.000000 -36.000000 3.605294E+01
44.000000 -38.000000 3.007588E+01
44.000000 -40.000000 1.917792E+01
46.000000 40.000000 5.170422E+01
46.000000 38.000000 4.132319E+01
46.000000 36.000000 4.111615E+01
46.000000 34.000000 4.090895E+01
46.000000 32.000000 2.612079E+01
46.000000 30.000000 7.071289E+00
46.000000 28.000000 5.543807E+00
46.000000 26.000000 7.503185E-01
46.000000 24.000000 -8.109978E+00
46.000000 22.000000 -3.166896E+00
46.000000 20.000000 5.569229E+00
46.000000 18.000000 6.804384E+00
46.000000 16.000000 3.735036E-01
46.000000 14.000000 -5.585560E-01
46.000000 12.000000 1.355723E+01
46.000000 10.000000 4.268062E+01
46.000000 8.000000 5.405798E+01
46.000000 6.000000 3.938524E+01
46.000000 4.000000 4.741044E+00
46.000000 2.000000 -1.216989E+01
46.000000 0.000000 -1.325037E+01
46.000000 -2.000000 -1.117924E+01
46.000000 -4.000000 -2.364320E+01
46.000000 -6.000000 -4.082257E+01
46.000000 -8.000000 -3.437416E+01
46.000000 -10.000000 -7.899357E+00
46.000000 -12.000000 2.240297E+01
46.000000 -14.000000 3.663795E+01
46.000000 -16.000000 4.093483E+01
46.000000 -18.000000 4.264948E+01
46.000000 -20.000000 4.476575E+01
46.000000 -22.000000 4.404187E+01
46.000000 -24.000000 3.376123E+01
46.000000 -26.000000 2.140706E+01
46.000000 -28.000000 1.155275E+01
46.000000 -30.000000 1.537140E+00
46.000000 -32.000000 6.808338E+00
46.000000 -34.000000 2.172544E+01
46.000000 -36.000000 3.069219E+01
46.000000 -38.000000 2.982432E+01
46.000000 -40.000000 2.285403E+01
48.000000 40.000000 4.611194E+01
48.000000 38.000000 3.959005E+01
48.000000 36.000000 4.224901E+01
48.000000 34.000000 4.592855E+01
48.000000 32.000000 3.691636E+01
48.000000 30.000000 2.090723E+01
48.000000 28.000000 1.289059E+01
48.000000 26.000000 3.996363E-01
48.000000 24.000000 -1.649967E+01
48.000000 22.000000 -2.027833E+01
48.000000 20.000000 -1.984121E+01
48.000000 18.000000 -2.184835E+01
48.000000 16.000000 -2.341256E+01
48.000000 14.000000 -1.683227E+01
48.000000 12.000000 7.351790E+00
48.000000 10.000000 4.327174E+01
48.000000 8.000000 5.611261E+01
48.000000 6.000000 4.144735E+01
48.000000 4.000000 1.105083E+01
48.000000 2.000000 3.166846E+00
48.000000 0.000000 1.418386E+01
48.000000 -2.000000 2.308614E+01
48.000000 -4.000000 3.228845E+00
48.000000 -6.000000 -3.028826E+01
48.000000 -8.000000 -3.443204E+01
48.000000 -10.000000 -9.702940E+00
48.000000 -12.000000 1.970290E+01
48.000000 -14.000000 3.264566E+01
48.000000 -16.000000 3.363621E+01
48.000000 -18.000000 3.551956E+01
48.000000 -20.000000 4.041441E+01
48.000000 -22.000000 4.257193E+01
48.000000 -24.000000 3.271434E+01
48.000000 -26.000000 2.401206E+01
48.000000 -28.000000 1.923954E+01
48.000000 -30.000000 5.710732E+00
48.000000 -32.000000 5.742178E+00
48.000000 -34.000000 1.902857E+01
48.000000 -36.000000 2.653958E+01
48.000000 -38.000000 2.768132E+01
48.000000 -40.000000 2.231473E+01
50.000000 40.000000 4.283724E+01
50.000000 38.000000 4.006922E+01
50.000000 36.000000 4.224278E+01
50.000000 34.000000 4.669460E+01
50.000000 32.000000 4.432694E+01
50.000000 30.000000 3.352149E+01
50.000000 28.000000 2.327056E+01
50.000000 26.000000 6.232345E+00
50.000000 24.000000 -1.836722E+01
50.000000 22.000000 -3.007433E+01
50.000000 20.000000 -3.558767E+01
50.000000 18.000000 -4.033384E+01
50.000000 16.000000 -4.048013E+01
50.000000 14.000000 -3.237687E+01
50.000000 12.000000 -8.353222E+00
50.000000 10.000000 2.566484E+01
50.000000 8.000000 4.081961E+01
50.000000 6.000000 2.766973E+01
50.000000 4.000000 5.061751E+00
50.000000 2.000000 1.279610E+01
50.000000 0.000000 3.898471E+01
50.000000 -2.000000 5.428268E+01
50.000000 -4.000000 3.014578E+01
50.000000 -6.000000 -1.248968E+01
50.000000 -8.000000 -2.536043E+01
50.000000 -10.000000 -9.205077E+00
50.000000 -12.000000 1.297034E+01
50.000000 -14.000000 2.101604E+01
50.000000 -16.000000 2.148961E+01
50.000000 -18.000000 2.575404E+01
50.000000 -20.000000 3.501413E+01
50.000000 -22.000000 4.324418E+01
50.000000 -24.000000 3.934970E+01
50.000000 -26.000000 3.496059E+01
50.000000 -28.000000 3.098795E+01
50.000000 -30.000000 1.641294E+01
50.000000 -32.000000 1.248117E+01
50.000000 -34.000000 1.988286E+01
50.000000 -36.000000 2.211473E+01
50.000000 -38.000000 2.220687E+01
50.000000 -40.000000 1.854568E+01
52.000000 40.000000 4.066263E+01
52.000000 38.000000 4.063003E+01
52.000000 36.000000 4.356817E+01
52.000000 34.000000 4.978966E+01
52.000000 32.000000 5.163476E+01
52.000000 30.000000 4.420522E+01
52.000000 28.000000 3.545026E+01
52.000000 26.000000 1.709114E+01
52.000000 24.000000 -1.208089E+01
52.000000 22.000000 -2.993638E+01
52.000000 20.000000 -3.945730E+01
52.000000 18.000000 -4.807017E+01
52.000000 16.000000 -5.037012E+01
52.000000 14.000000 -4.352371E+01
52.000000 12.000000 -2.267334E+01
52.000000 10.000000 5.979280E+00
52.000000 8.000000 2.010031E+01
52.000000 6.000000 9.210276E+00
52.000000 4.000000 -4.205254E+00
52.000000 2.000000 1.135941E+01
52.000000 0.000000 4.033538E+01
52.000000 -2.000000 5.373527E+01
52.000000 -4.000000 3.413221E+01
52.000000 -6.000000 -2.297998E+00
52.000000 -8.000000 -1.473102E+01
52.000000 -10.000000 -6.250062E+00
52.000000 -12.000000 7.064659E+00
52.000000 -14.000000 1.115307E+01
52.000000 -16.000000 1.355728E+01
52.000000 -18.000000 2.086349E+01
52.000000 -20.000000 3.371841E+01
52.000000 -22.000000 4.644460E+01
52.000000 -24.000000 4.867634E+01
52.000000 -26.000000 4.556355E+01
52.000000 -28.000000 3.976631E+01
52.000000 -30.000000 2.794253E+01
52.000000 -32.000000 2.151578E+01
52.000000 -34.000000 2.167933E+01
52.000000 -36.000000 1.930272E+01
52.000000 -38.000000 1.594032E+01
52.000000 -40.000000 1.336704E+01
54.000000 40.000000 3.812865E+01
54.000000 38.000000 4.196747E+01
54.000000 36.000000 4.912593E+01
54.000000 34.000000 5.839425E+01
54.000000 32.000000 6.154463E+01
54.000000 30.000000 5.667224E+01
54.000000 28.000000 4.821901E+01
54.000000 26.000000 2.972425E+01
54.000000 24.000000 -3.367090E-01
54.000000 22.000000 -2.503917E+01
54.000000 20.000000 -3.928344E+01
54.000000 18.000000 -5.096979E+01
54.000000 16.000000 -5.551719E+01
54.000000 14.000000 -4.980238E+01
54.000000 12.000000 -3.199932E+01
54.000000 10.000000 -1.096416E+01
54.000000 8.000000 -4.099629E+00
54.000000 6.000000 -1.546526E+01
54.000000 4.000000 -2.265056E+01
54.000000 2.000000 -4.893075E+00
54.000000 0.000000 2.164639E+01
54.000000 -2.000000 3.324676E+01
54.000000 -4.000000 2.196810E+01
54.000000 -6.000000 -2.864840E-01
54.000000 -8.000000 -5.278301E+00
54.000000 -10.000000 2.594352E+00
54.000000 -12.000000 9.874231E+00
54.000000 -14.000000 9.405412E+00
54.000000 -16.000000 1.241217E+01
54.000000 -18.000000 2.076509E+01
54.000000 -20.000000 3.504763E+01
54.000000 -22.000000 4.953275E+01
54.000000 -24.000000 5.256210E+01
54.000000 -26.000000 4.824118E+01
54.000000 -28.000000 4.291903E+01
54.000000 -30.000000 3.434615E+01
54.000000 -32.000000 2.664847E+01
54.000000 -34.000000 2.280722E+01
54.000000 -36.000000 1.817249E+01
54.000000 -38.000000 1.126557E+01
