-30.000000 38.000000 2.141635E+01
-30.000000 36.000000 4.326539E+01
-30.000000 34.000000 6.096107E+01
-30.000000 32.000000 6.223830E+01
-30.000000 30.000000 4.361167E+01
-30.000000 28.000000 1.772269E+01
-30.000000 26.000000 9.415297E+00
-30.000000 24.000000 1.820349E+01
-30.000000 22.000000 4.114556E+01
-30.000000 20.000000 6.883954E+01
-30.000000 18.000000 9.626999E+01
-30.000000 16.000000 1.175019E+02
-30.000000 14.000000 1.362454E+02
-30.000000 12.000000 1.379258E+02
-30.000000 10.000000 1.226896E+02
-30.000000 8.000000 8.757295E+01
-30.000000 6.000000 7.346745E+01
-30.000000 4.000000 6.400631E+01
-30.000000 2.000000 3.287117E+01
-30.000000 0.000000 -9.256196E+00
-30.000000 -2.000000 -4.907496E+01
-30.000000 -4.000000 -8.039669E+01
-30.000000 -6.000000 -1.079972E+02
-30.000000 -8.000000 -1.186895E+02
-30.000000 -10.000000 -1.296403E+02
-30.000000 -12.000000 -1.388191E+02
-30.000000 -14.000000 -1.520374E+02
-30.000000 -16.000000 -1.565209E+02
-30.000000 -18.000000 -1.501227E+02
-30.000000 -20.000000 -1.338105E+02
-30.000000 -22.000000 -1.087998E+02
-30.000000 -24.000000 -7.792595E+01
-30.000000 -26.000000 -5.593872E+01
-30.000000 -28.000000 -5.862445E+01
-30.000000 -30.000000 -6.195447E+01
-30.000000 -32.000000 -4.740384E+01
-30.000000 -34.000000 -1.731050E+01
-30.000000 -36.000000 1.278563E+01
-30.000000 -38.000000 2.724775E+01
-30.000000 -40.000000 3.290807E+01
-28.000000 40.000000 2.497243E+01
-28.000000 38.000000 2.740359E+01
-28.000000 36.000000 4.001258E+01
-28.000000 34.000000 5.237409E+01
-28.000000 32.000000 5.485725E+01
-28.000000 30.000000 4.140187E+01
-28.000000 28.000000 2.132767E+01
-28.000000 26.000000 1.547701E+01
-28.000000 24.000000 2.306998E+01
-28.000000 22.000000 3.950904E+01
-28.000000 20.000000 6.304244E+01
-28.000000 18.000000 8.239947E+01
-28.000000 16.000000 9.486834E+01
-28.000000 14.000000 1.108881E+02
-28.000000 12.000000 1.154685E+02
-28.000000 10.000000 9.548179E+01
-28.000000 8.000000 5.966025E+01
-28.000000 6.000000 5.027157E+01
-28.000000 4.000000 5.318680E+01
-28.000000 2.000000 3.285553E+01
-28.000000 0.000000 -4.647583E+00
-28.000000 -2.000000 -4.355632E+01
-28.000000 -4.000000 -6.876194E+01
-28.000000 -6.000000 -9.342215E+01
-28.000000 -8.000000 -9.523772E+01
-28.000000 -10.000000 -9.236296E+01
-28.000000 -12.000000 -1.058299E+02
-28.000000 -14.000000 -1.232926E+02
-28.000000 -16.000000 -1.334701E+02
-28.000000 -18.000000 -1.309814E+02
-28.000000 -20.000000 -1.162800E+02
-28.000000 -22.000000 -9.236871E+01
-28.000000 -24.000000 -6.230244E+01
-28.000000 -26.000000 -3.890680E+01
-28.000000 -28.000000 -4.181779E+01
-28.000000 -30.000000 -4.919021E+01
-28.000000 -32.000000 -3.657365E+01
-28.000000 -34.000000 -7.597232E+00
-28.000000 -36.000000 1.895846E+01
-28.000000 -38.000000 2.640182E+01
-28.000000 -40.000000 2.828546E+01
-26.000000 40.000000 2.653345E+01
-26.000000 38.000000 3.092176E+01
-26.000000 36.000000 3.734775E+01
-26.000000 34.000000 4.628023E+01
-26.000000 32.000000 5.066451E+01
-26.000000 30.000000 4.552886E+01
-26.000000 28.000000 3.373042E+01
-26.000000 26.000000 2.513907E+01
-26.000000 24.000000 2.175100E+01
-26.000000 22.000000 3.138570E+01
-26.000000 20.000000 4.434278E+01
-26.000000 18.000000 5.091619E+01
-26.000000 16.000000 5.219373E+01
-26.000000 14.000000 5.747570E+01
-26.000000 12.000000 6.331156E+01
-26.000000 10.000000 5.117117E+01
-26.000000 8.000000 2.965250E+01
-26.000000 6.000000 3.037448E+01
-26.000000 4.000000 3.688322E+01
-26.000000 2.000000 1.893444E+01
-26.000000 0.000000 -1.340616E+01
-26.000000 -2.000000 -4.220099E+01
-26.000000 -4.000000 -6.026707E+01
-26.000000 -6.000000 -7.003605E+01
-26.000000 -8.000000 -5.657522E+01
-26.000000 -10.000000 -3.971005E+01
-26.000000 -12.000000 -5.171964E+01
-26.000000 -14.000000 -7.265602E+01
-26.000000 -16.000000 -8.918034E+01
-26.000000 -18.000000 -9.337305E+01
-26.000000 -20.000000 -8.265923E+01
-26.000000 -22.000000 -6.040756E+01
-26.000000 -24.000000 -3.394695E+01
-26.000000 -26.000000 -1.247324E+01
-26.000000 -28.000000 -1.805827E+01
-26.000000 -30.000000 -2.680898E+01
-26.000000 -32.000000 -1.746739E+01
-26.000000 -34.000000 5.746470E+00
-26.000000 -36.000000 2.372827E+01
-26.000000 -38.000000 2.247712E+01
-26.000000 -40.000000 1.957449E+01
-24.000000 40.000000 2.162344E+01
-24.000000 38.000000 2.764438E+01
-24.000000 36.000000 3.551419E+01
-24.000000 34.000000 4.257636E+01
-24.000000 32.000000 4.979303E+01
-24.000000 30.000000 5.106788E+01
-24.000000 28.000000 4.337990E+01
-24.000000 26.000000 3.060265E+01
-24.000000 24.000000 1.948594E+01
-24.000000 22.000000 1.649541E+01
-24.000000 20.000000 1.192517E+01
-24.000000 18.000000 3.105211E+00
-24.000000 16.000000 -5.153824E+00
-24.000000 14.000000 -1.281318E+01
-24.000000 12.000000 -1.074029E+01
-24.000000 10.000000 -1.388001E+01
-24.000000 8.000000 -1.694924E+01
-24.000000 6.000000 -5.593604E+00
-24.000000 4.000000 5.004975E+00
-24.000000 2.000000 -1.056509E+01
-24.000000 0.000000 -3.181967E+01
-24.000000 -2.000000 -4.207725E+01
-24.000000 -4.000000 -4.420590E+01
-24.000000 -6.000000 -3.305381E+01
-24.000000 -8.000000 -8.894712E+00
-24.000000 -10.000000 1.729969E+01
-24.000000 -12.000000 1.739975E+01
-24.000000 -14.000000 1.010532E-01
-24.000000 -16.000000 -1.886054E+01
-24.000000 -18.000000 -2.829122E+01
-24.000000 -20.000000 -2.302573E+01
-24.000000 -22.000000 -5.693912E+00
-24.000000 -24.000000 1.403608E+01
-24.000000 -26.000000 2.632920E+01
-24.000000 -28.000000 2.044019E+01
-24.000000 -30.000000 1.140154E+01
-24.000000 -32.000000 1.497945E+01
-24.000000 -34.000000 2.532324E+01
-24.000000 -36.000000 2.709472E+01
-24.000000 -38.000000 1.935165E+01
-24.000000 -40.000000 1.086196E+01
-22.000000 40.000000 2.204266E+01
-22.000000 38.000000 2.790477E+01
-22.000000 36.000000 3.202393E+01
-22.000000 34.000000 3.557794E+01
-22.000000 32.000000 4.367964E+01
-22.000000 30.000000 4.778008E+01
-22.000000 28.000000 4.300656E+01
-22.000000 26.000000 3.054476E+01
-22.000000 24.000000 1.843502E+01
-22.000000 22.000000 2.991919E+00
-22.000000 20.000000 -1.425584E+01
-22.000000 18.000000 -3.185137E+01
-22.000000 16.000000 -4.423729E+01
-22.000000 14.000000 -5.748620E+01
-22.000000 12.000000 -6.642518E+01
-22.000000 10.000000 -7.955871E+01
-22.000000 8.000000 -7.533327E+01
-22.000000 6.000000 -5.586162E+01
-22.000000 4.000000 -3.070351E+01
-22.000000 2.000000 -3.114720E+01
-22.000000 0.000000 -4.188755E+01
-22.000000 -2.000000 -4.092652E+01
-22.000000 -4.000000 -2.517364E+01
-22.000000 -6.000000 1.830659E+00
-22.000000 -8.000000 3.064405E+01
-22.000000 -10.000000 6.177495E+01
-22.000000 -12.000000 7.080295E+01
-22.000000 -14.000000 6.311663E+01
-22.000000 -16.000000 4.742473E+01
-22.000000 -18.000000 3.698172E+01
-22.000000 -20.000000 3.863145E+01
-22.000000 -22.000000 4.937188E+01
-22.000000 -24.000000 5.944865E+01
-22.000000 -26.000000 6.192228E+01
-22.000000 -28.000000 5.475018E+01
-22.000000 -30.000000 4.732170E+01
-22.000000 -32.000000 4.480838E+01
-22.000000 -34.000000 4.144944E+01
-22.000000 -36.000000 2.803657E+01
-22.000000 -38.000000 1.393388E+01
-22.000000 -40.000000 2.465468E+00
-20.000000 40.000000 2.211673E+01
-20.000000 38.000000 2.663094E+01
-20.000000 36.000000 2.772464E+01
-20.000000 34.000000 2.816719E+01
-20.000000 32.000000 3.245813E+01
-20.000000 30.000000 3.546667E+01
-20.000000 28.000000 3.320736E+01
-20.000000 26.000000 2.617246E+01
-20.000000 24.000000 1.866219E+01
-20.000000 22.000000 5.098877E-01
-20.000000 20.000000 -2.060137E+01
-20.000000 18.000000 -4.249094E+01
-20.000000 16.000000 -5.970710E+01
-20.000000 14.000000 -7.988522E+01
-20.000000 12.000000 -1.003960E+02
-20.000000 10.000000 -1.231355E+02
-20.000000 8.000000 -1.141779E+02
-20.000000 6.000000 -8.856766E+01
-20.000000 4.000000 -5.047516E+01
-20.000000 2.000000 -3.525903E+01
-20.000000 0.000000 -3.823839E+01
-20.000000 -2.000000 -3.357766E+01
-20.000000 -4.000000 -9.026801E+00
-20.000000 -6.000000 2.437056E+01
-20.000000 -8.000000 5.458763E+01
-20.000000 -10.000000 8.885266E+01
-20.000000 -12.000000 1.031183E+02
-20.000000 -14.000000 1.039206E+02
-20.000000 -16.000000 9.289106E+01
-20.000000 -18.000000 8.312101E+01
-20.000000 -20.000000 8.245643E+01
-20.000000 -22.000000 8.725690E+01
-20.000000 -24.000000 8.810898E+01
-20.000000 -26.000000 8.181277E+01
-20.000000 -28.000000 7.263247E+01
-20.000000 -30.000000 6.537612E+01
-20.000000 -32.000000 5.952703E+01
-20.000000 -34.000000 4.851175E+01
-20.000000 -36.000000 2.707860E+01
-20.000000 -38.000000 1.055826E+01
-20.000000 -40.000000 -1.050901E+00
-18.000000 40.000000 2.016293E+01
-18.000000 38.000000 2.374091E+01
-18.000000 36.000000 2.349871E+01
-18.000000 34.000000 2.133371E+01
-18.000000 32.000000 1.970479E+01
-18.000000 30.000000 1.951509E+01
-18.000000 28.000000 1.755667E+01
-18.000000 26.000000 1.580028E+01
-18.000000 24.000000 1.346914E+01
-18.000000 22.000000 3.134829E+00
-18.000000 20.000000 -1.172583E+01
-18.000000 18.000000 -2.982353E+01
-18.000000 16.000000 -4.561744E+01
-18.000000 14.000000 -6.736731E+01
-18.000000 12.000000 -9.296519E+01
-18.000000 10.000000 -1.179248E+02
-18.000000 8.000000 -1.061509E+02
-18.000000 6.000000 -7.796647E+01
-18.000000 4.000000 -3.706360E+01
-18.000000 2.000000 -1.802369E+01
-18.000000 0.000000 -1.884627E+01
-18.000000 -2.000000 -1.760918E+01
-18.000000 -4.000000 -7.893966E-01
-18.000000 -6.000000 2.759495E+01
-18.000000 -8.000000 5.841107E+01
-18.000000 -10.000000 9.352203E+01
-18.000000 -12.000000 1.102370E+02
-18.000000 -14.000000 1.124632E+02
-18.000000 -16.000000 1.032834E+02
-18.000000 -18.000000 9.426263E+01
-18.000000 -20.000000 9.218536E+01
-18.000000 -22.000000 9.334922E+01
-18.000000 -24.000000 8.811546E+01
-18.000000 -26.000000 7.656865E+01
-18.000000 -28.000000 6.625606E+01
-18.000000 -30.000000 5.896330E+01
-18.000000 -32.000000 5.281666E+01
-18.000000 -34.000000 4.185550E+01
-18.000000 -36.000000 2.338771E+01
-18.000000 -38.000000 1.069924E+01
-18.000000 -40.000000 2.525997E+00
-16.000000 40.000000 1.723132E+01
-16.000000 38.000000 1.990281E+01
-16.000000 36.000000 2.096721E+01
-16.000000 34.000000 1.914774E+01
-16.000000 32.000000 1.303560E+01
-16.000000 30.000000 6.918797E+00
-16.000000 28.000000 -6.552582E-01
-16.000000 26.000000 -3.570690E+00
-16.000000 24.000000 -5.851131E+00
-16.000000 22.000000 -5.099766E+00
-16.000000 20.000000 -5.294123E+00
-16.000000 18.000000 -5.216003E+00
-16.000000 16.000000 -2.582090E+00
-16.000000 14.000000 -7.424957E+00
-16.000000 12.000000 -2.493649E+01
-16.000000 10.000000 -5.129926E+01
-16.000000 8.000000 -5.004206E+01
-16.000000 6.000000 -2.755240E+01
-16.000000 4.000000 9.229730E+00
-16.000000 2.000000 2.398607E+01
-16.000000 0.000000 1.517805E+01
-16.000000 -2.000000 1.587801E+00
-16.000000 -4.000000 4.940084E-01
-16.000000 -6.000000 1.573518E+01
-16.000000 -8.000000 4.316864E+01
-16.000000 -10.000000 7.546132E+01
-16.000000 -12.000000 9.029530E+01
-16.000000 -14.000000 8.881780E+01
-16.000000 -16.000000 7.682667E+01
-16.000000 -18.000000 6.677890E+01
-16.000000 -20.000000 6.520640E+01
-16.000000 -22.000000 6.623414E+01
-16.000000 -24.000000 5.783653E+01
-16.000000 -26.000000 4.386210E+01
-16.000000 -28.000000 3.457561E+01
-16.000000 -30.000000 2.942809E+01
-16.000000 -32.000000 2.600344E+01
-16.000000 -34.000000 2.220308E+01
-16.000000 -36.000000 1.697830E+01
-16.000000 -38.000000 1.436044E+01
-16.000000 -40.000000 1.302089E+01
-14.000000 40.000000 1.366293E+01
-14.000000 38.000000 1.339224E+01
-14.000000 36.000000 2.042628E+01
-14.000000 34.000000 2.496614E+01
-14.000000 32.000000 1.782545E+01
-14.000000 30.000000 2.860817E+00
-14.000000 28.000000 -1.528494E+01
-14.000000 26.000000 -2.576731E+01
-14.000000 24.000000 -3.525982E+01
-14.000000 22.000000 -2.547931E+01
-14.000000 20.000000 -6.099907E+00
-14.000000 18.000000 2.439191E+01
-14.000000 16.000000 5.966695E+01
-14.000000 14.000000 8.906923E+01
-14.000000 12.000000 9.110433E+01
-14.000000 10.000000 6.416703E+01
-14.000000 8.000000 3.908724E+01
-14.000000 6.000000 4.641886E+01
-14.000000 4.000000 7.225815E+01
-14.000000 2.000000 7.470516E+01
-14.000000 0.000000 4.851152E+01
-14.000000 -2.000000 1.336004E+01
-14.000000 -4.000000 -8.136874E+00
-14.000000 -6.000000 -8.551330E+00
-14.000000 -8.000000 1.227409E+01
-14.000000 -10.000000 3.909568E+01
-14.000000 -12.000000 4.851812E+01
-14.000000 -14.000000 4.036941E+01
-14.000000 -16.000000 2.158603E+01
-14.000000 -18.000000 8.410745E+00
-14.000000 -20.000000 9.104516E+00
-14.000000 -22.000000 1.430833E+01
-14.000000 -24.000000 5.965827E+00
-14.000000 -26.000000 -7.092477E+00
-14.000000 -28.000000 -1.200513E+01
-14.000000 -30.000000 -1.189199E+01
-14.000000 -32.000000 -9.864210E+00
-14.000000 -34.000000 -2.730468E+00
-14.000000 -36.000000 1.019808E+01
-14.000000 -38.000000 2.020476E+01
-14.000000 -40.000000 2.721523E+01
-12.000000 40.000000 1.208244E+01
-12.000000 38.000000 1.050278E+01
-12.000000 36.000000 2.271721E+01
-12.000000 34.000000 3.295922E+01
-12.000000 32.000000 2.572582E+01
-12.000000 30.000000 6.111511E+00
-12.000000 28.000000 -1.633822E+01
-12.000000 26.000000 -3.004551E+01
-12.000000 24.000000 -4.386310E+01
-12.000000 22.000000 -2.882828E+01
-12.000000 20.000000 3.180468E+00
-12.000000 18.000000 5.520111E+01
-12.000000 16.000000 1.150950E+02
-12.000000 14.000000 1.736467E+02
-12.000000 12.000000 1.949050E+02
-12.000000 10.000000 1.717092E+02
-12.000000 8.000000 1.224452E+02
-12.000000 6.000000 1.166146E+02
-12.000000 4.000000 1.305566E+02
-12.000000 2.000000 1.134430E+02
-12.000000 0.000000 6.489298E+01
-12.000000 -2.000000 1.177729E+01
-12.000000 -4.000000 -2.377971E+01
-12.000000 -6.000000 -3.568129E+01
-12.000000 -8.000000 -2.407866E+01
-12.000000 -10.000000 -5.007293E+00
-12.000000 -12.000000 -3.695880E+00
-12.000000 -14.000000 -1.892380E+01
-12.000000 -16.000000 -4.623309E+01
-12.000000 -18.000000 -6.309238E+01
-12.000000 -20.000000 -5.985324E+01
-12.000000 -22.000000 -4.759890E+01
-12.000000 -24.000000 -5.106985E+01
-12.000000 -26.000000 -5.951901E+01
-12.000000 -28.000000 -5.684885E+01
-12.000000 -30.000000 -4.873477E+01
-12.000000 -32.000000 -4.079659E+01
-12.000000 -34.000000 -2.495328E+01
-12.000000 -36.000000 4.509291E+00
-12.000000 -38.000000 2.655381E+01
-12.000000 -40.000000 4.178444E+01
-10.000000 40.000000 1.028923E+01
-10.000000 38.000000 1.593046E+01
-10.000000 36.000000 3.042025E+01
-10.000000 34.000000 4.032871E+01
-10.000000 32.000000 3.196469E+01
-10.000000 30.000000 1.559774E+01
-10.000000 28.000000 1.379662E+00
-10.000000 26.000000 -3.757339E+00
-10.000000 24.000000 -6.216583E+00
-10.000000 22.000000 1.367082E+01
-10.000000 20.000000 4.350012E+01
-10.000000 18.000000 8.807338E+01
-10.000000 16.000000 1.405597E+02
-10.000000 14.000000 1.933250E+02
-10.000000 12.000000 2.133989E+02
-10.000000 10.000000 1.945711E+02
-10.000000 8.000000 1.510017E+02
-10.000000 6.000000 1.491355E+02
-10.000000 4.000000 1.569144E+02
-10.000000 2.000000 1.248141E+02
-10.000000 0.000000 6.276838E+01
-10.000000 -2.000000 4.947149E+00
-10.000000 -4.000000 -3.108772E+01
-10.000000 -6.000000 -4.747744E+01
-10.000000 -8.000000 -4.867123E+01
-10.000000 -10.000000 -4.138668E+01
-10.000000 -12.000000 -5.144545E+01
-10.000000 -14.000000 -7.304642E+01
-10.000000 -16.000000 -1.064646E+02
-10.000000 -18.000000 -1.258327E+02
-10.000000 -20.000000 -1.198679E+02
-10.000000 -22.000000 -9.805043E+01
-10.000000 -24.000000 -9.125541E+01
-10.000000 -26.000000 -9.238878E+01
-10.000000 -28.000000 -8.149393E+01
-10.000000 -30.000000 -6.725151E+01
-10.000000 -32.000000 -5.812447E+01
-10.000000 -34.000000 -3.954501E+01
-10.000000 -36.000000 6.805859E-01
-10.000000 -38.000000 3.113620E+01
-10.000000 -40.000000 5.234999E+01
-8.000000 40.000000 5.492142E+00
-8.000000 38.000000 2.329429E+01
-8.000000 36.000000 4.250602E+01
-8.000000 34.000000 5.076942E+01
-8.000000 32.000000 4.203692E+01
-8.000000 30.000000 3.163142E+01
-8.000000 28.000000 3.028471E+01
-8.000000 26.000000 3.991811E+01
-8.000000 24.000000 5.970315E+01
-8.000000 22.000000 8.395829E+01
-8.000000 20.000000 1.039894E+02
-8.000000 18.000000 1.173520E+02
-8.000000 16.000000 1.333806E+02
-8.000000 14.000000 1.492474E+02
-8.000000 12.000000 1.458890E+02
-8.000000 10.000000 1.248242E+02
-8.000000 8.000000 1.087869E+02
-8.000000 6.000000 1.234380E+02
-8.000000 4.000000 1.322262E+02
-8.000000 2.000000 9.823264E+01
-8.000000 0.000000 4.552439E+01
-8.000000 -2.000000 3.036031E+00
-8.000000 -4.000000 -2.467997E+01
-8.000000 -6.000000 -4.166407E+01
-8.000000 -8.000000 -5.603465E+01
-8.000000 -10.000000 -6.425383E+01
-8.000000 -12.000000 -8.347120E+01
-8.000000 -14.000000 -1.090472E+02
-8.000000 -16.000000 -1.410572E+02
-8.000000 -18.000000 -1.585257E+02
-8.000000 -20.000000 -1.483070E+02
-8.000000 -22.000000 -1.177571E+02
-8.000000 -24.000000 -9.705128E+01
-8.000000 -26.000000 -8.556626E+01
-8.000000 -28.000000 -7.132687E+01
-8.000000 -30.000000 -6.166175E+01
-8.000000 -32.000000 -5.853516E+01
-8.000000 -34.000000 -4.250383E+01
-8.000000 -36.000000 -7.303276E-01
-8.000000 -38.000000 3.024133E+01
-8.000000 -40.000000 5.323943E+01
-6.000000 40.000000 4.006641E+00
-6.000000 38.000000 2.909528E+01
-6.000000 36.000000 5.223328E+01
-6.000000 34.000000 6.109959E+01
-6.000000 32.000000 5.364798E+01
-6.000000 30.000000 4.835971E+01
-6.000000 28.000000 5.600698E+01
-6.000000 26.000000 7.679709E+01
-6.000000 24.000000 1.115021E+02
-6.000000 22.000000 1.303416E+02
-6.000000 20.000000 1.392019E+02
-6.000000 18.000000 1.236453E+02
-6.000000 16.000000 1.052263E+02
-6.000000 14.000000 8.510572E+01
-6.000000 12.000000 5.374670E+01
-6.000000 10.000000 1.621473E+01
-6.000000 8.000000 1.371247E+01
-6.000000 6.000000 4.327165E+01
-6.000000 4.000000 6.961333E+01
-6.000000 2.000000 5.625729E+01
-6.000000 0.000000 2.998964E+01
-6.000000 -2.000000 7.039037E+00
-6.000000 -4.000000 -1.333119E+01
-6.000000 -6.000000 -3.482925E+01
-6.000000 -8.000000 -5.678828E+01
-6.000000 -10.000000 -7.458595E+01
-6.000000 -12.000000 -9.416130E+01
-6.000000 -14.000000 -1.155842E+02
-6.000000 -16.000000 -1.388420E+02
-6.000000 -18.000000 -1.488765E+02
-6.000000 -20.000000 -1.311787E+02
-6.000000 -22.000000 -9.553514E+01
-6.000000 -24.000000 -6.187538E+01
-6.000000 -26.000000 -4.023439E+01
-6.000000 -28.000000 -3.256550E+01
-6.000000 -30.000000 -3.516457E+01
-6.000000 -32.000000 -4.138679E+01
-6.000000 -34.000000 -3.461616E+01
-6.000000 -36.000000 -4.363367E+00
-6.000000 -38.000000 2.164680E+01
-6.000000 -40.000000 4.494618E+01
-4.000000 40.000000 9.522305E+00
-4.000000 38.000000 3.611411E+01
-4.000000 36.000000 5.669460E+01
-4.000000 34.000000 6.665464E+01
-4.000000 32.000000 6.205467E+01
-4.000000 30.000000 5.880455E+01
-4.000000 28.000000 6.550638E+01
-4.000000 26.000000 8.336128E+01
-4.000000 24.000000 1.108858E+02
-4.000000 22.000000 1.151544E+02
-4.000000 20.000000 1.142373E+02
-4.000000 18.000000 9.127701E+01
-4.000000 16.000000 6.393665E+01
-4.000000 14.000000 3.384687E+01
-4.000000 12.000000 -5.947069E+00
-4.000000 10.000000 -5.112637E+01
-4.000000 8.000000 -5.856797E+01
-4.000000 6.000000 -3.587591E+01
-4.000000 4.000000 -2.237355E+00
-4.000000 2.000000 6.363233E+00
-4.000000 0.000000 -7.706966E-01
-4.000000 -2.000000 -8.752151E+00
-4.000000 -4.000000 -1.553990E+01
-4.000000 -6.000000 -3.079042E+01
-4.000000 -8.000000 -4.861380E+01
-4.000000 -10.000000 -6.370575E+01
-4.000000 -12.000000 -7.503928E+01
-4.000000 -14.000000 -8.396299E+01
-4.000000 -16.000000 -9.546064E+01
-4.000000 -18.000000 -9.828516E+01
-4.000000 -20.000000 -7.538858E+01
-4.000000 -22.000000 -3.700124E+01
-4.000000 -24.000000 7.770290E-01
-4.000000 -26.000000 1.860565E+01
-4.000000 -28.000000 1.503586E+01
-4.000000 -30.000000 2.847316E+00
-4.000000 -32.000000 -1.583025E+01
-4.000000 -34.000000 -2.542915E+01
-4.000000 -36.000000 -1.346518E+01
-4.000000 -38.000000 8.867712E+00
-4.000000 -40.000000 3.294811E+01
-2.000000 40.000000 1.692898E+01
-2.000000 38.000000 4.352274E+01
-2.000000 36.000000 5.876646E+01
-2.000000 34.000000 6.742290E+01
-2.000000 32.000000 6.467569E+01
-2.000000 30.000000 5.785799E+01
-2.000000 28.000000 5.386826E+01
-2.000000 26.000000 5.345835E+01
-2.000000 24.000000 5.663614E+01
-2.000000 22.000000 5.194477E+01
-2.000000 20.000000 4.537110E+01
-2.000000 18.000000 3.167477E+01
-2.000000 16.000000 1.610250E+01
-2.000000 14.000000 -4.274490E+00
-2.000000 12.000000 -3.131606E+01
-2.000000 10.000000 -6.056697E+01
-2.000000 8.000000 -6.599263E+01
-2.000000 6.000000 -5.693440E+01
-2.000000 4.000000 -3.866146E+01
-2.000000 2.000000 -3.331162E+01
-2.000000 0.000000 -3.648600E+01
-2.000000 -2.000000 -3.194487E+01
-2.000000 -4.000000 -2.679389E+01
-2.000000 -6.000000 -2.404345E+01
-2.000000 -8.000000 -2.632779E+01
-2.000000 -10.000000 -3.108424E+01
-2.000000 -12.000000 -3.021532E+01
-2.000000 -14.000000 -2.759639E+01
-2.000000 -16.000000 -2.927058E+01
-2.000000 -18.000000 -2.819634E+01
-2.000000 -20.000000 -8.551116E+00
-2.000000 -22.000000 2.533381E+01
-2.000000 -24.000000 5.504194E+01
-2.000000 -26.000000 6.345844E+01
-2.000000 -28.000000 5.293607E+01
-2.000000 -30.000000 3.423558E+01
-2.000000 -32.000000 5.075023E+00
-2.000000 -34.000000 -1.873937E+01
-2.000000 -36.000000 -2.016096E+01
-2.000000 -38.000000 -5.365930E-01
-2.000000 -40.000000 2.173793E+01
0.000000 40.000000 2.233272E+01
0.000000 38.000000 4.803127E+01
0.000000 36.000000 5.863842E+01
0.000000 34.000000 6.311989E+01
0.000000 32.000000 5.776028E+01
0.000000 30.000000 4.288600E+01
0.000000 28.000000 2.548754E+01
0.000000 26.000000 6.318897E+00
0.000000 24.000000 -1.278160E+01
0.000000 22.000000 -1.717269E+01
0.000000 20.000000 -2.083692E+01
0.000000 18.000000 -1.811100E+01
0.000000 16.000000 -1.727220E+01
0.000000 14.000000 -2.482374E+01
0.000000 12.000000 -3.853980E+01
0.000000 10.000000 -5.609378E+01
0.000000 8.000000 -5.845120E+01
0.000000 6.000000 -4.996906E+01
0.000000 4.000000 -3.593909E+01
0.000000 2.000000 -3.410492E+01
0.000000 0.000000 -3.731234E+01
0.000000 -2.000000 -2.853371E+01
0.000000 -4.000000 -1.740865E+01
0.000000 -6.000000 -1.241036E+00
0.000000 -8.000000 1.173921E+01
0.000000 -10.000000 2.221939E+01
0.000000 -12.000000 3.438725E+01
0.000000 -14.000000 3.873447E+01
0.000000 -16.000000 3.219657E+01
0.000000 -18.000000 2.585116E+01
0.000000 -20.000000 3.342291E+01
0.000000 -22.000000 5.448649E+01
0.000000 -24.000000 7.122737E+01
0.000000 -26.000000 7.353252E+01
0.000000 -28.000000 6.273484E+01
0.000000 -30.000000 4.287672E+01
0.000000 -32.000000 1.365405E+01
0.000000 -34.000000 -1.257902E+01
0.000000 -36.000000 -1.793201E+01
0.000000 -38.000000 -2.212092E+00
0.000000 -40.000000 1.664263E+01
2.000000 40.000000 2.391678E+01
2.000000 38.000000 4.683262E+01
2.000000 36.000000 5.437403E+01
2.000000 34.000000 5.376024E+01
2.000000 32.000000 4.245429E+01
2.000000 30.000000 2.125512E+01
2.000000 28.000000 -4.192583E+00
2.000000 26.000000 -2.947378E+01
2.000000 24.000000 -5.546186E+01
2.000000 22.000000 -5.613895E+01
2.000000 20.000000 -5.239582E+01
2.000000 18.000000 -3.748186E+01
2.000000 16.000000 -2.879778E+01
2.000000 14.000000 -3.279337E+01
2.000000 12.000000 -4.521090E+01
2.000000 10.000000 -6.471300E+01
2.000000 8.000000 -6.893208E+01
2.000000 6.000000 -5.112230E+01
2.000000 4.000000 -1.734627E+01
2.000000 2.000000 -1.639298E+00
2.000000 0.000000 -2.834372E+00
2.000000 -2.000000 1.168355E+00
2.000000 -4.000000 1.396115E+01
2.000000 -6.000000 3.392223E+01
2.000000 -8.000000 5.537358E+01
2.000000 -10.000000 8.134182E+01
2.000000 -12.000000 9.999087E+01
2.000000 -14.000000 9.789335E+01
2.000000 -16.000000 7.417273E+01
2.000000 -18.000000 4.926385E+01
2.000000 -20.000000 3.881442E+01
2.000000 -22.000000 4.360119E+01
2.000000 -24.000000 4.953560E+01
2.000000 -26.000000 4.876568E+01
2.000000 -28.000000 4.238668E+01
2.000000 -30.000000 2.938281E+01
2.000000 -32.000000 9.954298E+00
2.000000 -34.000000 -9.114268E+00
2.000000 -36.000000 -1.138353E+01
2.000000 -38.000000 2.342335E+00
2.000000 -40.000000 2.009886E+01
4.000000 40.000000 1.995909E+01
4.000000 38.000000 3.783699E+01
4.000000 36.000000 4.497545E+01
4.000000 34.000000 4.341384E+01
4.000000 32.000000 3.000784E+01
4.000000 30.000000 8.470782E+00
4.000000 28.000000 -1.791484E+01
4.000000 26.000000 -3.935368E+01
4.000000 24.000000 -5.862925E+01
4.000000 22.000000 -5.557137E+01
4.000000 20.000000 -4.692780E+01
4.000000 18.000000 -3.298039E+01
4.000000 16.000000 -2.896125E+01
4.000000 14.000000 -4.006474E+01
4.000000 12.000000 -6.044062E+01
4.000000 10.000000 -8.457331E+01
4.000000 8.000000 -8.390587E+01
4.000000 6.000000 -5.350643E+01
4.000000 4.000000 1.634661E+00
4.000000 2.000000 3.540420E+01
4.000000 0.000000 4.238468E+01
4.000000 -2.000000 4.318197E+01
4.000000 -4.000000 5.300839E+01
4.000000 -6.000000 6.800355E+01
4.000000 -8.000000 8.802787E+01
4.000000 -10.000000 1.182039E+02
4.000000 -12.000000 1.358551E+02
4.000000 -14.000000 1.247051E+02
4.000000 -16.000000 8.500913E+01
4.000000 -18.000000 4.351630E+01
4.000000 -20.000000 1.824411E+01
4.000000 -22.000000 1.080010E+01
4.000000 -24.000000 9.259399E+00
4.000000 -26.000000 7.691650E+00
4.000000 -28.000000 7.956270E+00
4.000000 -30.000000 5.342358E+00
4.000000 -32.000000 -8.073980E-01
4.000000 -34.000000 -9.654789E+00
4.000000 -36.000000 -5.164973E+00
4.000000 -38.000000 9.731815E+00
4.000000 -40.000000 2.844353E+01
6.000000 40.000000 1.068061E+01
6.000000 38.000000 2.591663E+01
6.000000 36.000000 3.428742E+01
6.000000 34.000000 3.726603E+01
6.000000 32.000000 2.702871E+01
6.000000 30.000000 8.335274E+00
6.000000 28.000000 -1.557306E+01
6.000000 26.000000 -3.061301E+01
6.000000 24.000000 -3.728822E+01
6.000000 22.000000 -2.987535E+01
6.000000 20.000000 -2.022025E+01
6.000000 18.000000 -1.441428E+01
6.000000 16.000000 -1.954426E+01
6.000000 14.000000 -3.919981E+01
6.000000 12.000000 -6.661709E+01
6.000000 10.000000 -9.479023E+01
6.000000 8.000000 -8.651030E+01
6.000000 6.000000 -4.631336E+01
6.000000 4.000000 2.083547E+01
6.000000 2.000000 6.558276E+01
6.000000 0.000000 7.886015E+01
6.000000 -2.000000 7.595136E+01
6.000000 -4.000000 7.742292E+01
6.000000 -6.000000 8.187356E+01
6.000000 -8.000000 9.332989E+01
6.000000 -10.000000 1.150746E+02
6.000000 -12.000000 1.222449E+02
6.000000 -14.000000 1.032688E+02
6.000000 -16.000000 5.930817E+01
6.000000 -18.000000 1.459076E+01
6.000000 -20.000000 -1.361995E+01
6.000000 -22.000000 -2.473251E+01
6.000000 -24.000000 -2.804511E+01
6.000000 -26.000000 -2.732410E+01
6.000000 -28.000000 -2.188804E+01
6.000000 -30.000000 -1.688159E+01
6.000000 -32.000000 -1.299234E+01
6.000000 -34.000000 -1.211854E+01
6.000000 -36.000000 8.659363E-02
6.000000 -38.000000 1.688485E+01
6.000000 -40.000000 3.644124E+01
8.000000 40.000000 -3.458050E+00
8.000000 38.000000 1.493889E+01
8.000000 36.000000 2.899935E+01
8.000000 34.000000 4.004338E+01
8.000000 32.000000 3.405233E+01
8.000000 30.000000 1.552325E+01
8.000000 28.000000 -8.669186E+00
8.000000 26.000000 -1.921705E+01
8.000000 24.000000 -1.312498E+01
8.000000 22.000000 -2.021868E+00
8.000000 20.000000 6.171276E+00
8.000000 18.000000 6.171327E+00
8.000000 16.000000 1.879644E-01
8.000000 14.000000 -1.545731E+01
8.000000 12.000000 -4.032726E+01
8.000000 10.000000 -7.099812E+01
8.000000 8.000000 -6.370700E+01
8.000000 6.000000 -2.188878E+01
8.000000 4.000000 4.920996E+01
8.000000 2.000000 9.273488E+01
8.000000 0.000000 9.756213E+01
8.000000 -2.000000 8.048425E+01
8.000000 -4.000000 6.606075E+01
8.000000 -6.000000 5.940772E+01
8.000000 -8.000000 6.276069E+01
8.000000 -10.000000 7.468015E+01
8.000000 -12.000000 7.044864E+01
8.000000 -14.000000 4.404911E+01
8.000000 -16.000000 2.222057E+00
8.000000 -18.000000 -3.336334E+01
8.000000 -20.000000 -4.982860E+01
8.000000 -22.000000 -5.270645E+01
8.000000 -24.000000 -5.125358E+01
8.000000 -26.000000 -4.615495E+01
8.000000 -28.000000 -3.754929E+01
8.000000 -30.000000 -2.932726E+01
8.000000 -32.000000 -2.114478E+01
8.000000 -34.000000 -1.404934E+01
8.000000 -36.000000 3.716992E+00
8.000000 -38.000000 2.189599E+01
8.000000 -40.000000 4.192807E+01
10.000000 40.000000 -2.005542E+01
10.000000 38.000000 5.980350E+00
10.000000 36.000000 3.168500E+01
10.000000 34.000000 5.015584E+01
10.000000 32.000000 4.458109E+01
10.000000 30.000000 2.044814E+01
10.000000 28.000000 -8.265812E+00
10.000000 26.000000 -1.505542E+01
10.000000 24.000000 1.191701E+00
10.000000 22.000000 1.494610E+01
10.000000 20.000000 2.040844E+01
10.000000 18.000000 1.888297E+01
10.000000 16.000000 2.269704E+01
10.000000 14.000000 2.742532E+01
10.000000 12.000000 1.839617E+01
10.000000 10.000000 -7.701608E+00
10.000000 8.000000 -7.755727E+00
10.000000 6.000000 2.949854E+01
10.000000 4.000000 9.052373E+01
10.000000 2.000000 1.156346E+02
10.000000 0.000000 9.724729E+01
10.000000 -2.000000 5.321557E+01
10.000000 -4.000000 1.553152E+01
10.000000 -6.000000 -1.442099E-01
10.000000 -8.000000 3.644432E+00
10.000000 -10.000000 1.310038E+01
10.000000 -12.000000 1.591803E+00
10.000000 -14.000000 -3.141558E+01
10.000000 -16.000000 -6.849627E+01
10.000000 -18.000000 -8.746347E+01
10.000000 -20.000000 -8.186819E+01
10.000000 -22.000000 -6.775134E+01
10.000000 -24.000000 -5.897315E+01
10.000000 -26.000000 -5.023911E+01
10.000000 -28.000000 -3.978395E+01
10.000000 -30.000000 -3.071061E+01
10.000000 -32.000000 -2.232089E+01
10.000000 -34.000000 -1.440351E+01
10.000000 -36.000000 4.220925E+00
10.000000 -38.000000 2.400363E+01
10.000000 -40.000000 4.592270E+01
12.000000 40.000000 -3.022894E+01
12.000000 38.000000 1.438926E+00
12.000000 36.000000 3.586438E+01
12.000000 34.000000 5.629063E+01
12.000000 32.000000 4.368333E+01
12.000000 30.000000 1.253602E+01
12.000000 28.000000 -1.590972E+01
12.000000 26.000000 -1.674056E+01
12.000000 24.000000 4.379841E+00
12.000000 22.000000 1.815409E+01
12.000000 20.000000 2.237275E+01
12.000000 18.000000 2.403531E+01
12.000000 16.000000 4.258117E+01
12.000000 14.000000 7.341825E+01
12.000000 12.000000 8.722398E+01
12.000000 10.000000 7.197350E+01
12.000000 8.000000 6.404065E+01
12.000000 6.000000 9.463060E+01
12.000000 4.000000 1.336380E+02
12.000000 2.000000 1.283326E+02
12.000000 0.000000 8.220238E+01
12.000000 -2.000000 7.961246E+00
12.000000 -4.000000 -5.267368E+01
12.000000 -6.000000 -7.398035E+01
12.000000 -8.000000 -5.990733E+01
12.000000 -10.000000 -4.315264E+01
12.000000 -12.000000 -6.212410E+01
12.000000 -14.000000 -1.003700E+02
12.000000 -16.000000 -1.310883E+02
12.000000 -18.000000 -1.298430E+02
12.000000 -20.000000 -9.986771E+01
12.000000 -22.000000 -6.812938E+01
12.000000 -24.000000 -5.371962E+01
12.000000 -26.000000 -4.544326E+01
12.000000 -28.000000 -3.467163E+01
12.000000 -30.000000 -2.421359E+01
12.000000 -32.000000 -1.711871E+01
12.000000 -34.000000 -1.369219E+01
12.000000 -36.000000 8.547511E-01
12.000000 -38.000000 2.325950E+01
12.000000 -40.000000 4.978701E+01
14.000000 40.000000 -2.949049E+01
14.000000 38.000000 1.230586E+00
14.000000 36.000000 3.441569E+01
14.000000 34.000000 5.167113E+01
14.000000 32.000000 2.982612E+01
14.000000 30.000000 -4.459293E+00
14.000000 28.000000 -2.547731E+01
14.000000 26.000000 -2.195949E+01
14.000000 24.000000 -4.396996E+00
14.000000 22.000000 8.260882E+00
14.000000 20.000000 1.555352E+01
14.000000 18.000000 2.727309E+01
14.000000 16.000000 5.958402E+01
14.000000 14.000000 1.061927E+02
14.000000 12.000000 1.329772E+02
14.000000 10.000000 1.288444E+02
14.000000 8.000000 1.188759E+02
14.000000 6.000000 1.393986E+02
14.000000 4.000000 1.519749E+02
14.000000 2.000000 1.198533E+02
14.000000 0.000000 5.493109E+01
14.000000 -2.000000 -3.005300E+01
14.000000 -4.000000 -9.564034E+01
14.000000 -6.000000 -1.164238E+02
14.000000 -8.000000 -9.695265E+01
14.000000 -10.000000 -7.781250E+01
14.000000 -12.000000 -1.040499E+02
14.000000 -14.000000 -1.413603E+02
14.000000 -16.000000 -1.625153E+02
14.000000 -18.000000 -1.447558E+02
14.000000 -20.000000 -9.854955E+01
14.000000 -22.000000 -5.673017E+01
14.000000 -24.000000 -4.074870E+01
14.000000 -26.000000 -3.555926E+01
14.000000 -28.000000 -2.755760E+01
14.000000 -30.000000 -1.779232E+01
14.000000 -32.000000 -1.212908E+01
14.000000 -34.000000 -1.313957E+01
14.000000 -36.000000 -1.869642E+00
14.000000 -38.000000 2.308388E+01
14.000000 -40.000000 5.320953E+01
16.000000 40.000000 -2.260766E+01
16.000000 38.000000 3.328580E+00
16.000000 36.000000 2.871223E+01
16.000000 34.000000 3.967052E+01
16.000000 32.000000 1.306731E+01
16.000000 30.000000 -1.936177E+01
16.000000 28.000000 -3.156277E+01
16.000000 26.000000 -2.582876E+01
16.000000 24.000000 -1.635247E+01
16.000000 22.000000 -7.231156E+00
16.000000 20.000000 4.697351E+00
16.000000 18.000000 2.651856E+01
16.000000 16.000000 6.263577E+01
16.000000 14.000000 1.079803E+02
16.000000 12.000000 1.319382E+02
16.000000 10.000000 1.298818E+02
16.000000 8.000000 1.243935E+02
16.000000 6.000000 1.384327E+02
16.000000 4.000000 1.362731E+02
16.000000 2.000000 9.796434E+01
16.000000 0.000000 3.932617E+01
16.000000 -2.000000 -2.843283E+01
16.000000 -4.000000 -8.652084E+01
16.000000 -6.000000 -1.113433E+02
16.000000 -8.000000 -1.042413E+02
16.000000 -10.000000 -9.692079E+01
16.000000 -12.000000 -1.215857E+02
16.000000 -14.000000 -1.483400E+02
16.000000 -16.000000 -1.521523E+02
16.000000 -18.000000 -1.229914E+02
16.000000 -20.000000 -7.384029E+01
16.000000 -22.000000 -3.608518E+01
16.000000 -24.000000 -2.330330E+01
16.000000 -26.000000 -1.951805E+01
16.000000 -28.000000 -1.991423E+01
16.000000 -30.000000 -1.915493E+01
16.000000 -32.000000 -1.595596E+01
16.000000 -34.000000 -1.454885E+01
16.000000 -36.000000 1.276913E+00
16.000000 -38.000000 2.754565E+01
16.000000 -40.000000 5.608463E+01
18.000000 40.000000 -1.216914E+01
18.000000 38.000000 9.675505E+00
18.000000 36.000000 2.465076E+01
18.000000 34.000000 2.519559E+01
18.000000 32.000000 -2.251392E+00
18.000000 30.000000 -2.847798E+01
18.000000 28.000000 -3.429499E+01
18.000000 26.000000 -2.484019E+01
18.000000 24.000000 -1.816565E+01
18.000000 22.000000 -1.746669E+01
18.000000 20.000000 -6.047094E+00
18.000000 18.000000 1.450010E+01
18.000000 16.000000 3.676142E+01
18.000000 14.000000 6.858444E+01
18.000000 12.000000 8.525911E+01
18.000000 10.000000 7.602414E+01
18.000000 8.000000 7.185009E+01
18.000000 6.000000 8.903421E+01
18.000000 4.000000 1.057467E+02
18.000000 2.000000 9.383639E+01
18.000000 0.000000 6.010535E+01
18.000000 -2.000000 1.097790E+01
18.000000 -4.000000 -4.008712E+01
18.000000 -6.000000 -7.912819E+01
18.000000 -8.000000 -9.284558E+01
18.000000 -10.000000 -1.025606E+02
18.000000 -12.000000 -1.250474E+02
18.000000 -14.000000 -1.344395E+02
18.000000 -16.000000 -1.125395E+02
18.000000 -18.000000 -7.070069E+01
18.000000 -20.000000 -2.642898E+01
18.000000 -22.000000 -1.463007E+00
18.000000 -24.000000 6.841145E-01
18.000000 -26.000000 -3.732054E+00
18.000000 -28.000000 -1.328687E+01
18.000000 -30.000000 -2.411940E+01
18.000000 -32.000000 -2.641304E+01
18.000000 -34.000000 -2.033442E+01
18.000000 -36.000000 4.861979E+00
18.000000 -38.000000 3.441129E+01
18.000000 -40.000000 6.095701E+01
20.000000 40.000000 1.219201E+00
20.000000 38.000000 1.903715E+01
20.000000 36.000000 2.444248E+01
20.000000 34.000000 1.580135E+01
20.000000 32.000000 -8.041175E+00
20.000000 30.000000 -2.674336E+01
20.000000 28.000000 -3.245927E+01
20.000000 26.000000 -2.332529E+01
20.000000 24.000000 -1.790237E+01
20.000000 22.000000 -2.477893E+01
20.000000 20.000000 -2.135807E+01
20.000000 18.000000 -1.324712E+01
20.000000 16.000000 -9.277044E+00
20.000000 14.000000 2.210788E+00
20.000000 12.000000 1.091441E+01
20.000000 10.000000 3.274977E+00
20.000000 8.000000 1.276592E+01
20.000000 6.000000 4.723248E+01
20.000000 4.000000 8.909658E+01
20.000000 2.000000 9.823411E+01
20.000000 0.000000 8.135255E+01
20.000000 -2.000000 4.521983E+01
20.000000 -4.000000 3.617643E+00
20.000000 -6.000000 -4.126226E+01
20.000000 -8.000000 -7.048465E+01
20.000000 -10.000000 -9.407398E+01
20.000000 -12.000000 -1.173100E+02
20.000000 -14.000000 -1.065690E+02
20.000000 -16.000000 -5.659459E+01
20.000000 -18.000000 -5.586557E+00
20.000000 -20.000000 2.686039E+01
20.000000 -22.000000 3.742439E+01
20.000000 -24.000000 2.421608E+01
20.000000 -26.000000 5.880503E+00
20.000000 -28.000000 -8.330225E+00
20.000000 -30.000000 -2.499077E+01
20.000000 -32.000000 -3.368483E+01
20.000000 -34.000000 -2.638807E+01
20.000000 -36.000000 6.488407E+00
20.000000 -38.000000 4.145428E+01
20.000000 -40.000000 6.677199E+01
22.000000 40.000000 1.322392E+01
22.000000 38.000000 2.539393E+01
22.000000 36.000000 2.781697E+01
22.000000 34.000000 1.932067E+01
22.000000 32.000000 8.938918E-01
22.000000 30.000000 -1.588849E+01
22.000000 28.000000 -2.583441E+01
22.000000 26.000000 -2.273145E+01
22.000000 24.000000 -2.200279E+01
22.000000 22.000000 -2.849208E+01
22.000000 20.000000 -3.245282E+01
22.000000 18.000000 -3.271825E+01
22.000000 16.000000 -3.733523E+01
22.000000 14.000000 -5.055394E+01
22.000000 12.000000 -5.577312E+01
22.000000 10.000000 -5.322154E+01
22.000000 8.000000 -2.055902E+01
22.000000 6.000000 3.187924E+01
22.000000 4.000000 8.166574E+01
22.000000 2.000000 9.063254E+01
22.000000 0.000000 7.775615E+01
22.000000 -2.000000 5.398170E+01
22.000000 -4.000000 2.220992E+01
22.000000 -6.000000 -1.628124E+01
22.000000 -8.000000 -5.227380E+01
22.000000 -10.000000 -8.117735E+01
22.000000 -12.000000 -1.006742E+02
22.000000 -14.000000 -7.666882E+01
22.000000 -16.000000 -1.217677E+01
22.000000 -18.000000 4.215210E+01
22.000000 -20.000000 6.410746E+01
22.000000 -22.000000 6.300691E+01
22.000000 -24.000000 3.756032E+01
22.000000 -26.000000 1.184979E+01
22.000000 -28.000000 -3.035309E+00
22.000000 -30.000000 -2.086505E+01
22.000000 -32.000000 -3.085018E+01
22.000000 -34.000000 -2.295418E+01
22.000000 -36.000000 1.235472E+01
22.000000 -38.000000 4.784494E+01
22.000000 -40.000000 6.971009E+01
24.000000 40.000000 1.866104E+01
24.000000 38.000000 2.940558E+01
24.000000 36.000000 3.749844E+01
24.000000 34.000000 3.649159E+01
24.000000 32.000000 2.041159E+01
24.000000 30.000000 -3.386200E+00
24.000000 28.000000 -1.970353E+01
24.000000 26.000000 -2.038050E+01
24.000000 24.000000 -2.001541E+01
24.000000 22.000000 -2.027135E+01
24.000000 20.000000 -2.216626E+01
24.000000 18.000000 -2.000333E+01
24.000000 16.000000 -2.833288E+01
24.000000 14.000000 -5.689836E+01
24.000000 12.000000 -7.808145E+01
24.000000 10.000000 -8.213922E+01
24.000000 8.000000 -4.637793E+01
24.000000 6.000000 1.049500E+01
24.000000 4.000000 6.485386E+01
24.000000 2.000000 8.048492E+01
24.000000 0.000000 7.091787E+01
24.000000 -2.000000 5.173145E+01
24.000000 -4.000000 2.427743E+01
24.000000 -6.000000 -9.994463E+00
24.000000 -8.000000 -4.802875E+01
24.000000 -10.000000 -7.856955E+01
24.000000 -12.000000 -9.177303E+01
24.000000 -14.000000 -6.633920E+01
24.000000 -16.000000 -8.245882E+00
24.000000 -18.000000 4.569055E+01
24.000000 -20.000000 7.023479E+01
24.000000 -22.000000 6.689278E+01
24.000000 -24.000000 4.031007E+01
24.000000 -26.000000 1.608749E+01
24.000000 -28.000000 3.774546E+00
24.000000 -30.000000 -1.083817E+01
24.000000 -32.000000 -1.787737E+01
24.000000 -34.000000 -9.770647E+00
24.000000 -36.000000 2.168747E+01
24.000000 -38.000000 5.183338E+01
24.000000 -40.000000 7.036378E+01
26.000000 40.000000 1.682975E+01
26.000000 38.000000 3.286475E+01
26.000000 36.000000 5.044856E+01
26.000000 34.000000 5.834395E+01
26.000000 32.000000 4.381488E+01
26.000000 30.000000 1.433858E+01
26.000000 28.000000 -7.280983E+00
26.000000 26.000000 -1.070113E+01
26.000000 24.000000 -7.734315E+00
26.000000 22.000000 -1.218184E+00
26.000000 20.000000 5.291867E+00
26.000000 18.000000 1.195974E+01
26.000000 16.000000 1.575473E+00
26.000000 14.000000 -3.002421E+01
26.000000 12.000000 -6.217111E+01
26.000000 10.000000 -8.251411E+01
26.000000 8.000000 -6.046099E+01
26.000000 6.000000 -1.130808E+01
26.000000 4.000000 4.836349E+01
26.000000 2.000000 7.522101E+01
26.000000 0.000000 6.704900E+01
26.000000 -2.000000 4.293709E+01
26.000000 -4.000000 1.311948E+01
26.000000 -6.000000 -2.226385E+01
26.000000 -8.000000 -5.967212E+01
26.000000 -10.000000 -9.192657E+01
26.000000 -12.000000 -1.042975E+02
26.000000 -14.000000 -8.261150E+01
26.000000 -16.000000 -3.516541E+01
26.000000 -18.000000 1.586626E+01
26.000000 -20.000000 4.827358E+01
26.000000 -22.000000 5.220497E+01
26.000000 -24.000000 3.382195E+01
26.000000 -26.000000 1.626138E+01
26.000000 -28.000000 1.120321E+01
26.000000 -30.000000 3.566792E+00
26.000000 -32.000000 -8.382854E-01
26.000000 -34.000000 4.909197E+00
26.000000 -36.000000 2.992316E+01
26.000000 -38.000000 5.418532E+01
26.000000 -40.000000 6.972878E+01
28.000000 40.000000 9.930136E+00
28.000000 38.000000 3.268102E+01
28.000000 36.000000 5.824537E+01
28.000000 34.000000 7.463521E+01
28.000000 32.000000 6.718864E+01
28.000000 30.000000 4.215355E+01
28.000000 28.000000 1.710282E+01
28.000000 26.000000 6.781200E+00
28.000000 24.000000 7.867117E+00
28.000000 22.000000 1.816668E+01
28.000000 20.000000 3.251229E+01
28.000000 18.000000 3.994531E+01
28.000000 16.000000 2.899241E+01
28.000000 14.000000 1.126756E+00
28.000000 12.000000 -3.325699E+01
28.000000 10.000000 -6.067576E+01
28.000000 8.000000 -4.903293E+01
28.000000 6.000000 -8.110929E+00
28.000000 4.000000 4.644255E+01
28.000000 2.000000 7.179513E+01
28.000000 0.000000 6.120779E+01
28.000000 -2.000000 3.008878E+01
28.000000 -4.000000 -7.707548E+00
28.000000 -6.000000 -4.760534E+01
28.000000 -8.000000 -8.592357E+01
28.000000 -10.000000 -1.196207E+02
28.000000 -12.000000 -1.335284E+02
28.000000 -14.000000 -1.166315E+02
28.000000 -16.000000 -7.615964E+01
28.000000 -18.000000 -2.585884E+01
28.000000 -20.000000 1.512660E+01
28.000000 -22.000000 3.070230E+01
28.000000 -24.000000 2.308671E+01
28.000000 -26.000000 1.377011E+01
28.000000 -28.000000 1.738068E+01
28.000000 -30.000000 1.646428E+01
28.000000 -32.000000 1.395832E+01
28.000000 -34.000000 1.670554E+01
28.000000 -36.000000 3.571573E+01
28.000000 -38.000000 5.455840E+01
28.000000 -40.000000 6.613525E+01
30.000000 40.000000 -2.546330E+00
30.000000 38.000000 2.589659E+01
30.000000 36.000000 5.894570E+01
30.000000 34.000000 8.503531E+01
30.000000 32.000000 8.757463E+01
30.000000 30.000000 6.900010E+01
30.000000 28.000000 4.051946E+01
30.000000 26.000000 2.116111E+01
30.000000 24.000000 1.424707E+01
30.000000 22.000000 2.554200E+01
30.000000 20.000000 4.627974E+01
30.000000 18.000000 5.575247E+01
30.000000 16.000000 4.806367E+01
30.000000 14.000000 2.883577E+01
30.000000 12.000000 7.668600E-01
30.000000 10.000000 -2.565261E+01
30.000000 8.000000 -1.813104E+01
30.000000 6.000000 1.906181E+01
30.000000 4.000000 6.447955E+01
30.000000 2.000000 7.902892E+01
30.000000 0.000000 5.965682E+01
30.000000 -2.000000 1.805768E+01
30.000000 -4.000000 -3.216690E+01
30.000000 -6.000000 -8.010108E+01
30.000000 -8.000000 -1.213573E+02
30.000000 -10.000000 -1.558371E+02
30.000000 -12.000000 -1.693777E+02
30.000000 -14.000000 -1.556008E+02
30.000000 -16.000000 -1.162278E+02
30.000000 -18.000000 -6.314387E+01
30.000000 -20.000000 -1.531309E+01
30.000000 -22.000000 1.067856E+01
30.000000 -24.000000 1.399554E+01
30.000000 -26.000000 1.182039E+01
30.000000 -28.000000 1.810670E+01
30.000000 -30.000000 2.075533E+01
30.000000 -32.000000 2.155881E+01
30.000000 -34.000000 2.482402E+01
30.000000 -36.000000 3.863156E+01
30.000000 -38.000000 5.113472E+01
30.000000 -40.000000 5.818116E+01
32.000000 40.000000 -2.017561E+01
32.000000 38.000000 1.127338E+01
32.000000 36.000000 5.184124E+01
32.000000 34.000000 8.904437E+01
32.000000 32.000000 9.955711E+01
32.000000 30.000000 8.300135E+01
32.000000 28.000000 5.140442E+01
32.000000 26.000000 2.196315E+01
32.000000 24.000000 1.879828E+00
32.000000 22.000000 1.389224E+01
32.000000 20.000000 4.270154E+01
32.000000 18.000000 6.063107E+01
32.000000 16.000000 6.180623E+01
32.000000 14.000000 5.585131E+01
32.000000 12.000000 4.095541E+01
32.000000 10.000000 2.053573E+01
32.000000 8.000000 2.413446E+01
32.000000 6.000000 5.808030E+01
32.000000 4.000000 9.903556E+01
32.000000 2.000000 1.027518E+02
32.000000 0.000000 6.866284E+01
32.000000 -2.000000 1.115138E+01
32.000000 -4.000000 -5.306203E+01
32.000000 -6.000000 -1.115697E+02
32.000000 -8.000000 -1.554336E+02
32.000000 -10.000000 -1.897900E+02
32.000000 -12.000000 -2.016219E+02
32.000000 -14.000000 -1.896159E+02
32.000000 -16.000000 -1.494514E+02
32.000000 -18.000000 -9.264069E+01
32.000000 -20.000000 -3.885493E+01
32.000000 -22.000000 -5.553843E+00
32.000000 -24.000000 4.895056E+00
32.000000 -26.000000 6.757460E+00
32.000000 -28.000000 1.177708E+01
32.000000 -30.000000 1.584368E+01
32.000000 -32.000000 2.078428E+01
32.000000 -34.000000 2.728384E+01
32.000000 -36.000000 3.802722E+01
32.000000 -38.000000 4.441220E+01
32.000000 -40.000000 4.645889E+01
34.000000 40.000000 -4.091608E+01
34.000000 38.000000 -1.258606E+01
34.000000 36.000000 3.318232E+01
34.000000 34.000000 8.028374E+01
34.000000 32.000000 9.479169E+01
34.000000 30.000000 7.548948E+01
34.000000 28.000000 4.449746E+01
34.000000 26.000000 1.230969E+01
34.000000 24.000000 -1.877221E+01
34.000000 22.000000 -4.376013E+00
34.000000 20.000000 3.471167E+01
34.000000 18.000000 6.238316E+01
34.000000 16.000000 7.281860E+01
34.000000 14.000000 8.185506E+01
34.000000 12.000000 8.370874E+01
34.000000 10.000000 7.343886E+01
34.000000 8.000000 7.130810E+01
34.000000 6.000000 1.002592E+02
34.000000 4.000000 1.343303E+02
34.000000 2.000000 1.237461E+02
34.000000 0.000000 7.572321E+01
34.000000 -2.000000 6.401333E+00
34.000000 -4.000000 -6.657804E+01
34.000000 -6.000000 -1.320392E+02
34.000000 -8.000000 -1.756690E+02
34.000000 -10.000000 -2.076146E+02
34.000000 -12.000000 -2.185680E+02
34.000000 -14.000000 -2.102582E+02
34.000000 -16.000000 -1.730984E+02
34.000000 -18.000000 -1.158277E+02
34.000000 -20.000000 -5.838925E+01
34.000000 -22.000000 -2.169135E+01
34.000000 -24.000000 -8.737566E+00
34.000000 -26.000000 -5.163918E+00
34.000000 -28.000000 -8.536263E-01
34.000000 -30.000000 4.198872E+00
34.000000 -32.000000 1.362673E+01
34.000000 -34.000000 2.393606E+01
34.000000 -36.000000 3.374010E+01
34.000000 -38.000000 3.587108E+01
34.000000 -40.000000 3.287861E+01
36.000000 40.000000 -6.247629E+01
36.000000 38.000000 -4.382381E+01
36.000000 36.000000 1.410480E+00
36.000000 34.000000 5.067113E+01
36.000000 32.000000 6.480870E+01
36.000000 30.000000 4.419948E+01
36.000000 28.000000 2.026960E+01
36.000000 26.000000 2.155621E+00
36.000000 24.000000 -1.597807E+01
36.000000 22.000000 2.594930E+00
36.000000 20.000000 4.152789E+01
36.000000 18.000000 6.762357E+01
36.000000 16.000000 8.148138E+01
36.000000 14.000000 9.923079E+01
36.000000 12.000000 1.109563E+02
36.000000 10.000000 1.059984E+02
36.000000 8.000000 9.605907E+01
36.000000 6.000000 1.165739E+02
36.000000 4.000000 1.388846E+02
36.000000 2.000000 1.150387E+02
36.000000 0.000000 6.227799E+01
36.000000 -2.000000 -1.917797E+00
36.000000 -4.000000 -6.471220E+01
36.000000 -6.000000 -1.250056E+02
36.000000 -8.000000 -1.652905E+02
36.000000 -10.000000 -1.935753E+02
36.000000 -12.000000 -2.074630E+02
36.000000 -14.000000 -2.075065E+02
36.000000 -16.000000 -1.816403E+02
36.000000 -18.000000 -1.303875E+02
36.000000 -20.000000 -7.416034E+01
36.000000 -22.000000 -4.079942E+01
36.000000 -24.000000 -2.635356E+01
36.000000 -26.000000 -2.131303E+01
36.000000 -28.000000 -1.867568E+01
36.000000 -30.000000 -1.375757E+01
36.000000 -32.000000 2.410572E+00
36.000000 -34.000000 1.757897E+01
36.000000 -36.000000 2.645827E+01
36.000000 -38.000000 2.571152E+01
36.000000 -40.000000 1.894012E+01
38.000000 40.000000 -7.839705E+01
38.000000 38.000000 -7.380729E+01
38.000000 36.000000 -3.890709E+01
38.000000 34.000000 1.746492E+00
38.000000 32.000000 1.380990E+01
38.000000 30.000000 -1.326266E+00
38.000000 28.000000 -1.236249E+01
38.000000 26.000000 -9.894972E+00
38.000000 24.000000 -8.121881E-01
38.000000 22.000000 2.565266E+01
38.000000 20.000000 5.928376E+01
38.000000 18.000000 7.904430E+01
38.000000 16.000000 8.987942E+01
38.000000 14.000000 1.007857E+02
38.000000 12.000000 1.049053E+02
38.000000 10.000000 9.664472E+01
38.000000 8.000000 8.129679E+01
38.000000 6.000000 8.697218E+01
38.000000 4.000000 8.968188E+01
38.000000 2.000000 5.991120E+01
38.000000 0.000000 1.679525E+01
38.000000 -2.000000 -1.918735E+01
38.000000 -4.000000 -4.467334E+01
38.000000 -6.000000 -7.776030E+01
