-12.000000 28.000000 2.581268E+01
-12.000000 26.000000 1.918880E+01
-12.000000 24.000000 1.421031E+01
-12.000000 22.000000 1.689082E+01
-12.000000 20.000000 1.978686E+01
-12.000000 18.000000 1.714552E+01
-12.000000 16.000000 2.267030E+01
-12.000000 14.000000 4.247176E+01
-12.000000 12.000000 6.956202E+01
-12.000000 10.000000 8.132696E+01
-12.000000 8.000000 5.936568E+01
-12.000000 6.000000 2.235799E+01
-12.000000 4.000000 -6.361900E+00
-12.000000 2.000000 -1.603676E+01
-12.000000 0.000000 -1.821184E+01
-12.000000 -2.000000 -1.545127E+01
-12.000000 -4.000000 -6.667850E+00
-12.000000 -6.000000 2.824079E+00
-12.000000 -8.000000 5.018850E+00
-12.000000 -10.000000 1.258801E+00
-12.000000 -12.000000 -5.335126E+00
-12.000000 -14.000000 -7.991721E+00
-12.000000 -16.000000 -9.916729E+00
-12.000000 -18.000000 -1.463070E+01
-12.000000 -20.000000 -1.800377E+01
-12.000000 -22.000000 -1.536452E+01
-12.000000 -24.000000 -8.547444E+00
-12.000000 -26.000000 -4.629015E+00
-12.000000 -28.000000 -5.690083E+00
-12.000000 -30.000000 -6.250889E+00
-12.000000 -32.000000 -3.634387E+00
-12.000000 -34.000000 -1.795171E+00
-12.000000 -36.000000 -5.227460E+00
-12.000000 -38.000000 -1.064882E+01
-12.000000 -40.000000 -1.229900E+01
-10.000000 40.000000 1.958798E+01
-10.000000 38.000000 2.508332E+01
-10.000000 36.000000 2.613467E+01
-10.000000 34.000000 2.437273E+01
-10.000000 32.000000 2.549472E+01
-10.000000 30.000000 2.844590E+01
-10.000000 28.000000 2.677259E+01
-10.000000 26.000000 2.294666E+01
-10.000000 24.000000 2.102337E+01
-10.000000 22.000000 2.270910E+01
-10.000000 20.000000 2.472642E+01
-10.000000 18.000000 2.180661E+01
-10.000000 16.000000 2.681102E+01
-10.000000 14.000000 4.909753E+01
-10.000000 12.000000 8.286408E+01
-10.000000 10.000000 1.039654E+02
-10.000000 8.000000 8.590417E+01
-10.000000 6.000000 4.770699E+01
-10.000000 4.000000 9.992462E+00
-10.000000 2.000000 -1.003883E+01
-10.000000 0.000000 -1.738040E+01
-10.000000 -2.000000 -1.531629E+01
-10.000000 -4.000000 -5.576087E+00
-10.000000 -6.000000 5.942811E+00
-10.000000 -8.000000 8.136225E+00
-10.000000 -10.000000 2.357211E+00
-10.000000 -12.000000 -8.170358E+00
-10.000000 -14.000000 -1.576848E+01
-10.000000 -16.000000 -2.198546E+01
-10.000000 -18.000000 -2.906385E+01
-10.000000 -20.000000 -3.443785E+01
-10.000000 -22.000000 -3.254110E+01
-10.000000 -24.000000 -2.395719E+01
-10.000000 -26.000000 -1.840326E+01
-10.000000 -28.000000 -1.948518E+01
-10.000000 -30.000000 -2.004708E+01
-10.000000 -32.000000 -1.704186E+01
-10.000000 -34.000000 -1.475934E+01
-10.000000 -36.000000 -1.608920E+01
-10.000000 -38.000000 -1.760277E+01
-10.000000 -40.000000 -1.546427E+01
-8.000000 40.000000 1.436050E+01
-8.000000 38.000000 1.817219E+01
-8.000000 36.000000 1.734060E+01
-8.000000 34.000000 1.532053E+01
-8.000000 32.000000 1.780970E+01
-8.000000 30.000000 2.393350E+01
-8.000000 28.000000 2.561767E+01
-8.000000 26.000000 2.408644E+01
-8.000000 24.000000 2.391131E+01
-8.000000 22.000000 2.540509E+01
-8.000000 20.000000 2.944279E+01
-8.000000 18.000000 3.068626E+01
-8.000000 16.000000 3.919465E+01
-8.000000 14.000000 6.507311E+01
-8.000000 12.000000 1.015788E+02
-8.000000 10.000000 1.269033E+02
-8.000000 8.000000 1.103905E+02
-8.000000 6.000000 7.197340E+01
-8.000000 4.000000 2.753574E+01
-8.000000 2.000000 -2.228240E+00
-8.000000 0.000000 -1.636262E+01
-8.000000 -2.000000 -1.672745E+01
-8.000000 -4.000000 -7.936141E+00
-8.000000 -6.000000 4.878471E+00
-8.000000 -8.000000 8.842198E+00
-8.000000 -10.000000 1.525084E+00
-8.000000 -12.000000 -1.387732E+01
-8.000000 -14.000000 -2.755425E+01
-8.000000 -16.000000 -3.811688E+01
-8.000000 -18.000000 -4.665182E+01
-8.000000 -20.000000 -5.268585E+01
-8.000000 -22.000000 -5.101468E+01
-8.000000 -24.000000 -4.033897E+01
-8.000000 -26.000000 -3.338976E+01
-8.000000 -28.000000 -3.444261E+01
-8.000000 -30.000000 -3.456733E+01
-8.000000 -32.000000 -3.037975E+01
-8.000000 -34.000000 -2.707528E+01
-8.000000 -36.000000 -2.564390E+01
-8.000000 -38.000000 -2.237487E+01
-8.000000 -40.000000 -1.640326E+01
-6.000000 40.000000 9.238546E+00
-6.000000 38.000000 1.211032E+01
-6.000000 36.000000 1.054517E+01
-6.000000 34.000000 8.746649E+00
-6.000000 32.000000 1.227337E+01
-6.000000 30.000000 1.957124E+01
-6.000000 28.000000 2.265646E+01
-6.000000 26.000000 2.206553E+01
-6.000000 24.000000 2.120395E+01
-6.000000 22.000000 2.205660E+01
-6.000000 20.000000 2.810179E+01
-6.000000 18.000000 3.510089E+01
-6.000000 16.000000 4.959036E+01
-6.000000 14.000000 7.859872E+01
-6.000000 12.000000 1.135541E+02
-6.000000 10.000000 1.382880E+02
-6.000000 8.000000 1.230715E+02
-6.000000 6.000000 8.659414E+01
-6.000000 4.000000 3.943491E+01
-6.000000 2.000000 2.961490E+00
-6.000000 0.000000 -1.723830E+01
-6.000000 -2.000000 -1.893250E+01
-6.000000 -4.000000 -9.375657E+00
-6.000000 -6.000000 4.120623E+00
-6.000000 -8.000000 8.718455E+00
-6.000000 -10.000000 6.908739E-01
-6.000000 -12.000000 -1.827868E+01
-6.000000 -14.000000 -3.661277E+01
-6.000000 -16.000000 -5.097320E+01
-6.000000 -18.000000 -6.065573E+01
-6.000000 -20.000000 -6.597181E+01
-6.000000 -22.000000 -6.421821E+01
-6.000000 -24.000000 -5.337718E+01
-6.000000 -26.000000 -4.613353E+01
-6.000000 -28.000000 -4.579743E+01
-6.000000 -30.000000 -4.431441E+01
-6.000000 -32.000000 -3.916196E+01
-6.000000 -34.000000 -3.467120E+01
-6.000000 -36.000000 -3.142950E+01
-6.000000 -38.000000 -2.547753E+01
-6.000000 -40.000000 -1.729432E+01
-4.000000 40.000000 4.978636E+00
-4.000000 38.000000 7.606043E+00
-4.000000 36.000000 7.283562E+00
-4.000000 34.000000 7.288761E+00
-4.000000 32.000000 1.127437E+01
-4.000000 30.000000 1.819045E+01
-4.000000 28.000000 2.046654E+01
-4.000000 26.000000 1.796697E+01
-4.000000 24.000000 1.423163E+01
-4.000000 22.000000 1.439169E+01
-4.000000 20.000000 2.000125E+01
-4.000000 18.000000 3.010800E+01
-4.000000 16.000000 4.748546E+01
-4.000000 14.000000 7.508701E+01
-4.000000 12.000000 1.052859E+02
-4.000000 10.000000 1.269978E+02
-4.000000 8.000000 1.153313E+02
-4.000000 6.000000 8.421508E+01
-4.000000 4.000000 4.107447E+01
-4.000000 2.000000 4.130680E+00
-4.000000 0.000000 -1.725552E+01
-4.000000 -2.000000 -1.850048E+01
-4.000000 -4.000000 -6.934313E+00
-4.000000 -6.000000 6.737890E+00
-4.000000 -8.000000 9.149976E+00
-4.000000 -10.000000 4.241323E-02
-4.000000 -12.000000 -1.875082E+01
-4.000000 -14.000000 -3.722805E+01
-4.000000 -16.000000 -5.272720E+01
-4.000000 -18.000000 -6.320018E+01
-4.000000 -20.000000 -6.721285E+01
-4.000000 -22.000000 -6.619177E+01
-4.000000 -24.000000 -5.866223E+01
-4.000000 -26.000000 -5.402119E+01
-4.000000 -28.000000 -5.297197E+01
-4.000000 -30.000000 -4.851663E+01
-4.000000 -32.000000 -4.155124E+01
-4.000000 -34.000000 -3.616139E+01
-4.000000 -36.000000 -3.261360E+01
-4.000000 -38.000000 -2.651657E+01
-4.000000 -40.000000 -1.830370E+01
-2.000000 40.000000 3.683342E+00
-2.000000 38.000000 5.920555E+00
-2.000000 36.000000 6.880625E+00
-2.000000 34.000000 9.203121E+00
-2.000000 32.000000 1.308633E+01
-2.000000 30.000000 1.780585E+01
-2.000000 28.000000 1.707822E+01
-2.000000 26.000000 1.254777E+01
-2.000000 24.000000 7.022018E+00
-2.000000 22.000000 7.326015E+00
-2.000000 20.000000 1.082700E+01
-2.000000 18.000000 1.969548E+01
-2.000000 16.000000 3.423686E+01
-2.000000 14.000000 5.451279E+01
-2.000000 12.000000 7.871355E+01
-2.000000 10.000000 9.733181E+01
-2.000000 8.000000 9.191897E+01
-2.000000 6.000000 6.824426E+01
-2.000000 4.000000 3.301746E+01
-2.000000 2.000000 1.761523E+00
-2.000000 0.000000 -1.624255E+01
-2.000000 -2.000000 -1.682324E+01
-2.000000 -4.000000 -4.624584E+00
-2.000000 -6.000000 7.951767E+00
-2.000000 -8.000000 8.501431E+00
-2.000000 -10.000000 1.513491E-01
-2.000000 -12.000000 -1.535407E+01
-2.000000 -14.000000 -3.087682E+01
-2.000000 -16.000000 -4.487170E+01
-2.000000 -18.000000 -5.507042E+01
-2.000000 -20.000000 -5.865146E+01
-2.000000 -22.000000 -5.911082E+01
-2.000000 -24.000000 -5.528127E+01
-2.000000 -26.000000 -5.315331E+01
-2.000000 -28.000000 -5.252150E+01
-2.000000 -30.000000 -4.602548E+01
-2.000000 -32.000000 -3.798901E+01
-2.000000 -34.000000 -3.287410E+01
-2.000000 -36.000000 -3.014651E+01
-2.000000 -38.000000 -2.556238E+01
-2.000000 -40.000000 -1.863426E+01
0.000000 40.000000 4.804089E+00
0.000000 38.000000 6.574345E+00
0.000000 36.000000 8.184204E+00
0.000000 34.000000 1.191873E+01
0.000000 32.000000 1.562580E+01
0.000000 30.000000 1.765326E+01
0.000000 28.000000 1.392353E+01
0.000000 26.000000 9.754227E+00
0.000000 24.000000 5.146568E+00
0.000000 22.000000 4.743542E+00
0.000000 20.000000 5.357519E+00
0.000000 18.000000 9.327896E+00
0.000000 16.000000 1.773088E+01
0.000000 14.000000 3.015940E+01
0.000000 12.000000 4.855578E+01
0.000000 10.000000 6.563738E+01
0.000000 8.000000 6.746155E+01
0.000000 6.000000 5.016377E+01
0.000000 4.000000 2.107151E+01
0.000000 2.000000 -3.817801E+00
0.000000 0.000000 -1.780137E+01
0.000000 -2.000000 -1.811403E+01
0.000000 -4.000000 -7.608769E+00
0.000000 -6.000000 3.392307E+00
0.000000 -8.000000 4.742758E+00
0.000000 -10.000000 -6.018620E-01
0.000000 -12.000000 -1.224816E+01
0.000000 -14.000000 -2.388831E+01
0.000000 -16.000000 -3.494723E+01
0.000000 -18.000000 -4.448288E+01
0.000000 -20.000000 -4.842723E+01
0.000000 -22.000000 -4.978173E+01
0.000000 -24.000000 -4.806918E+01
0.000000 -26.000000 -4.560628E+01
0.000000 -28.000000 -4.435877E+01
0.000000 -30.000000 -3.811567E+01
0.000000 -32.000000 -3.074594E+01
0.000000 -34.000000 -2.636353E+01
0.000000 -36.000000 -2.479786E+01
0.000000 -38.000000 -2.184389E+01
0.000000 -40.000000 -1.680195E+01
2.000000 40.000000 6.555695E+00
2.000000 38.000000 8.598639E+00
2.000000 36.000000 1.035280E+01
2.000000 34.000000 1.421195E+01
2.000000 32.000000 1.756173E+01
2.000000 30.000000 1.877662E+01
2.000000 28.000000 1.471226E+01
2.000000 26.000000 1.220699E+01
2.000000 24.000000 9.423130E+00
2.000000 22.000000 8.957541E+00
2.000000 20.000000 8.212650E+00
2.000000 18.000000 6.800007E+00
2.000000 16.000000 7.310719E+00
2.000000 14.000000 1.334189E+01
2.000000 12.000000 2.826780E+01
2.000000 10.000000 4.549879E+01
2.000000 8.000000 5.218679E+01
2.000000 6.000000 3.956244E+01
2.000000 4.000000 1.384253E+01
2.000000 2.000000 -1.001342E+01
2.000000 0.000000 -2.464707E+01
2.000000 -2.000000 -2.636788E+01
2.000000 -4.000000 -1.830376E+01
2.000000 -6.000000 -8.761347E+00
2.000000 -8.000000 -5.715369E+00
2.000000 -10.000000 -7.630985E+00
2.000000 -12.000000 -1.437923E+01
2.000000 -14.000000 -2.159803E+01
2.000000 -16.000000 -2.941763E+01
2.000000 -18.000000 -3.822264E+01
2.000000 -20.000000 -4.270659E+01
2.000000 -22.000000 -4.337376E+01
2.000000 -24.000000 -4.049611E+01
2.000000 -26.000000 -3.689427E+01
2.000000 -28.000000 -3.445494E+01
2.000000 -30.000000 -2.817044E+01
2.000000 -32.000000 -2.078116E+01
2.000000 -34.000000 -1.718842E+01
2.000000 -36.000000 -1.668014E+01
2.000000 -38.000000 -1.495909E+01
2.000000 -40.000000 -1.236133E+01
4.000000 40.000000 9.229361E+00
4.000000 38.000000 1.237734E+01
4.000000 36.000000 1.364680E+01
4.000000 34.000000 1.614704E+01
4.000000 32.000000 1.848830E+01
4.000000 30.000000 2.062318E+01
4.000000 28.000000 1.856843E+01
4.000000 26.000000 1.697211E+01
4.000000 24.000000 1.621679E+01
4.000000 22.000000 1.734814E+01
4.000000 20.000000 1.831124E+01
4.000000 18.000000 1.330123E+01
4.000000 16.000000 6.745226E+00
4.000000 14.000000 8.463957E+00
4.000000 12.000000 2.358484E+01
4.000000 10.000000 4.376851E+01
4.000000 8.000000 5.324675E+01
4.000000 6.000000 4.228278E+01
4.000000 4.000000 1.472739E+01
4.000000 2.000000 -1.575920E+01
4.000000 0.000000 -3.828179E+01
4.000000 -2.000000 -4.491324E+01
4.000000 -4.000000 -3.886257E+01
4.000000 -6.000000 -2.782130E+01
4.000000 -8.000000 -2.045526E+01
4.000000 -10.000000 -1.914362E+01
4.000000 -12.000000 -2.146801E+01
4.000000 -14.000000 -2.529884E+01
4.000000 -16.000000 -3.068639E+01
4.000000 -18.000000 -3.870848E+01
4.000000 -20.000000 -4.307252E+01
4.000000 -22.000000 -4.058766E+01
4.000000 -24.000000 -3.279698E+01
4.000000 -26.000000 -2.752390E+01
4.000000 -28.000000 -2.481174E+01
4.000000 -30.000000 -1.851538E+01
4.000000 -32.000000 -1.055167E+01
4.000000 -34.000000 -7.574464E+00
4.000000 -36.000000 -7.441059E+00
4.000000 -38.000000 -6.944996E+00
4.000000 -40.000000 -6.739205E+00
6.000000 40.000000 1.426560E+01
6.000000 38.000000 1.827885E+01
6.000000 36.000000 1.895587E+01
6.000000 34.000000 1.953745E+01
6.000000 32.000000 2.017677E+01
6.000000 30.000000 2.261518E+01
6.000000 28.000000 2.131696E+01
6.000000 26.000000 1.880288E+01
6.000000 24.000000 1.846551E+01
6.000000 22.000000 2.074901E+01
6.000000 20.000000 2.417508E+01
6.000000 18.000000 1.829671E+01
6.000000 16.000000 8.633114E+00
6.000000 14.000000 9.773180E+00
6.000000 12.000000 2.913070E+01
6.000000 10.000000 5.766484E+01
6.000000 8.000000 7.237636E+01
6.000000 6.000000 6.263686E+01
6.000000 4.000000 2.835589E+01
6.000000 2.000000 -1.573757E+01
6.000000 0.000000 -5.249663E+01
6.000000 -2.000000 -6.693739E+01
6.000000 -4.000000 -6.151892E+01
6.000000 -6.000000 -4.312162E+01
6.000000 -8.000000 -2.777189E+01
6.000000 -10.000000 -2.440903E+01
6.000000 -12.000000 -2.782741E+01
6.000000 -14.000000 -3.326310E+01
6.000000 -16.000000 -3.961004E+01
6.000000 -18.000000 -4.733148E+01
6.000000 -20.000000 -4.961168E+01
6.000000 -22.000000 -4.063243E+01
6.000000 -24.000000 -2.537321E+01
6.000000 -26.000000 -1.748164E+01
6.000000 -28.000000 -1.586229E+01
6.000000 -30.000000 -1.151050E+01
6.000000 -32.000000 -4.089722E+00
6.000000 -34.000000 -7.381554E-01
6.000000 -36.000000 5.331001E-01
6.000000 -38.000000 -6.931496E-02
6.000000 -40.000000 -9.025803E-01
8.000000 40.000000 2.229754E+01
8.000000 38.000000 2.651119E+01
8.000000 36.000000 2.709328E+01
8.000000 34.000000 2.628132E+01
8.000000 32.000000 2.438016E+01
8.000000 30.000000 2.412785E+01
8.000000 28.000000 1.971181E+01
8.000000 26.000000 1.432541E+01
8.000000 24.000000 1.073829E+01
8.000000 22.000000 1.141879E+01
8.000000 20.000000 1.526013E+01
8.000000 18.000000 1.089011E+01
8.000000 16.000000 2.728682E+00
8.000000 14.000000 8.915560E+00
8.000000 12.000000 3.765792E+01
8.000000 10.000000 7.841219E+01
8.000000 8.000000 1.030538E+02
8.000000 6.000000 9.952168E+01
8.000000 4.000000 5.907707E+01
8.000000 2.000000 -1.178927E+00
8.000000 0.000000 -5.577540E+01
8.000000 -2.000000 -8.096544E+01
8.000000 -4.000000 -7.489982E+01
8.000000 -6.000000 -4.530727E+01
8.000000 -8.000000 -2.191313E+01
8.000000 -10.000000 -1.778666E+01
8.000000 -12.000000 -2.838046E+01
8.000000 -14.000000 -4.075829E+01
8.000000 -16.000000 -5.169479E+01
8.000000 -18.000000 -5.948346E+01
8.000000 -20.000000 -5.813577E+01
8.000000 -22.000000 -4.157193E+01
8.000000 -24.000000 -1.921287E+01
8.000000 -26.000000 -9.873665E+00
8.000000 -28.000000 -1.082050E+01
8.000000 -30.000000 -1.010195E+01
8.000000 -32.000000 -3.903505E+00
8.000000 -34.000000 7.832413E-01
8.000000 -36.000000 4.312899E+00
8.000000 -38.000000 4.474533E+00
8.000000 -40.000000 4.885019E+00
10.000000 40.000000 3.098857E+01
10.000000 38.000000 3.760480E+01
10.000000 36.000000 4.001922E+01
10.000000 34.000000 3.779445E+01
10.000000 32.000000 3.142537E+01
10.000000 30.000000 2.512562E+01
10.000000 28.000000 1.423888E+01
10.000000 26.000000 3.961481E+00
10.000000 24.000000 -5.117924E+00
10.000000 22.000000 -7.639317E+00
10.000000 20.000000 -5.546488E+00
10.000000 18.000000 -8.077543E+00
10.000000 16.000000 -1.187893E+01
10.000000 14.000000 2.699047E+00
10.000000 12.000000 4.405476E+01
10.000000 10.000000 9.898849E+01
10.000000 8.000000 1.369863E+02
10.000000 6.000000 1.443931E+02
10.000000 4.000000 1.018741E+02
10.000000 2.000000 2.773645E+01
10.000000 0.000000 -4.403919E+01
10.000000 -2.000000 -8.156860E+01
10.000000 -4.000000 -7.586132E+01
10.000000 -6.000000 -3.694660E+01
10.000000 -8.000000 -7.407524E+00
10.000000 -10.000000 -3.234457E+00
10.000000 -12.000000 -2.445632E+01
10.000000 -14.000000 -4.531137E+01
10.000000 -16.000000 -5.976480E+01
10.000000 -18.000000 -6.591710E+01
10.000000 -20.000000 -6.164550E+01
10.000000 -22.000000 -4.225781E+01
10.000000 -24.000000 -1.800850E+01
10.000000 -26.000000 -9.081182E+00
10.000000 -28.000000 -1.172079E+01
10.000000 -30.000000 -1.367651E+01
10.000000 -32.000000 -8.919621E+00
10.000000 -34.000000 -2.703598E+00
10.000000 -36.000000 3.605125E+00
10.000000 -38.000000 6.179472E+00
10.000000 -40.000000 9.293676E+00
12.000000 40.000000 3.771561E+01
12.000000 38.000000 4.944219E+01
12.000000 36.000000 5.518900E+01
12.000000 34.000000 5.252537E+01
12.000000 32.000000 4.108475E+01
12.000000 30.000000 2.752444E+01
12.000000 28.000000 9.526299E+00
12.000000 26.000000 -6.090437E+00
12.000000 24.000000 -1.996382E+01
12.000000 22.000000 -2.324854E+01
12.000000 20.000000 -2.168604E+01
12.000000 18.000000 -2.345202E+01
12.000000 16.000000 -2.355747E+01
12.000000 14.000000 -3.687712E+00
12.000000 12.000000 4.548471E+01
12.000000 10.000000 1.102610E+02
12.000000 8.000000 1.603671E+02
12.000000 6.000000 1.801560E+02
12.000000 4.000000 1.430276E+02
12.000000 2.000000 6.391611E+01
12.000000 0.000000 -1.935148E+01
12.000000 -2.000000 -6.913093E+01
12.000000 -4.000000 -6.916488E+01
12.000000 -6.000000 -2.903339E+01
12.000000 -8.000000 2.597216E+00
12.000000 -10.000000 4.444714E+00
12.000000 -12.000000 -2.737277E+01
12.000000 -14.000000 -5.160499E+01
12.000000 -16.000000 -6.177159E+01
12.000000 -18.000000 -6.089676E+01
12.000000 -20.000000 -5.378175E+01
12.000000 -22.000000 -3.954596E+01
12.000000 -24.000000 -2.242581E+01
12.000000 -26.000000 -1.581905E+01
12.000000 -28.000000 -1.802793E+01
12.000000 -30.000000 -2.078190E+01
12.000000 -32.000000 -1.652186E+01
12.000000 -34.000000 -8.728079E+00
12.000000 -36.000000 4.254532E-01
12.000000 -38.000000 5.959951E+00
12.000000 -40.000000 1.201577E+01
14.000000 40.000000 4.113312E+01
14.000000 38.000000 5.751138E+01
14.000000 36.000000 6.668027E+01
14.000000 34.000000 6.702540E+01
14.000000 32.000000 5.331008E+01
14.000000 30.000000 3.359051E+01
14.000000 28.000000 1.033198E+01
14.000000 26.000000 -8.430126E+00
14.000000 24.000000 -2.405524E+01
14.000000 22.000000 -2.435719E+01
14.000000 20.000000 -1.992657E+01
14.000000 18.000000 -2.052826E+01
14.000000 16.000000 -2.068099E+01
14.000000 14.000000 -2.344091E+00
14.000000 12.000000 4.500207E+01
14.000000 10.000000 1.098258E+02
14.000000 8.000000 1.654302E+02
14.000000 6.000000 1.957371E+02
14.000000 4.000000 1.706389E+02
14.000000 2.000000 9.788139E+01
14.000000 0.000000 1.250258E+01
14.000000 -2.000000 -4.822125E+01
14.000000 -4.000000 -6.309289E+01
14.000000 -6.000000 -3.718067E+01
14.000000 -8.000000 -1.436228E+01
14.000000 -10.000000 -1.863339E+01
14.000000 -12.000000 -5.209449E+01
14.000000 -14.000000 -6.819022E+01
14.000000 -16.000000 -6.219815E+01
14.000000 -18.000000 -4.592177E+01
14.000000 -20.000000 -3.319811E+01
14.000000 -22.000000 -2.639806E+01
14.000000 -24.000000 -2.167896E+01
14.000000 -26.000000 -2.229548E+01
14.000000 -28.000000 -2.550116E+01
14.000000 -30.000000 -2.797893E+01
14.000000 -32.000000 -2.274188E+01
14.000000 -34.000000 -1.444524E+01
14.000000 -36.000000 -4.102686E+00
14.000000 -38.000000 3.887825E+00
14.000000 -40.000000 1.245271E+01
16.000000 40.000000 3.800470E+01
16.000000 38.000000 5.898737E+01
16.000000 36.000000 7.467572E+01
16.000000 34.000000 8.073879E+01
16.000000 32.000000 6.732874E+01
16.000000 30.000000 4.428931E+01
16.000000 28.000000 1.799316E+01
16.000000 26.000000 -1.231750E+00
16.000000 24.000000 -1.425554E+01
16.000000 22.000000 -8.766104E+00
16.000000 20.000000 8.147926E-01
16.000000 18.000000 1.833778E+00
16.000000 16.000000 -2.625477E+00
16.000000 14.000000 7.390675E+00
16.000000 12.000000 4.345394E+01
16.000000 10.000000 9.872771E+01
16.000000 8.000000 1.526971E+02
16.000000 6.000000 1.889085E+02
16.000000 4.000000 1.791920E+02
16.000000 2.000000 1.212662E+02
16.000000 0.000000 4.235824E+01
16.000000 -2.000000 -2.631673E+01
16.000000 -4.000000 -6.204212E+01
16.000000 -6.000000 -6.452847E+01
16.000000 -8.000000 -6.260007E+01
16.000000 -10.000000 -7.526876E+01
16.000000 -12.000000 -9.743301E+01
16.000000 -14.000000 -9.639232E+01
16.000000 -16.000000 -6.679788E+01
16.000000 -18.000000 -2.978688E+01
16.000000 -20.000000 -8.205246E+00
16.000000 -22.000000 -5.709141E+00
16.000000 -24.000000 -1.259496E+01
16.000000 -26.000000 -2.183986E+01
16.000000 -28.000000 -2.722258E+01
16.000000 -30.000000 -2.846531E+01
16.000000 -32.000000 -2.246133E+01
16.000000 -34.000000 -1.633793E+01
16.000000 -36.000000 -8.571016E+00
16.000000 -38.000000 -1.301197E+00
16.000000 -40.000000 8.323116E+00
18.000000 40.000000 2.883653E+01
18.000000 38.000000 5.399531E+01
18.000000 36.000000 7.872851E+01
18.000000 34.000000 9.151159E+01
18.000000 32.000000 7.982687E+01
18.000000 30.000000 5.752242E+01
18.000000 28.000000 3.171517E+01
18.000000 26.000000 1.404864E+01
18.000000 24.000000 6.812269E+00
18.000000 22.000000 1.742059E+01
18.000000 20.000000 3.057541E+01
18.000000 18.000000 3.051860E+01
18.000000 16.000000 1.843363E+01
18.000000 14.000000 1.581239E+01
18.000000 12.000000 3.600683E+01
18.000000 10.000000 7.747732E+01
18.000000 8.000000 1.273082E+02
18.000000 6.000000 1.659982E+02
18.000000 4.000000 1.710119E+02
18.000000 2.000000 1.300268E+02
18.000000 0.000000 6.097214E+01
18.000000 -2.000000 -1.113823E+01
18.000000 -4.000000 -6.534571E+01
18.000000 -6.000000 -9.550361E+01
18.000000 -8.000000 -1.140193E+02
18.000000 -10.000000 -1.361308E+02
18.000000 -12.000000 -1.474460E+02
18.000000 -14.000000 -1.290573E+02
18.000000 -16.000000 -7.786723E+01
18.000000 -18.000000 -2.354140E+01
18.000000 -20.000000 7.131149E+00
18.000000 -22.000000 1.063543E+01
18.000000 -24.000000 -1.449917E+00
18.000000 -26.000000 -1.487990E+01
18.000000 -28.000000 -2.136945E+01
18.000000 -30.000000 -2.205803E+01
18.000000 -32.000000 -1.705805E+01
18.000000 -34.000000 -1.474205E+01
18.000000 -36.000000 -1.224822E+01
18.000000 -38.000000 -8.468531E+00
18.000000 -40.000000 8.359184E-01
20.000000 40.000000 2.038899E+01
20.000000 38.000000 4.577099E+01
20.000000 36.000000 7.494658E+01
20.000000 34.000000 9.391935E+01
20.000000 32.000000 8.577502E+01
20.000000 30.000000 6.705069E+01
20.000000 28.000000 4.542962E+01
20.000000 26.000000 3.189018E+01
20.000000 24.000000 3.154445E+01
20.000000 22.000000 4.287564E+01
20.000000 20.000000 5.403327E+01
20.000000 18.000000 4.747971E+01
20.000000 16.000000 2.602974E+01
20.000000 14.000000 1.212130E+01
20.000000 12.000000 2.174722E+01
20.000000 10.000000 5.509580E+01
20.000000 8.000000 1.048561E+02
20.000000 6.000000 1.466296E+02
20.000000 4.000000 1.620871E+02
20.000000 2.000000 1.322430E+02
20.000000 0.000000 6.967594E+01
20.000000 -2.000000 -4.591513E+00
20.000000 -4.000000 -6.983930E+01
20.000000 -6.000000 -1.161440E+02
20.000000 -8.000000 -1.488168E+02
20.000000 -10.000000 -1.792139E+02
20.000000 -12.000000 -1.862315E+02
20.000000 -14.000000 -1.578024E+02
20.000000 -16.000000 -9.537106E+01
20.000000 -18.000000 -3.265770E+01
20.000000 -20.000000 3.251255E+00
20.000000 -22.000000 1.140816E+01
20.000000 -24.000000 4.049343E+00
20.000000 -26.000000 -6.162006E+00
20.000000 -28.000000 -1.214149E+01
20.000000 -30.000000 -1.386981E+01
20.000000 -32.000000 -1.111606E+01
20.000000 -34.000000 -1.255524E+01
20.000000 -36.000000 -1.551391E+01
20.000000 -38.000000 -1.468060E+01
20.000000 -40.000000 -5.552385E+00
22.000000 40.000000 1.551604E+01
22.000000 38.000000 3.679379E+01
22.000000 36.000000 6.419342E+01
22.000000 34.000000 8.685739E+01
22.000000 32.000000 8.369109E+01
22.000000 30.000000 6.917670E+01
22.000000 28.000000 5.248861E+01
22.000000 26.000000 4.400792E+01
22.000000 24.000000 4.790988E+01
22.000000 22.000000 5.560044E+01
22.000000 20.000000 6.013099E+01
22.000000 18.000000 4.486391E+01
22.000000 16.000000 1.743279E+01
22.000000 14.000000 4.968491E-01
22.000000 12.000000 1.150575E+01
22.000000 10.000000 4.862193E+01
22.000000 8.000000 1.036660E+02
22.000000 6.000000 1.487952E+02
22.000000 4.000000 1.646817E+02
22.000000 2.000000 1.338076E+02
22.000000 0.000000 6.924004E+01
22.000000 -2.000000 -8.395733E+00
22.000000 -4.000000 -7.753313E+01
22.000000 -6.000000 -1.279829E+02
22.000000 -8.000000 -1.660134E+02
22.000000 -10.000000 -2.004315E+02
22.000000 -12.000000 -2.073668E+02
22.000000 -14.000000 -1.776283E+02
22.000000 -16.000000 -1.166270E+02
22.000000 -18.000000 -5.591698E+01
22.000000 -20.000000 -1.951473E+01
22.000000 -22.000000 -5.068989E+00
22.000000 -24.000000 -1.246719E+00
22.000000 -26.000000 -1.422142E+00
22.000000 -28.000000 -3.205124E+00
22.000000 -30.000000 -5.105160E+00
22.000000 -32.000000 -5.120365E+00
22.000000 -34.000000 -1.050763E+01
22.000000 -36.000000 -1.788750E+01
22.000000 -38.000000 -1.859860E+01
22.000000 -40.000000 -9.114399E+00
24.000000 40.000000 1.170126E+01
24.000000 38.000000 2.829240E+01
24.000000 36.000000 5.259768E+01
24.000000 34.000000 7.546182E+01
24.000000 32.000000 7.534285E+01
24.000000 30.000000 6.354255E+01
24.000000 28.000000 5.013420E+01
24.000000 26.000000 4.477884E+01
24.000000 24.000000 4.813260E+01
24.000000 22.000000 5.154621E+01
24.000000 20.000000 4.998219E+01
24.000000 18.000000 3.064808E+01
24.000000 16.000000 5.643231E+00
24.000000 14.000000 -4.039197E+00
24.000000 12.000000 1.720470E+01
24.000000 10.000000 6.496649E+01
24.000000 8.000000 1.235274E+02
24.000000 6.000000 1.676487E+02
24.000000 4.000000 1.734698E+02
24.000000 2.000000 1.317788E+02
24.000000 0.000000 5.982692E+01
24.000000 -2.000000 -2.064370E+01
24.000000 -4.000000 -8.952576E+01
24.000000 -6.000000 -1.380934E+02
24.000000 -8.000000 -1.751728E+02
24.000000 -10.000000 -2.089883E+02
24.000000 -12.000000 -2.161387E+02
24.000000 -14.000000 -1.895160E+02
24.000000 -16.000000 -1.365101E+02
24.000000 -18.000000 -8.336669E+01
24.000000 -20.000000 -4.807933E+01
24.000000 -22.000000 -2.787414E+01
24.000000 -24.000000 -1.266116E+01
24.000000 -26.000000 -1.220699E+00
24.000000 -28.000000 3.913651E+00
24.000000 -30.000000 4.313450E+00
24.000000 -32.000000 1.423065E+00
24.000000 -34.000000 -8.006098E+00
24.000000 -36.000000 -1.828986E+01
24.000000 -38.000000 -2.016512E+01
24.000000 -40.000000 -1.113869E+01
26.000000 40.000000 8.552887E+00
26.000000 38.000000 2.251607E+01
26.000000 36.000000 4.425550E+01
26.000000 34.000000 6.411102E+01
26.000000 32.000000 6.362566E+01
26.000000 30.000000 5.199926E+01
26.000000 28.000000 3.905475E+01
26.000000 26.000000 3.385046E+01
26.000000 24.000000 3.418034E+01
26.000000 22.000000 3.594950E+01
26.000000 20.000000 3.335652E+01
26.000000 18.000000 1.844408E+01
26.000000 16.000000 4.003632E+00
26.000000 14.000000 7.245668E+00
26.000000 12.000000 3.858919E+01
26.000000 10.000000 9.147326E+01
26.000000 8.000000 1.438544E+02
26.000000 6.000000 1.783568E+02
26.000000 4.000000 1.697837E+02
26.000000 2.000000 1.162353E+02
26.000000 0.000000 3.978694E+01
26.000000 -2.000000 -3.721558E+01
26.000000 -4.000000 -9.816233E+01
26.000000 -6.000000 -1.412419E+02
26.000000 -8.000000 -1.772114E+02
26.000000 -10.000000 -2.105919E+02
26.000000 -12.000000 -2.170796E+02
26.000000 -14.000000 -1.931163E+02
26.000000 -16.000000 -1.468332E+02
26.000000 -18.000000 -1.004070E+02
26.000000 -20.000000 -6.672905E+01
26.000000 -22.000000 -4.367072E+01
26.000000 -24.000000 -2.102350E+01
26.000000 -26.000000 -2.270840E+00
26.000000 -28.000000 7.987556E+00
26.000000 -30.000000 1.189151E+01
26.000000 -32.000000 7.606640E+00
26.000000 -34.000000 -4.718344E+00
26.000000 -36.000000 -1.685239E+01
26.000000 -38.000000 -2.038797E+01
26.000000 -40.000000 -1.295613E+01
28.000000 40.000000 7.428842E+00
28.000000 38.000000 2.048423E+01
28.000000 36.000000 3.926610E+01
28.000000 34.000000 5.416780E+01
28.000000 32.000000 5.124405E+01
28.000000 30.000000 3.852975E+01
28.000000 28.000000 2.453251E+01
28.000000 26.000000 1.760947E+01
28.000000 24.000000 1.558336E+01
28.000000 22.000000 1.900823E+01
28.000000 20.000000 1.983598E+01
28.000000 18.000000 1.469617E+01
28.000000 16.000000 1.341248E+01
28.000000 14.000000 2.824951E+01
28.000000 12.000000 6.372967E+01
28.000000 10.000000 1.121312E+02
28.000000 8.000000 1.504030E+02
28.000000 6.000000 1.667801E+02
28.000000 4.000000 1.413697E+02
28.000000 2.000000 7.930718E+01
28.000000 0.000000 4.992363E+00
28.000000 -2.000000 -5.861555E+01
28.000000 -4.000000 -1.011073E+02
28.000000 -6.000000 -1.322131E+02
28.000000 -8.000000 -1.662972E+02
28.000000 -10.000000 -1.996078E+02
28.000000 -12.000000 -2.060543E+02
28.000000 -14.000000 -1.831766E+02
28.000000 -16.000000 -1.405821E+02
28.000000 -18.000000 -9.972749E+01
28.000000 -20.000000 -7.015714E+01
28.000000 -22.000000 -4.837131E+01
28.000000 -24.000000 -2.266216E+01
28.000000 -26.000000 -6.433640E-01
28.000000 -28.000000 1.127156E+01
28.000000 -30.000000 1.686773E+01
28.000000 -32.000000 1.205336E+01
28.000000 -34.000000 -1.296638E+00
28.000000 -36.000000 -1.457239E+01
28.000000 -38.000000 -2.070685E+01
28.000000 -40.000000 -1.548188E+01
30.000000 40.000000 8.117932E+00
30.000000 38.000000 2.073597E+01
30.000000 36.000000 3.645034E+01
30.000000 34.000000 4.608934E+01
30.000000 32.000000 4.029490E+01
30.000000 30.000000 2.639081E+01
30.000000 28.000000 1.213981E+01
30.000000 26.000000 5.797972E+00
30.000000 24.000000 4.551760E+00
30.000000 22.000000 1.043055E+01
30.000000 20.000000 1.409015E+01
30.000000 18.000000 1.519751E+01
30.000000 16.000000 2.275767E+01
30.000000 14.000000 4.502044E+01
30.000000 12.000000 8.105465E+01
30.000000 10.000000 1.223216E+02
30.000000 8.000000 1.449457E+02
30.000000 6.000000 1.400110E+02
30.000000 4.000000 9.784553E+01
30.000000 2.000000 3.059628E+01
30.000000 0.000000 -3.727576E+01
30.000000 -2.000000 -8.064931E+01
30.000000 -4.000000 -9.877749E+01
30.000000 -6.000000 -1.138274E+02
30.000000 -8.000000 -1.455164E+02
30.000000 -10.000000 -1.796180E+02
30.000000 -12.000000 -1.873762E+02
30.000000 -14.000000 -1.628372E+02
30.000000 -16.000000 -1.203666E+02
30.000000 -18.000000 -8.446083E+01
30.000000 -20.000000 -6.187349E+01
30.000000 -22.000000 -4.444340E+01
30.000000 -24.000000 -1.867212E+01
30.000000 -26.000000 4.893440E+00
30.000000 -28.000000 1.579930E+01
30.000000 -30.000000 1.898232E+01
30.000000 -32.000000 1.301294E+01
30.000000 -34.000000 5.602760E-01
30.000000 -36.000000 -1.212725E+01
30.000000 -38.000000 -2.066290E+01
30.000000 -40.000000 -1.843358E+01
32.000000 40.000000 7.317089E+00
32.000000 38.000000 2.043298E+01
32.000000 36.000000 3.518413E+01
32.000000 34.000000 4.203494E+01
32.000000 32.000000 3.451902E+01
32.000000 30.000000 1.994817E+01
32.000000 28.000000 7.150641E+00
32.000000 26.000000 4.589840E+00
32.000000 24.000000 6.998639E+00
32.000000 22.000000 1.314269E+01
32.000000 20.000000 1.543690E+01
32.000000 18.000000 1.465150E+01
32.000000 16.000000 2.280011E+01
32.000000 14.000000 4.929767E+01
32.000000 12.000000 8.822326E+01
32.000000 10.000000 1.256108E+02
32.000000 8.000000 1.349300E+02
32.000000 6.000000 1.123577E+02
32.000000 4.000000 5.817402E+01
32.000000 2.000000 -1.049942E+01
32.000000 0.000000 -6.954783E+01
32.000000 -2.000000 -9.283703E+01
32.000000 -4.000000 -8.936197E+01
32.000000 -6.000000 -9.290792E+01
32.000000 -8.000000 -1.260497E+02
32.000000 -10.000000 -1.644561E+02
32.000000 -12.000000 -1.738909E+02
32.000000 -14.000000 -1.451535E+02
32.000000 -16.000000 -9.883385E+01
32.000000 -18.000000 -6.480117E+01
32.000000 -20.000000 -4.893513E+01
32.000000 -22.000000 -3.722512E+01
32.000000 -24.000000 -1.315413E+01
32.000000 -26.000000 1.057300E+01
32.000000 -28.000000 1.888463E+01
32.000000 -30.000000 1.806987E+01
32.000000 -32.000000 1.074582E+01
32.000000 -34.000000 -1.759300E-01
32.000000 -36.000000 -1.089345E+01
32.000000 -38.000000 -1.945582E+01
32.000000 -40.000000 -1.958413E+01
34.000000 40.000000 3.005985E+00
34.000000 38.000000 1.795258E+01
34.000000 36.000000 3.414529E+01
34.000000 34.000000 4.181385E+01
34.000000 32.000000 3.479798E+01
34.000000 30.000000 2.107597E+01
34.000000 28.000000 1.055356E+01
34.000000 26.000000 1.118013E+01
34.000000 24.000000 1.745794E+01
34.000000 22.000000 2.290540E+01
34.000000 20.000000 2.302627E+01
34.000000 18.000000 1.807310E+01
34.000000 16.000000 2.246430E+01
34.000000 14.000000 4.852488E+01
34.000000 12.000000 8.963023E+01
34.000000 10.000000 1.257561E+02
34.000000 8.000000 1.270375E+02
34.000000 6.000000 9.557751E+01
34.000000 4.000000 3.615083E+01
34.000000 2.000000 -2.964352E+01
34.000000 0.000000 -8.026574E+01
34.000000 -2.000000 -9.223154E+01
34.000000 -4.000000 -7.914504E+01
34.000000 -6.000000 -8.032460E+01
34.000000 -8.000000 -1.170494E+02
34.000000 -10.000000 -1.615957E+02
34.000000 -12.000000 -1.733239E+02
34.000000 -14.000000 -1.411062E+02
34.000000 -16.000000 -8.898699E+01
34.000000 -18.000000 -5.329232E+01
34.000000 -20.000000 -4.095671E+01
34.000000 -22.000000 -3.395224E+01
34.000000 -24.000000 -1.214546E+01
34.000000 -26.000000 1.041685E+01
34.000000 -28.000000 1.758406E+01
34.000000 -30.000000 1.673287E+01
34.000000 -32.000000 1.004932E+01
34.000000 -34.000000 -1.113358E-01
34.000000 -36.000000 -1.011716E+01
34.000000 -38.000000 -1.785183E+01
34.000000 -40.000000 -1.886056E+01
36.000000 40.000000 -3.358459E+00
36.000000 38.000000 1.274721E+01
36.000000 36.000000 3.026213E+01
36.000000 34.000000 4.092959E+01
36.000000 32.000000 3.755132E+01
36.000000 30.000000 2.670802E+01
36.000000 28.000000 1.782632E+01
36.000000 26.000000 1.892303E+01
36.000000 24.000000 2.790719E+01
36.000000 22.000000 3.554238E+01
36.000000 20.000000 3.745120E+01
36.000000 18.000000 3.149785E+01
36.000000 16.000000 3.138317E+01
36.000000 14.000000 5.117091E+01
36.000000 12.000000 8.811303E+01
36.000000 10.000000 1.207981E+02
36.000000 8.000000 1.194904E+02
36.000000 6.000000 9.017929E+01
36.000000 4.000000 3.522391E+01
36.000000 2.000000 -2.399183E+01
36.000000 0.000000 -6.897569E+01
36.000000 -2.000000 -8.097171E+01
36.000000 -4.000000 -7.218070E+01
36.000000 -6.000000 -7.784657E+01
36.000000 -8.000000 -1.166946E+02
36.000000 -10.000000 -1.660189E+02
36.000000 -12.000000 -1.812439E+02
36.000000 -14.000000 -1.497435E+02
36.000000 -16.000000 -9.515201E+01
36.000000 -18.000000 -5.773580E+01
36.000000 -20.000000 -4.545825E+01
36.000000 -22.000000 -3.939033E+01
36.000000 -24.000000 -1.774233E+01
36.000000 -26.000000 5.250755E+00
36.000000 -28.000000 1.431965E+01
36.000000 -30.000000 1.708483E+01
36.000000 -32.000000 1.322315E+01
36.000000 -34.000000 3.162762E+00
36.000000 -36.000000 -8.673449E+00
36.000000 -38.000000 -1.724217E+01
36.000000 -40.000000 -1.908648E+01
38.000000 40.000000 -1.141614E+01
38.000000 38.000000 4.207016E+00
38.000000 36.000000 2.256019E+01
38.000000 34.000000 3.755986E+01
38.000000 32.000000 4.038787E+01
38.000000 30.000000 3.358440E+01
38.000000 28.000000 2.466275E+01
38.000000 26.000000 2.364657E+01
38.000000 24.000000 3.352492E+01
38.000000 22.000000 4.576006E+01
38.000000 20.000000 5.383256E+01
38.000000 18.000000 4.936262E+01
38.000000 16.000000 4.353963E+01
38.000000 14.000000 5.259405E+01
38.000000 12.000000 7.893950E+01
38.000000 10.000000 1.055159E+02
38.000000 8.000000 1.078551E+02
38.000000 6.000000 9.007029E+01
38.000000 4.000000 4.904824E+01
38.000000 2.000000 -1.096415E+00
38.000000 0.000000 -4.395842E+01
38.000000 -2.000000 -6.258649E+01
38.000000 -4.000000 -6.416800E+01
38.000000 -6.000000 -7.471902E+01
38.000000 -8.000000 -1.118800E+02
38.000000 -10.000000 -1.617606E+02
38.000000 -12.000000 -1.815479E+02
38.000000 -14.000000 -1.595155E+02
38.000000 -16.000000 -1.131992E+02
38.000000 -18.000000 -7.815362E+01
38.000000 -20.000000 -6.350021E+01
38.000000 -22.000000 -5.297392E+01
38.000000 -24.000000 -2.669277E+01
38.000000 -26.000000 1.369247E-01
38.000000 -28.000000 1.185859E+01
38.000000 -30.000000 1.755891E+01
38.000000 -32.000000 1.588401E+01
38.000000 -34.000000 5.666424E+00
38.000000 -36.000000 -8.716595E+00
38.000000 -38.000000 -1.861773E+01
38.000000 -40.000000 -2.147090E+01
40.000000 40.000000 -2.088138E+01
40.000000 38.000000 -6.120075E+00
40.000000 36.000000 1.359472E+01
40.000000 34.000000 3.340360E+01
40.000000 32.000000 4.230370E+01
40.000000 30.000000 3.844160E+01
40.000000 28.000000 2.793753E+01
40.000000 26.000000 2.272013E+01
40.000000 24.000000 3.044182E+01
40.000000 22.000000 4.633328E+01
40.000000 20.000000 5.982978E+01
40.000000 18.000000 5.670440E+01
40.000000 16.000000 4.451226E+01
40.000000 14.000000 4.249785E+01
40.000000 12.000000 5.703417E+01
40.000000 10.000000 7.832641E+01
40.000000 8.000000 9.029787E+01
40.000000 6.000000 8.936691E+01
40.000000 4.000000 6.816766E+01
40.000000 2.000000 2.929284E+01
40.000000 0.000000 -1.168576E+01
40.000000 -2.000000 -3.851693E+01
40.000000 -4.000000 -4.939112E+01
40.000000 -6.000000 -6.104895E+01
40.000000 -8.000000 -9.069121E+01
40.000000 -10.000000 -1.334906E+02
40.000000 -12.000000 -1.581738E+02
40.000000 -14.000000 -1.555755E+02
40.000000 -16.000000 -1.322224E+02
40.000000 -18.000000 -1.088943E+02
40.000000 -20.000000 -9.365697E+01
40.000000 -22.000000 -7.438997E+01
40.000000 -24.000000 -3.866228E+01
40.000000 -26.000000 -4.765320E+00
40.000000 -28.000000 9.503784E+00
40.000000 -30.000000 1.549062E+01
40.000000 -32.000000 1.384205E+01
40.000000 -34.000000 3.602005E+00
40.000000 -36.000000 -1.142932E+01
40.000000 -38.000000 -2.161236E+01
40.000000 -40.000000 -2.501265E+01
42.000000 40.000000 -2.812181E+01
42.000000 38.000000 -1.583339E+01
42.000000 36.000000 3.557981E+00
42.000000 34.000000 2.680196E+01
42.000000 32.000000 4.044251E+01
42.000000 30.000000 3.811840E+01
42.000000 28.000000 2.534992E+01
42.000000 26.000000 1.519292E+01
42.000000 24.000000 1.691992E+01
42.000000 22.000000 3.231709E+01
42.000000 20.000000 4.565168E+01
42.000000 18.000000 4.302530E+01
42.000000 16.000000 2.854463E+01
42.000000 14.000000 2.198151E+01
42.000000 12.000000 3.115980E+01
42.000000 10.000000 5.117603E+01
42.000000 8.000000 7.257090E+01
42.000000 6.000000 8.560031E+01
42.000000 4.000000 8.059763E+01
42.000000 2.000000 5.277929E+01
42.000000 0.000000 1.574301E+01
42.000000 -2.000000 -1.472076E+01
42.000000 -4.000000 -2.855604E+01
42.000000 -6.000000 -3.611808E+01
42.000000 -8.000000 -5.389720E+01
42.000000 -10.000000 -8.339415E+01
42.000000 -12.000000 -1.123903E+02
42.000000 -14.000000 -1.322480E+02
42.000000 -16.000000 -1.395312E+02
42.000000 -18.000000 -1.377022E+02
42.000000 -20.000000 -1.260994E+02
42.000000 -22.000000 -9.788211E+01
42.000000 -24.000000 -5.153640E+01
42.000000 -26.000000 -1.109559E+01
42.000000 -28.000000 3.562729E+00
42.000000 -30.000000 6.908310E+00
42.000000 -32.000000 4.436447E+00
42.000000 -34.000000 -3.641956E+00
42.000000 -36.000000 -1.610294E+01
42.000000 -38.000000 -2.497649E+01
42.000000 -40.000000 -2.803316E+01
44.000000 40.000000 -3.123886E+01
44.000000 38.000000 -2.376619E+01
44.000000 36.000000 -7.607882E+00
44.000000 34.000000 1.594203E+01
44.000000 32.000000 3.223561E+01
44.000000 30.000000 3.108768E+01
44.000000 28.000000 1.641365E+01
44.000000 26.000000 2.707075E+00
44.000000 24.000000 -2.474518E+00
44.000000 22.000000 8.703482E+00
44.000000 20.000000 1.873972E+01
44.000000 18.000000 1.791558E+01
44.000000 16.000000 8.026666E+00
44.000000 14.000000 4.259008E+00
44.000000 12.000000 1.436566E+01
44.000000 10.000000 3.436386E+01
44.000000 8.000000 5.824452E+01
44.000000 6.000000 7.598054E+01
44.000000 4.000000 7.777126E+01
44.000000 2.000000 5.747592E+01
44.000000 0.000000 2.626453E+01
44.000000 -2.000000 -1.121397E+00
44.000000 -4.000000 -1.101444E+01
44.000000 -6.000000 -9.036016E+00
44.000000 -8.000000 -1.369339E+01
44.000000 -10.000000 -2.877535E+01
44.000000 -12.000000 -6.072296E+01
44.000000 -14.000000 -9.910126E+01
44.000000 -16.000000 -1.341711E+02
44.000000 -18.000000 -1.527191E+02
44.000000 -20.000000 -1.460193E+02
44.000000 -22.000000 -1.130004E+02
44.000000 -24.000000 -6.026414E+01
44.000000 -26.000000 -1.884056E+01
44.000000 -28.000000 -8.327284E+00
44.000000 -30.000000 -9.148594E+00
44.000000 -32.000000 -1.102363E+01
44.000000 -34.000000 -1.441175E+01
44.000000 -36.000000 -2.202610E+01
44.000000 -38.000000 -2.760856E+01
44.000000 -40.000000 -2.936406E+01
46.000000 40.000000 -3.349458E+01
46.000000 38.000000 -3.020236E+01
46.000000 36.000000 -1.699594E+01
46.000000 34.000000 4.043051E+00
46.000000 32.000000 1.989079E+01
46.000000 30.000000 1.954575E+01
46.000000 28.000000 5.061085E+00
46.000000 26.000000 -7.948599E+00
46.000000 24.000000 -1.630647E+01
46.000000 22.000000 -1.043075E+01
46.000000 20.000000 -3.214293E+00
46.000000 18.000000 -4.043455E-01
46.000000 16.000000 -3.161388E+00
46.000000 14.000000 -2.816017E+00
46.000000 12.000000 8.318449E+00
46.000000 10.000000 2.708228E+01
46.000000 8.000000 4.646968E+01
46.000000 6.000000 5.936300E+01
46.000000 4.000000 5.838889E+01
46.000000 2.000000 4.065661E+01
46.000000 0.000000 1.506972E+01
46.000000 -2.000000 -4.408504E+00
46.000000 -4.000000 -6.064978E+00
46.000000 -6.000000 7.402634E+00
46.000000 -8.000000 1.561211E+01
46.000000 -10.000000 1.296596E+01
46.000000 -12.000000 -2.047924E+01
46.000000 -14.000000 -6.945986E+01
46.000000 -16.000000 -1.204620E+02
46.000000 -18.000000 -1.497804E+02
46.000000 -20.000000 -1.466643E+02
46.000000 -22.000000 -1.145329E+02
46.000000 -24.000000 -6.400887E+01
46.000000 -26.000000 -2.795192E+01
46.000000 -28.000000 -2.238064E+01
46.000000 -30.000000 -2.552449E+01
46.000000 -32.000000 -2.594087E+01
46.000000 -34.000000 -2.472151E+01
46.000000 -36.000000 -2.729841E+01
46.000000 -38.000000 -2.994886E+01
46.000000 -40.000000 -3.076978E+01
48.000000 40.000000 -3.779543E+01
48.000000 38.000000 -3.609269E+01
48.000000 36.000000 -2.393404E+01
48.000000 34.000000 -5.987589E+00
48.000000 32.000000 7.889480E+00
48.000000 30.000000 8.904995E+00
48.000000 28.000000 -6.512032E-01
48.000000 26.000000 -7.616730E+00
48.000000 24.000000 -1.487678E+01
48.000000 22.000000 -1.361493E+01
48.000000 20.000000 -9.327015E+00
48.000000 18.000000 -4.638223E+00
48.000000 16.000000 -3.267740E+00
48.000000 14.000000 -6.817265E-01
48.000000 12.000000 9.563657E+00
48.000000 10.000000 2.472865E+01
48.000000 8.000000 3.485172E+01
48.000000 6.000000 3.739673E+01
48.000000 4.000000 2.909106E+01
48.000000 2.000000 1.238310E+01
48.000000 0.000000 -7.509998E+00
48.000000 -2.000000 -1.867378E+01
48.000000 -4.000000 -1.361411E+01
48.000000 -6.000000 7.201580E+00
48.000000 -8.000000 2.411178E+01
48.000000 -10.000000 2.885704E+01
48.000000 -12.000000 -3.008823E+00
48.000000 -14.000000 -5.249469E+01
48.000000 -16.000000 -1.029827E+02
48.000000 -18.000000 -1.326723E+02
48.000000 -20.000000 -1.307332E+02
48.000000 -22.000000 -1.030120E+02
48.000000 -24.000000 -6.232007E+01
48.000000 -26.000000 -3.557712E+01
48.000000 -28.000000 -3.324506E+01
48.000000 -30.000000 -3.596150E+01
48.000000 -32.000000 -3.547975E+01
48.000000 -34.000000 -3.227299E+01
48.000000 -36.000000 -3.185348E+01
48.000000 -38.000000 -3.321667E+01
48.000000 -40.000000 -3.389025E+01
50.000000 40.000000 -4.373890E+01
50.000000 38.000000 -4.123658E+01
50.000000 36.000000 -2.906525E+01
50.000000 34.000000 -1.273816E+01
50.000000 32.000000 -7.415771E-03
50.000000 30.000000 3.441097E+00
50.000000 28.000000 2.471920E+00
50.000000 26.000000 3.560818E+00
50.000000 24.000000 8.934345E-01
50.000000 22.000000 5.031872E-01
50.000000 20.000000 1.571306E+00
50.000000 18.000000 3.744243E+00
50.000000 16.000000 3.814068E+00
50.000000 14.000000 6.042980E+00
50.000000 12.000000 1.403002E+01
50.000000 10.000000 2.319040E+01
50.000000 8.000000 2.362482E+01
50.000000 6.000000 1.627724E+01
50.000000 4.000000 2.881811E+00
50.000000 2.000000 -1.122397E+01
50.000000 0.000000 -2.561731E+01
50.000000 -2.000000 -3.225956E+01
50.000000 -4.000000 -2.595991E+01
50.000000 -6.000000 -5.461550E+00
50.000000 -8.000000 1.202427E+01
50.000000 -10.000000 1.792329E+01
50.000000 -12.000000 -7.403927E+00
50.000000 -14.000000 -4.848446E+01
50.000000 -16.000000 -8.775215E+01
50.000000 -18.000000 -1.102046E+02
50.000000 -20.000000 -1.077154E+02
50.000000 -22.000000 -8.531855E+01
50.000000 -24.000000 -5.625796E+01
50.000000 -26.000000 -3.931277E+01
50.000000 -28.000000 -3.947044E+01
50.000000 -30.000000 -4.099146E+01
50.000000 -32.000000 -3.953791E+01
50.000000 -34.000000 -3.654961E+01
50.000000 -36.000000 -3.591576E+01
50.000000 -38.000000 -3.693307E+01
50.000000 -40.000000 -3.762187E+01
52.000000 40.000000 -4.995394E+01
52.000000 38.000000 -4.472106E+01
52.000000 36.000000 -3.167095E+01
52.000000 34.000000 -1.531196E+01
52.000000 32.000000 -2.579510E+00
52.000000 30.000000 3.478289E+00
52.000000 28.000000 8.848125E+00
52.000000 26.000000 1.718181E+01
52.000000 24.000000 2.248378E+01
52.000000 22.000000 2.398397E+01
52.000000 20.000000 2.398001E+01
52.000000 18.000000 2.193310E+01
52.000000 16.000000 1.661748E+01
52.000000 14.000000 1.456703E+01
52.000000 12.000000 1.794421E+01
52.000000 10.000000 2.054798E+01
52.000000 8.000000 1.513319E+01
52.000000 6.000000 2.757781E+00
52.000000 4.000000 -1.100545E+01
52.000000 2.000000 -2.087056E+01
52.000000 0.000000 -3.139941E+01
52.000000 -2.000000 -3.860209E+01
52.000000 -4.000000 -3.647296E+01
52.000000 -6.000000 -2.188792E+01
52.000000 -8.000000 -9.648716E+00
52.000000 -10.000000 -6.076183E+00
52.000000 -12.000000 -2.236325E+01
52.000000 -14.000000 -5.070161E+01
52.000000 -16.000000 -7.620032E+01
52.000000 -18.000000 -9.100162E+01
52.000000 -20.000000 -8.910966E+01
52.000000 -22.000000 -7.259462E+01
52.000000 -24.000000 -5.214776E+01
52.000000 -26.000000 -4.088938E+01
52.000000 -28.000000 -4.105008E+01
52.000000 -30.000000 -4.142960E+01
52.000000 -32.000000 -3.940807E+01
52.000000 -34.000000 -3.689892E+01
52.000000 -36.000000 -3.796379E+01
52.000000 -38.000000 -4.009565E+01
52.000000 -40.000000 -4.071490E+01
54.000000 40.000000 -5.526625E+01
54.000000 38.000000 -4.694644E+01
54.000000 36.000000 -3.223746E+01
54.000000 34.000000 -1.454027E+01
54.000000 32.000000 -5.665207E-01
54.000000 30.000000 7.714344E+00
54.000000 28.000000 1.566740E+01
54.000000 26.000000 2.805256E+01
54.000000 24.000000 4.030367E+01
54.000000 22.000000 4.591430E+01
54.000000 20.000000 4.790564E+01
54.000000 18.000000 4.257407E+01
54.000000 16.000000 3.085686E+01
54.000000 14.000000 2.293677E+01
54.000000 12.000000 2.147161E+01
54.000000 10.000000 1.958125E+01
54.000000 8.000000 1.143035E+01
54.000000 6.000000 -1.920881E+00
54.000000 4.000000 -1.265729E+01
54.000000 2.000000 -1.895455E+01
54.000000 0.000000 -2.772986E+01
54.000000 -2.000000 -3.775278E+01
54.000000 -4.000000 -4.221533E+01
54.000000 -6.000000 -3.543680E+01
54.000000 -8.000000 -2.855284E+01
54.000000 -10.000000 -2.810170E+01
54.000000 -12.000000 -3.716627E+01
54.000000 -14.000000 -5.289112E+01
54.000000 -16.000000 -6.713877E+01
54.000000 -18.000000 -7.730619E+01
54.000000 -20.000000 -7.803307E+01
54.000000 -22.000000 -6.807125E+01
54.000000 -24.000000 -5.188160E+01
54.000000 -26.000000 -4.081201E+01
54.000000 -28.000000 -3.879228E+01
54.000000 -30.000000 -3.803021E+01
54.000000 -32.000000 -3.621593E+01
54.000000 -34.000000 -3.465727E+01
54.000000 -36.000000 -3.813906E+01
54.000000 -38.000000 -4.199306E+01
54.000000 -40.000000 -4.258911E+01
56.000000 40.000000 -5.615855E+01
56.000000 38.000000 -4.667462E+01
56.000000 36.000000 -3.231265E+01
56.000000 34.000000 -1.248470E+01
56.000000 32.000000 3.136034E+00
56.000000 30.000000 1.336341E+01
56.000000 28.000000 2.221106E+01
56.000000 26.000000 3.442453E+01
56.000000 24.000000 4.951371E+01
56.000000 22.000000 5.947530E+01
56.000000 20.000000 6.413565E+01
56.000000 18.000000 5.583438E+01
56.000000 16.000000 3.940861E+01
56.000000 14.000000 2.896636E+01
56.000000 12.000000 2.622918E+01
56.000000 10.000000 2.365858E+01
56.000000 8.000000 1.497405E+01
56.000000 6.000000 2.449227E+00
56.000000 4.000000 -5.384537E+00
56.000000 2.000000 -1.112027E+01
56.000000 0.000000 -2.155632E+01
56.000000 -2.000000 -3.518549E+01
56.000000 -4.000000 -4.454501E+01
56.000000 -6.000000 -4.458409E+01
56.000000 -8.000000 -4.093564E+01
56.000000 -10.000000 -4.089287E+01
56.000000 -12.000000 -4.503953E+01
56.000000 -14.000000 -5.204434E+01
56.000000 -16.000000 -5.901395E+01
56.000000 -18.000000 -6.609849E+01
56.000000 -20.000000 -7.044241E+01
56.000000 -22.000000 -6.692159E+01
56.000000 -24.000000 -5.222857E+01
56.000000 -26.000000 -3.880823E+01
56.000000 -28.000000 -3.440869E+01
56.000000 -30.000000 -3.239111E+01
