-8.000000 14.000000 -2.247846E+01
-8.000000 12.000000 -3.157024E+01
-8.000000 10.000000 -3.637780E+01
-8.000000 8.000000 -3.060814E+01
-8.000000 6.000000 -2.853391E+01
-8.000000 4.000000 -4.070113E+01
-8.000000 2.000000 -5.253529E+01
-8.000000 0.000000 -4.664125E+01
-8.000000 -2.000000 -2.282287E+01
-8.000000 -4.000000 1.551762E+00
-8.000000 -6.000000 1.080102E+01
-8.000000 -8.000000 5.977102E+00
-8.000000 -10.000000 1.009825E+00
-8.000000 -12.000000 1.603175E+00
-8.000000 -14.000000 4.296664E+00
-8.000000 -16.000000 2.998675E+00
-8.000000 -18.000000 -3.106243E+00
-8.000000 -20.000000 -6.854150E+00
-8.000000 -22.000000 -5.032024E+00
-8.000000 -24.000000 6.205440E+00
-8.000000 -26.000000 2.136529E+01
-8.000000 -28.000000 3.573916E+01
-8.000000 -30.000000 4.408615E+01
-8.000000 -32.000000 3.080691E+01
-8.000000 -34.000000 1.202549E+00
-8.000000 -36.000000 -1.762958E+01
-8.000000 -38.000000 -1.955168E+01
-8.000000 -40.000000 -1.693148E+01
-6.000000 40.000000 -1.077967E+01
-6.000000 38.000000 -8.699441E+00
-6.000000 36.000000 -1.030064E+01
-6.000000 34.000000 -1.176517E+01
-6.000000 32.000000 -8.878525E+00
-6.000000 30.000000 5.937508E+00
-6.000000 28.000000 3.016829E+01
-6.000000 26.000000 4.906637E+01
-6.000000 24.000000 4.920393E+01
-6.000000 22.000000 2.913025E+01
-6.000000 20.000000 1.013671E+01
-6.000000 18.000000 -4.698418E+00
-6.000000 16.000000 -1.100542E+01
-6.000000 14.000000 -1.835303E+01
-6.000000 12.000000 -2.760204E+01
-6.000000 10.000000 -3.401993E+01
-6.000000 8.000000 -2.987385E+01
-6.000000 6.000000 -2.355581E+01
-6.000000 4.000000 -2.816860E+01
-6.000000 2.000000 -3.859395E+01
-6.000000 0.000000 -3.756793E+01
-6.000000 -2.000000 -2.163142E+01
-6.000000 -4.000000 -4.811421E+00
-6.000000 -6.000000 -4.566059E+00
-6.000000 -8.000000 -1.675706E+01
-6.000000 -10.000000 -2.923337E+01
-6.000000 -12.000000 -2.647223E+01
-6.000000 -14.000000 -1.438243E+01
-6.000000 -16.000000 -5.252393E+00
-6.000000 -18.000000 -3.615099E+00
-6.000000 -20.000000 -1.707264E+00
-6.000000 -22.000000 1.564627E+00
-6.000000 -24.000000 1.108417E+01
-6.000000 -26.000000 2.453425E+01
-6.000000 -28.000000 3.655040E+01
-6.000000 -30.000000 4.289451E+01
-6.000000 -32.000000 3.024114E+01
-6.000000 -34.000000 1.542188E+00
-6.000000 -36.000000 -1.790580E+01
-6.000000 -38.000000 -2.090954E+01
-6.000000 -40.000000 -1.986283E+01
-4.000000 40.000000 -1.533496E+01
-4.000000 38.000000 -1.330981E+01
-4.000000 36.000000 -1.409853E+01
-4.000000 34.000000 -1.484317E+01
-4.000000 32.000000 -1.232445E+01
-4.000000 30.000000 8.477970E-01
-4.000000 28.000000 2.380361E+01
-4.000000 26.000000 4.167001E+01
-4.000000 24.000000 4.171243E+01
-4.000000 22.000000 2.379549E+01
-4.000000 20.000000 7.572305E+00
-4.000000 18.000000 -1.467606E+00
-4.000000 16.000000 -1.315487E+00
-4.000000 14.000000 -4.157609E+00
-4.000000 12.000000 -1.462412E+01
-4.000000 10.000000 -2.513442E+01
-4.000000 8.000000 -2.393226E+01
-4.000000 6.000000 -1.406233E+01
-4.000000 4.000000 -1.132551E+01
-4.000000 2.000000 -2.071972E+01
-4.000000 0.000000 -2.342441E+01
-4.000000 -2.000000 -1.526570E+01
-4.000000 -4.000000 -7.305345E+00
-4.000000 -6.000000 -1.556571E+01
-4.000000 -8.000000 -3.389311E+01
-4.000000 -10.000000 -5.217433E+01
-4.000000 -12.000000 -4.782044E+01
-4.000000 -14.000000 -2.899641E+01
-4.000000 -16.000000 -1.231145E+01
-4.000000 -18.000000 -6.789925E+00
-4.000000 -20.000000 -4.510188E+00
-4.000000 -22.000000 -2.046575E+00
-4.000000 -24.000000 5.193130E+00
-4.000000 -26.000000 1.624288E+01
-4.000000 -28.000000 2.781775E+01
-4.000000 -30.000000 3.581792E+01
-4.000000 -32.000000 2.556280E+01
-4.000000 -34.000000 -2.714057E+00
-4.000000 -36.000000 -2.001514E+01
-4.000000 -38.000000 -2.067271E+01
-4.000000 -40.000000 -1.968618E+01
-2.000000 40.000000 -1.898883E+01
-2.000000 38.000000 -1.728505E+01
-2.000000 36.000000 -1.719200E+01
-2.000000 34.000000 -1.877291E+01
-2.000000 32.000000 -1.946337E+01
-2.000000 30.000000 -9.871747E+00
-2.000000 28.000000 1.090508E+01
-2.000000 26.000000 2.686178E+01
-2.000000 24.000000 2.659804E+01
-2.000000 22.000000 1.318651E+01
-2.000000 20.000000 2.719740E+00
-2.000000 18.000000 3.481815E+00
-2.000000 16.000000 1.287688E+01
-2.000000 14.000000 1.511415E+01
-2.000000 12.000000 2.285799E+00
-2.000000 10.000000 -1.363134E+01
-2.000000 8.000000 -1.645294E+01
-2.000000 6.000000 -7.514503E+00
-2.000000 4.000000 -3.077394E+00
-2.000000 2.000000 -1.094589E+01
-2.000000 0.000000 -1.361760E+01
-2.000000 -2.000000 -8.087598E+00
-2.000000 -4.000000 -3.669081E+00
-2.000000 -6.000000 -1.387382E+01
-2.000000 -8.000000 -3.289714E+01
-2.000000 -10.000000 -5.228033E+01
-2.000000 -12.000000 -5.035121E+01
-2.000000 -14.000000 -3.324522E+01
-2.000000 -16.000000 -1.827541E+01
-2.000000 -18.000000 -1.643600E+01
-2.000000 -20.000000 -1.813858E+01
-2.000000 -22.000000 -1.706015E+01
-2.000000 -24.000000 -1.092744E+01
-2.000000 -26.000000 -1.509380E-01
-2.000000 -28.000000 1.450441E+01
-2.000000 -30.000000 2.564173E+01
-2.000000 -32.000000 1.815093E+01
-2.000000 -34.000000 -7.871869E+00
-2.000000 -36.000000 -2.189266E+01
-2.000000 -38.000000 -1.977899E+01
-2.000000 -40.000000 -1.768285E+01
0.000000 40.000000 -2.052207E+01
0.000000 38.000000 -1.969757E+01
0.000000 36.000000 -1.950288E+01
0.000000 34.000000 -2.396253E+01
0.000000 32.000000 -3.018851E+01
0.000000 30.000000 -2.491616E+01
0.000000 28.000000 -6.525157E+00
0.000000 26.000000 8.351388E+00
0.000000 24.000000 7.385758E+00
0.000000 22.000000 -1.847184E+00
0.000000 20.000000 -6.633936E+00
0.000000 18.000000 3.647276E+00
0.000000 16.000000 2.150600E+01
0.000000 14.000000 2.919903E+01
0.000000 12.000000 1.675204E+01
0.000000 10.000000 -3.372011E-01
0.000000 8.000000 -5.455024E+00
0.000000 6.000000 -8.087349E-01
0.000000 4.000000 -1.801992E+00
0.000000 2.000000 -1.090289E+01
0.000000 0.000000 -1.331724E+01
0.000000 -2.000000 -6.755541E+00
0.000000 -4.000000 -5.182748E-01
0.000000 -6.000000 -4.424195E+00
0.000000 -8.000000 -1.769797E+01
0.000000 -10.000000 -3.339762E+01
0.000000 -12.000000 -3.497784E+01
0.000000 -14.000000 -2.478823E+01
0.000000 -16.000000 -1.894238E+01
0.000000 -18.000000 -2.741906E+01
0.000000 -20.000000 -3.635789E+01
0.000000 -22.000000 -3.797737E+01
0.000000 -24.000000 -3.040064E+01
0.000000 -26.000000 -1.530118E+01
0.000000 -28.000000 3.547660E+00
0.000000 -30.000000 1.690943E+01
0.000000 -32.000000 1.192419E+01
0.000000 -34.000000 -9.955545E+00
0.000000 -36.000000 -2.200828E+01
0.000000 -38.000000 -1.952113E+01
0.000000 -40.000000 -1.614314E+01
2.000000 40.000000 -1.875340E+01
2.000000 38.000000 -2.003659E+01
2.000000 36.000000 -2.205830E+01
2.000000 34.000000 -3.111477E+01
2.000000 32.000000 -4.194909E+01
2.000000 30.000000 -3.925757E+01
2.000000 28.000000 -2.344804E+01
2.000000 26.000000 -9.576691E+00
2.000000 24.000000 -1.149560E+01
2.000000 22.000000 -1.911178E+01
2.000000 20.000000 -2.127183E+01
2.000000 18.000000 -5.622667E+00
2.000000 16.000000 1.691084E+01
2.000000 14.000000 2.935084E+01
2.000000 12.000000 2.395238E+01
2.000000 10.000000 1.404387E+01
2.000000 8.000000 1.027792E+01
2.000000 6.000000 1.014870E+01
2.000000 4.000000 -1.305479E+00
2.000000 2.000000 -1.768867E+01
2.000000 0.000000 -2.290585E+01
2.000000 -2.000000 -1.367115E+01
2.000000 -4.000000 -1.201340E+00
2.000000 -6.000000 4.488468E+00
2.000000 -8.000000 -2.981772E-01
2.000000 -10.000000 -9.336093E+00
2.000000 -12.000000 -1.109045E+01
2.000000 -14.000000 -7.447907E+00
2.000000 -16.000000 -1.151673E+01
2.000000 -18.000000 -2.966607E+01
2.000000 -20.000000 -4.570476E+01
2.000000 -22.000000 -5.156896E+01
2.000000 -24.000000 -4.393652E+01
2.000000 -26.000000 -2.561069E+01
2.000000 -28.000000 -3.974154E+00
2.000000 -30.000000 1.225421E+01
2.000000 -32.000000 1.081735E+01
2.000000 -34.000000 -8.545143E+00
2.000000 -36.000000 -2.106359E+01
2.000000 -38.000000 -1.950575E+01
2.000000 -40.000000 -1.492897E+01
4.000000 40.000000 -1.511981E+01
4.000000 38.000000 -1.955374E+01
4.000000 36.000000 -2.527618E+01
4.000000 34.000000 -3.859554E+01
4.000000 32.000000 -5.136033E+01
4.000000 30.000000 -4.873328E+01
4.000000 28.000000 -3.392737E+01
4.000000 26.000000 -2.092155E+01
4.000000 24.000000 -2.356944E+01
4.000000 22.000000 -3.158778E+01
4.000000 20.000000 -3.542752E+01
4.000000 18.000000 -2.072769E+01
4.000000 16.000000 2.183363E+00
4.000000 14.000000 1.832323E+01
4.000000 12.000000 2.307732E+01
4.000000 10.000000 2.461167E+01
4.000000 8.000000 2.405796E+01
4.000000 6.000000 1.879490E+01
4.000000 4.000000 -3.911996E+00
4.000000 2.000000 -2.885632E+01
4.000000 0.000000 -3.661028E+01
4.000000 -2.000000 -2.326565E+01
4.000000 -4.000000 -3.826728E+00
4.000000 -6.000000 8.522038E+00
4.000000 -8.000000 9.969655E+00
4.000000 -10.000000 8.858048E+00
4.000000 -12.000000 1.085508E+01
4.000000 -14.000000 1.158375E+01
4.000000 -16.000000 1.953986E+00
4.000000 -18.000000 -2.054405E+01
4.000000 -20.000000 -4.022604E+01
4.000000 -22.000000 -5.013338E+01
4.000000 -24.000000 -4.603439E+01
4.000000 -26.000000 -2.948928E+01
4.000000 -28.000000 -6.798885E+00
4.000000 -30.000000 1.275994E+01
4.000000 -32.000000 1.501320E+01
4.000000 -34.000000 -3.870218E+00
4.000000 -36.000000 -1.908452E+01
4.000000 -38.000000 -1.886857E+01
4.000000 -40.000000 -1.366000E+01
6.000000 40.000000 -1.197100E+01
6.000000 38.000000 -1.911924E+01
6.000000 36.000000 -2.751956E+01
6.000000 34.000000 -4.219216E+01
6.000000 32.000000 -5.502187E+01
6.000000 30.000000 -5.093165E+01
6.000000 28.000000 -3.410347E+01
6.000000 26.000000 -1.978662E+01
6.000000 24.000000 -2.225520E+01
6.000000 22.000000 -3.284266E+01
6.000000 20.000000 -4.160184E+01
6.000000 18.000000 -3.435469E+01
6.000000 16.000000 -1.636839E+01
6.000000 14.000000 8.764620E-01
6.000000 12.000000 1.400396E+01
6.000000 10.000000 2.610463E+01
6.000000 8.000000 3.039525E+01
6.000000 6.000000 2.141751E+01
6.000000 4.000000 -9.782509E+00
6.000000 2.000000 -4.253844E+01
6.000000 0.000000 -5.217059E+01
6.000000 -2.000000 -3.224181E+01
6.000000 -4.000000 -3.818135E+00
6.000000 -6.000000 1.281869E+01
6.000000 -8.000000 1.476538E+01
6.000000 -10.000000 1.690681E+01
6.000000 -12.000000 2.246690E+01
6.000000 -14.000000 2.381578E+01
6.000000 -16.000000 1.208353E+01
6.000000 -18.000000 -9.771517E+00
6.000000 -20.000000 -2.762998E+01
6.000000 -22.000000 -3.842354E+01
6.000000 -24.000000 -3.784504E+01
6.000000 -26.000000 -2.550582E+01
6.000000 -28.000000 -2.972347E+00
6.000000 -30.000000 1.940039E+01
6.000000 -32.000000 2.383955E+01
6.000000 -34.000000 4.333428E+00
6.000000 -36.000000 -1.386995E+01
6.000000 -38.000000 -1.637020E+01
6.000000 -40.000000 -1.268567E+01
8.000000 40.000000 -9.688891E+00
8.000000 38.000000 -1.676992E+01
8.000000 36.000000 -2.595329E+01
8.000000 34.000000 -3.968469E+01
8.000000 32.000000 -5.081971E+01
8.000000 30.000000 -4.451429E+01
8.000000 28.000000 -2.495980E+01
8.000000 26.000000 -8.292441E+00
8.000000 24.000000 -8.951182E+00
8.000000 22.000000 -2.179285E+01
8.000000 20.000000 -3.592517E+01
8.000000 18.000000 -3.986679E+01
8.000000 16.000000 -3.049065E+01
8.000000 14.000000 -1.479654E+01
8.000000 12.000000 3.905676E+00
8.000000 10.000000 2.297405E+01
8.000000 8.000000 3.124388E+01
8.000000 6.000000 1.983278E+01
8.000000 4.000000 -1.913421E+01
8.000000 2.000000 -5.929095E+01
8.000000 0.000000 -6.943937E+01
8.000000 -2.000000 -4.265951E+01
8.000000 -4.000000 -4.414002E+00
8.000000 -6.000000 1.726350E+01
8.000000 -8.000000 1.818829E+01
8.000000 -10.000000 1.720572E+01
8.000000 -12.000000 2.123660E+01
8.000000 -14.000000 2.333796E+01
8.000000 -16.000000 1.364264E+01
8.000000 -18.000000 -4.970520E+00
8.000000 -20.000000 -1.809414E+01
8.000000 -22.000000 -2.675385E+01
8.000000 -24.000000 -2.720855E+01
8.000000 -26.000000 -1.587402E+01
8.000000 -28.000000 6.672418E+00
8.000000 -30.000000 2.999088E+01
8.000000 -32.000000 3.447904E+01
8.000000 -34.000000 1.444946E+01
8.000000 -36.000000 -5.336947E+00
8.000000 -38.000000 -1.106832E+01
8.000000 -40.000000 -9.725660E+00
10.000000 40.000000 -9.137348E+00
10.000000 38.000000 -1.241085E+01
10.000000 36.000000 -1.902860E+01
10.000000 34.000000 -3.045528E+01
10.000000 32.000000 -3.906853E+01
10.000000 30.000000 -3.141501E+01
10.000000 28.000000 -1.066858E+01
10.000000 26.000000 7.332185E+00
10.000000 24.000000 9.452721E+00
10.000000 22.000000 -2.821680E+00
10.000000 20.000000 -1.927611E+01
10.000000 18.000000 -3.175040E+01
10.000000 16.000000 -3.029521E+01
10.000000 14.000000 -1.673251E+01
10.000000 12.000000 3.675264E+00
10.000000 10.000000 2.406375E+01
10.000000 8.000000 3.182504E+01
10.000000 6.000000 1.543543E+01
10.000000 4.000000 -3.319019E+01
10.000000 2.000000 -7.941681E+01
10.000000 0.000000 -8.995809E+01
10.000000 -2.000000 -5.836815E+01
10.000000 -4.000000 -1.157573E+01
10.000000 -6.000000 1.580527E+01
10.000000 -8.000000 1.708743E+01
10.000000 -10.000000 1.193372E+01
10.000000 -12.000000 1.137007E+01
10.000000 -14.000000 1.122824E+01
10.000000 -16.000000 4.161485E+00
10.000000 -18.000000 -8.288301E+00
10.000000 -20.000000 -1.494714E+01
10.000000 -22.000000 -1.986830E+01
10.000000 -24.000000 -1.849756E+01
10.000000 -26.000000 -4.649050E+00
10.000000 -28.000000 1.866210E+01
10.000000 -30.000000 4.007911E+01
10.000000 -32.000000 4.249822E+01
10.000000 -34.000000 2.345736E+01
10.000000 -36.000000 4.536221E+00
10.000000 -38.000000 -3.318790E+00
10.000000 -40.000000 -3.051706E+00
12.000000 40.000000 -1.103667E+01
12.000000 38.000000 -8.365713E+00
12.000000 36.000000 -8.994805E+00
12.000000 34.000000 -1.625143E+01
12.000000 32.000000 -2.246491E+01
12.000000 30.000000 -1.502325E+01
12.000000 28.000000 5.818064E+00
12.000000 26.000000 2.464428E+01
12.000000 24.000000 2.913943E+01
12.000000 22.000000 1.836795E+01
12.000000 20.000000 3.134779E+00
12.000000 18.000000 -1.151049E+01
12.000000 16.000000 -1.516333E+01
12.000000 14.000000 -5.023196E+00
12.000000 12.000000 1.261710E+01
12.000000 10.000000 2.971963E+01
12.000000 8.000000 3.208821E+01
12.000000 6.000000 9.615328E+00
12.000000 4.000000 -4.614849E+01
12.000000 2.000000 -9.670927E+01
12.000000 0.000000 -1.091790E+02
12.000000 -2.000000 -7.613906E+01
12.000000 -4.000000 -2.432121E+01
12.000000 -6.000000 7.112374E+00
12.000000 -8.000000 8.784991E+00
12.000000 -10.000000 8.196545E-01
12.000000 -12.000000 -4.269400E+00
12.000000 -14.000000 -7.286100E+00
12.000000 -16.000000 -1.286119E+01
12.000000 -18.000000 -1.898662E+01
12.000000 -20.000000 -1.916522E+01
12.000000 -22.000000 -1.900157E+01
12.000000 -24.000000 -1.267793E+01
12.000000 -26.000000 5.132855E+00
12.000000 -28.000000 2.892757E+01
12.000000 -30.000000 4.672353E+01
12.000000 -32.000000 4.601569E+01
12.000000 -34.000000 2.989721E+01
12.000000 -36.000000 1.458566E+01
12.000000 -38.000000 6.647247E+00
12.000000 -40.000000 5.997254E+00
14.000000 40.000000 -1.421610E+01
14.000000 38.000000 -5.758311E+00
14.000000 36.000000 1.746464E-02
14.000000 34.000000 -1.771398E+00
14.000000 32.000000 -5.253390E+00
14.000000 30.000000 1.075253E+00
14.000000 28.000000 2.131189E+01
14.000000 26.000000 4.075390E+01
14.000000 24.000000 4.555114E+01
14.000000 22.000000 3.469452E+01
14.000000 20.000000 2.166260E+01
14.000000 18.000000 9.920637E+00
14.000000 16.000000 6.038847E+00
14.000000 14.000000 1.273270E+01
14.000000 12.000000 2.424011E+01
14.000000 10.000000 3.492214E+01
14.000000 8.000000 3.160939E+01
14.000000 6.000000 6.896740E+00
14.000000 4.000000 -4.886304E+01
14.000000 2.000000 -1.001248E+02
14.000000 0.000000 -1.149647E+02
14.000000 -2.000000 -8.701768E+01
14.000000 -4.000000 -4.150613E+01
14.000000 -6.000000 -1.203920E+01
14.000000 -8.000000 -1.026069E+01
14.000000 -10.000000 -1.861786E+01
14.000000 -12.000000 -2.364172E+01
14.000000 -14.000000 -2.475416E+01
14.000000 -16.000000 -2.702915E+01
14.000000 -18.000000 -2.966640E+01
14.000000 -20.000000 -2.732328E+01
14.000000 -22.000000 -2.317205E+01
14.000000 -24.000000 -1.082084E+01
14.000000 -26.000000 1.026412E+01
14.000000 -28.000000 3.349867E+01
14.000000 -30.000000 4.891342E+01
14.000000 -32.000000 4.680913E+01
14.000000 -34.000000 3.390200E+01
14.000000 -36.000000 2.295560E+01
14.000000 -38.000000 1.635191E+01
14.000000 -40.000000 1.440117E+01
16.000000 40.000000 -1.774228E+01
16.000000 38.000000 -5.569192E+00
16.000000 36.000000 4.582603E+00
16.000000 34.000000 8.724368E+00
16.000000 32.000000 8.479020E+00
16.000000 30.000000 1.410342E+01
16.000000 28.000000 3.282492E+01
16.000000 26.000000 5.128521E+01
16.000000 24.000000 5.511116E+01
16.000000 22.000000 4.296018E+01
16.000000 20.000000 3.072370E+01
16.000000 18.000000 2.331883E+01
16.000000 16.000000 2.242344E+01
16.000000 14.000000 2.672181E+01
16.000000 12.000000 3.138702E+01
16.000000 10.000000 3.477003E+01
16.000000 8.000000 2.747508E+01
16.000000 6.000000 5.290880E+00
16.000000 4.000000 -4.066790E+01
16.000000 2.000000 -8.466246E+01
16.000000 0.000000 -9.962254E+01
16.000000 -2.000000 -8.267567E+01
16.000000 -4.000000 -5.497462E+01
16.000000 -6.000000 -3.834464E+01
16.000000 -8.000000 -3.998521E+01
16.000000 -10.000000 -4.604582E+01
16.000000 -12.000000 -4.324226E+01
16.000000 -14.000000 -3.634833E+01
16.000000 -16.000000 -3.298693E+01
16.000000 -18.000000 -3.375438E+01
16.000000 -20.000000 -3.305061E+01
16.000000 -22.000000 -2.884401E+01
16.000000 -24.000000 -1.429356E+01
16.000000 -26.000000 7.620730E+00
16.000000 -28.000000 3.099362E+01
16.000000 -30.000000 4.661935E+01
16.000000 -32.000000 4.628349E+01
16.000000 -34.000000 3.604232E+01
16.000000 -36.000000 2.783227E+01
16.000000 -38.000000 2.215295E+01
16.000000 -40.000000 1.909845E+01
18.000000 40.000000 -2.256625E+01
18.000000 38.000000 -9.018161E+00
18.000000 36.000000 3.687468E+00
18.000000 34.000000 1.291971E+01
18.000000 32.000000 1.606673E+01
18.000000 30.000000 2.228805E+01
18.000000 28.000000 3.915278E+01
18.000000 26.000000 5.561016E+01
18.000000 24.000000 5.838808E+01
18.000000 22.000000 4.571065E+01
18.000000 20.000000 3.372613E+01
18.000000 18.000000 2.880488E+01
18.000000 16.000000 3.087832E+01
18.000000 14.000000 3.441357E+01
18.000000 12.000000 3.266252E+01
18.000000 10.000000 2.700922E+01
18.000000 8.000000 1.485780E+01
18.000000 6.000000 -3.596628E+00
18.000000 4.000000 -3.331230E+01
18.000000 2.000000 -6.150366E+01
18.000000 0.000000 -7.185180E+01
18.000000 -2.000000 -6.567958E+01
18.000000 -4.000000 -5.767184E+01
18.000000 -6.000000 -6.144508E+01
18.000000 -8.000000 -7.133595E+01
18.000000 -10.000000 -7.492735E+01
18.000000 -12.000000 -5.981946E+01
18.000000 -14.000000 -4.110789E+01
18.000000 -16.000000 -3.090420E+01
18.000000 -18.000000 -3.079330E+01
18.000000 -20.000000 -3.345821E+01
18.000000 -22.000000 -3.306820E+01
18.000000 -24.000000 -2.145979E+01
18.000000 -26.000000 -1.192907E+00
18.000000 -28.000000 2.246771E+01
18.000000 -30.000000 3.938258E+01
18.000000 -32.000000 4.126355E+01
18.000000 -34.000000 3.331209E+01
18.000000 -36.000000 2.752309E+01
18.000000 -38.000000 2.311241E+01
18.000000 -40.000000 1.960980E+01
20.000000 40.000000 -2.979141E+01
20.000000 38.000000 -1.625408E+01
20.000000 36.000000 -2.192923E+00
20.000000 34.000000 9.948138E+00
20.000000 32.000000 1.614323E+01
20.000000 30.000000 2.402661E+01
20.000000 28.000000 4.008988E+01
20.000000 26.000000 5.543517E+01
20.000000 24.000000 5.735850E+01
20.000000 22.000000 4.513622E+01
20.000000 20.000000 3.462797E+01
20.000000 18.000000 3.169676E+01
20.000000 16.000000 3.693252E+01
20.000000 14.000000 4.110575E+01
20.000000 12.000000 3.350084E+01
20.000000 10.000000 1.729889E+01
20.000000 8.000000 -2.184902E+00
20.000000 6.000000 -2.040679E+01
20.000000 4.000000 -3.700034E+01
20.000000 2.000000 -5.000512E+01
20.000000 0.000000 -5.336317E+01
20.000000 -2.000000 -5.182555E+01
20.000000 -4.000000 -5.576524E+01
20.000000 -6.000000 -7.420075E+01
20.000000 -8.000000 -9.008456E+01
20.000000 -10.000000 -9.147226E+01
20.000000 -12.000000 -6.494325E+01
20.000000 -14.000000 -3.652555E+01
20.000000 -16.000000 -2.332384E+01
20.000000 -18.000000 -2.637903E+01
20.000000 -20.000000 -3.326787E+01
20.000000 -22.000000 -3.783813E+01
20.000000 -24.000000 -3.026109E+01
20.000000 -26.000000 -1.222842E+01
20.000000 -28.000000 9.262917E+00
20.000000 -30.000000 2.620628E+01
20.000000 -32.000000 2.813522E+01
20.000000 -34.000000 2.231411E+01
20.000000 -36.000000 2.063005E+01
20.000000 -38.000000 1.934065E+01
20.000000 -40.000000 1.722034E+01
22.000000 40.000000 -3.889457E+01
22.000000 38.000000 -2.646587E+01
22.000000 36.000000 -1.252142E+01
22.000000 34.000000 4.530115E-01
22.000000 32.000000 8.663339E+00
22.000000 30.000000 1.886427E+01
22.000000 28.000000 3.615186E+01
22.000000 26.000000 5.099977E+01
22.000000 24.000000 5.113494E+01
22.000000 22.000000 3.816756E+01
22.000000 20.000000 3.001850E+01
22.000000 18.000000 3.215443E+01
22.000000 16.000000 4.319004E+01
22.000000 14.000000 5.205485E+01
22.000000 12.000000 4.217519E+01
22.000000 10.000000 1.610253E+01
22.000000 8.000000 -1.321676E+01
22.000000 6.000000 -3.603254E+01
22.000000 4.000000 -4.810754E+01
22.000000 2.000000 -5.400896E+01
22.000000 0.000000 -5.359475E+01
22.000000 -2.000000 -5.083657E+01
22.000000 -4.000000 -5.638089E+01
22.000000 -6.000000 -7.577201E+01
22.000000 -8.000000 -8.912467E+01
22.000000 -10.000000 -8.658033E+01
22.000000 -12.000000 -5.319072E+01
22.000000 -14.000000 -1.991068E+01
22.000000 -16.000000 -1.195972E+01
22.000000 -18.000000 -2.552272E+01
22.000000 -20.000000 -4.035606E+01
22.000000 -22.000000 -5.057937E+01
22.000000 -24.000000 -4.588945E+01
22.000000 -26.000000 -2.867231E+01
22.000000 -28.000000 -9.126775E+00
22.000000 -30.000000 7.336364E+00
22.000000 -32.000000 9.122594E+00
22.000000 -34.000000 5.517309E+00
22.000000 -36.000000 7.635124E+00
22.000000 -38.000000 1.078230E+01
22.000000 -40.000000 1.312055E+01
24.000000 40.000000 -4.868751E+01
24.000000 38.000000 -3.826365E+01
24.000000 36.000000 -2.500466E+01
24.000000 34.000000 -1.183231E+01
24.000000 32.000000 -2.827682E+00
24.000000 30.000000 8.898905E+00
24.000000 28.000000 2.806554E+01
24.000000 26.000000 4.223996E+01
24.000000 24.000000 3.735467E+01
24.000000 22.000000 2.085370E+01
24.000000 20.000000 1.295439E+01
24.000000 18.000000 2.073478E+01
24.000000 16.000000 4.082519E+01
24.000000 14.000000 5.843876E+01
24.000000 12.000000 5.204719E+01
24.000000 10.000000 2.404865E+01
24.000000 8.000000 -1.001249E+01
24.000000 6.000000 -3.550427E+01
24.000000 4.000000 -4.816707E+01
24.000000 2.000000 -5.460037E+01
24.000000 0.000000 -5.521373E+01
24.000000 -2.000000 -5.035640E+01
24.000000 -4.000000 -5.263422E+01
24.000000 -6.000000 -6.564830E+01
24.000000 -8.000000 -7.384782E+01
24.000000 -10.000000 -6.618451E+01
24.000000 -12.000000 -3.216090E+01
24.000000 -14.000000 -4.441071E-01
24.000000 -16.000000 -2.082819E+00
24.000000 -18.000000 -3.119524E+01
24.000000 -20.000000 -5.841702E+01
24.000000 -22.000000 -7.457271E+01
24.000000 -24.000000 -7.052345E+01
24.000000 -26.000000 -5.184769E+01
24.000000 -28.000000 -3.185907E+01
24.000000 -30.000000 -1.499251E+01
24.000000 -32.000000 -1.257563E+01
24.000000 -34.000000 -1.491528E+01
24.000000 -36.000000 -1.014972E+01
24.000000 -38.000000 -3.625021E-01
24.000000 -40.000000 9.662556E+00
26.000000 40.000000 -5.752489E+01
26.000000 38.000000 -5.010687E+01
26.000000 36.000000 -3.752287E+01
26.000000 34.000000 -2.281197E+01
26.000000 32.000000 -1.244122E+01
26.000000 30.000000 -7.063227E-01
26.000000 28.000000 1.678741E+01
26.000000 26.000000 2.722828E+01
26.000000 24.000000 1.507793E+01
26.000000 22.000000 -6.129103E+00
26.000000 20.000000 -1.601913E+01
26.000000 18.000000 -4.363952E+00
26.000000 16.000000 2.470148E+01
26.000000 14.000000 5.160184E+01
26.000000 12.000000 5.410726E+01
26.000000 10.000000 3.385882E+01
26.000000 8.000000 5.088278E+00
26.000000 6.000000 -1.602505E+01
26.000000 4.000000 -2.875166E+01
26.000000 2.000000 -3.854341E+01
26.000000 0.000000 -4.186844E+01
26.000000 -2.000000 -3.704239E+01
26.000000 -4.000000 -3.548147E+01
26.000000 -6.000000 -4.314846E+01
26.000000 -8.000000 -5.036637E+01
26.000000 -10.000000 -4.294980E+01
26.000000 -12.000000 -1.555577E+01
26.000000 -14.000000 8.564520E+00
26.000000 -16.000000 -2.533104E+00
26.000000 -18.000000 -4.652211E+01
26.000000 -20.000000 -8.457560E+01
26.000000 -22.000000 -1.034831E+02
26.000000 -24.000000 -9.729657E+01
26.000000 -26.000000 -7.463539E+01
26.000000 -28.000000 -5.293553E+01
26.000000 -30.000000 -3.667896E+01
26.000000 -32.000000 -3.490881E+01
26.000000 -34.000000 -3.704922E+01
26.000000 -36.000000 -2.893053E+01
26.000000 -38.000000 -1.019830E+01
26.000000 -40.000000 8.109421E+00
28.000000 40.000000 -6.390904E+01
28.000000 38.000000 -5.968748E+01
28.000000 36.000000 -4.780421E+01
28.000000 34.000000 -3.040017E+01
28.000000 32.000000 -1.850091E+01
28.000000 30.000000 -8.250052E+00
28.000000 28.000000 2.986282E+00
28.000000 26.000000 6.602222E+00
28.000000 24.000000 -1.223480E+01
28.000000 22.000000 -3.556190E+01
28.000000 20.000000 -4.545149E+01
28.000000 18.000000 -2.937604E+01
28.000000 16.000000 6.082884E+00
28.000000 14.000000 3.953192E+01
28.000000 12.000000 5.205376E+01
28.000000 10.000000 4.272417E+01
28.000000 8.000000 2.305485E+01
28.000000 6.000000 8.826096E+00
28.000000 4.000000 -4.341890E+00
28.000000 2.000000 -1.682356E+01
28.000000 0.000000 -1.990351E+01
28.000000 -2.000000 -1.387422E+01
28.000000 -4.000000 -8.971706E+00
28.000000 -6.000000 -1.687677E+01
28.000000 -8.000000 -2.826939E+01
28.000000 -10.000000 -2.706004E+01
28.000000 -12.000000 -1.131591E+01
28.000000 -14.000000 8.682346E-01
28.000000 -16.000000 -1.960852E+01
28.000000 -18.000000 -6.929480E+01
28.000000 -20.000000 -1.095428E+02
28.000000 -22.000000 -1.264921E+02
28.000000 -24.000000 -1.155468E+02
28.000000 -26.000000 -8.790945E+01
28.000000 -28.000000 -6.464373E+01
28.000000 -30.000000 -5.097100E+01
28.000000 -32.000000 -5.144778E+01
28.000000 -34.000000 -5.386503E+01
28.000000 -36.000000 -4.263741E+01
28.000000 -38.000000 -1.715576E+01
28.000000 -40.000000 6.371196E+00
30.000000 40.000000 -6.749352E+01
30.000000 38.000000 -6.441344E+01
30.000000 36.000000 -5.171563E+01
30.000000 34.000000 -3.313494E+01
30.000000 32.000000 -2.273414E+01
30.000000 30.000000 -1.640316E+01
30.000000 28.000000 -1.175507E+01
30.000000 26.000000 -1.337505E+01
30.000000 24.000000 -3.633102E+01
30.000000 22.000000 -5.825688E+01
30.000000 20.000000 -6.512277E+01
30.000000 18.000000 -4.374713E+01
30.000000 16.000000 -2.898180E+00
30.000000 14.000000 3.534735E+01
30.000000 12.000000 5.528175E+01
30.000000 10.000000 5.432350E+01
30.000000 8.000000 3.851075E+01
30.000000 6.000000 2.465151E+01
30.000000 4.000000 7.850031E+00
30.000000 2.000000 -6.286122E+00
30.000000 0.000000 -6.195983E+00
30.000000 -2.000000 3.157377E+00
30.000000 -4.000000 1.097683E+01
30.000000 -6.000000 6.791496E-01
30.000000 -8.000000 -1.728043E+01
30.000000 -10.000000 -2.556510E+01
30.000000 -12.000000 -2.120372E+01
30.000000 -14.000000 -1.931082E+01
30.000000 -16.000000 -4.404593E+01
30.000000 -18.000000 -8.964936E+01
30.000000 -20.000000 -1.252429E+02
30.000000 -22.000000 -1.356291E+02
30.000000 -24.000000 -1.166320E+02
30.000000 -26.000000 -8.561438E+01
30.000000 -28.000000 -6.297192E+01
30.000000 -30.000000 -5.261931E+01
30.000000 -32.000000 -5.627337E+01
30.000000 -34.000000 -6.026443E+01
30.000000 -36.000000 -4.775778E+01
30.000000 -38.000000 -2.081739E+01
30.000000 -40.000000 3.264240E+00
32.000000 40.000000 -6.868246E+01
32.000000 38.000000 -6.388706E+01
32.000000 36.000000 -4.946505E+01
32.000000 34.000000 -3.199452E+01
32.000000 32.000000 -2.495782E+01
32.000000 30.000000 -2.272737E+01
32.000000 28.000000 -2.205449E+01
32.000000 26.000000 -2.472205E+01
32.000000 24.000000 -4.752470E+01
32.000000 22.000000 -6.643706E+01
32.000000 20.000000 -6.930729E+01
32.000000 18.000000 -4.399887E+01
32.000000 16.000000 9.673939E-01
32.000000 14.000000 4.370840E+01
32.000000 12.000000 6.751694E+01
32.000000 10.000000 6.829763E+01
32.000000 8.000000 4.573367E+01
32.000000 6.000000 2.007935E+01
32.000000 4.000000 -2.601534E+00
32.000000 2.000000 -1.513505E+01
32.000000 0.000000 -1.087720E+01
32.000000 -2.000000 2.257936E+00
32.000000 -4.000000 1.214760E+01
32.000000 -6.000000 9.551601E-01
32.000000 -8.000000 -2.145249E+01
32.000000 -10.000000 -3.858589E+01
32.000000 -12.000000 -4.153712E+01
32.000000 -14.000000 -4.292401E+01
32.000000 -16.000000 -6.219327E+01
32.000000 -18.000000 -9.774549E+01
32.000000 -20.000000 -1.239182E+02
32.000000 -22.000000 -1.254012E+02
32.000000 -24.000000 -9.945901E+01
32.000000 -26.000000 -6.747676E+01
32.000000 -28.000000 -4.776837E+01
32.000000 -30.000000 -4.111714E+01
32.000000 -32.000000 -4.921380E+01
32.000000 -34.000000 -5.714890E+01
32.000000 -36.000000 -4.612985E+01
32.000000 -38.000000 -2.119769E+01
32.000000 -40.000000 1.605101E-01
34.000000 40.000000 -6.783979E+01
34.000000 38.000000 -6.025721E+01
34.000000 36.000000 -4.490699E+01
34.000000 34.000000 -2.880760E+01
34.000000 32.000000 -2.359359E+01
34.000000 30.000000 -2.341829E+01
34.000000 28.000000 -2.283767E+01
34.000000 26.000000 -2.287540E+01
34.000000 24.000000 -4.176486E+01
34.000000 22.000000 -5.922590E+01
34.000000 20.000000 -6.018350E+01
34.000000 18.000000 -3.330312E+01
34.000000 16.000000 1.393532E+01
34.000000 14.000000 6.040133E+01
34.000000 12.000000 8.510882E+01
34.000000 10.000000 8.108008E+01
34.000000 8.000000 4.444585E+01
34.000000 6.000000 6.160622E-01
34.000000 4.000000 -3.345020E+01
34.000000 2.000000 -4.533953E+01
34.000000 0.000000 -3.670535E+01
34.000000 -2.000000 -1.802543E+01
34.000000 -4.000000 -3.972244E+00
34.000000 -6.000000 -1.204976E+01
34.000000 -8.000000 -3.361471E+01
34.000000 -10.000000 -5.467043E+01
34.000000 -12.000000 -6.133314E+01
34.000000 -14.000000 -6.172709E+01
34.000000 -16.000000 -7.130236E+01
34.000000 -18.000000 -9.282341E+01
34.000000 -20.000000 -1.061506E+02
34.000000 -22.000000 -1.004853E+02
34.000000 -24.000000 -7.259624E+01
34.000000 -26.000000 -4.168198E+01
34.000000 -28.000000 -2.461902E+01
34.000000 -30.000000 -2.003841E+01
34.000000 -32.000000 -3.216100E+01
34.000000 -34.000000 -4.502244E+01
34.000000 -36.000000 -3.916614E+01
34.000000 -38.000000 -1.917318E+01
34.000000 -40.000000 -2.534953E+00
36.000000 40.000000 -6.591376E+01
36.000000 38.000000 -5.588837E+01
36.000000 36.000000 -3.934696E+01
36.000000 34.000000 -2.255165E+01
36.000000 32.000000 -1.739452E+01
36.000000 30.000000 -1.713252E+01
36.000000 28.000000 -1.363178E+01
36.000000 26.000000 -1.001139E+01
36.000000 24.000000 -2.424996E+01
36.000000 22.000000 -4.393090E+01
36.000000 20.000000 -4.734664E+01
36.000000 18.000000 -2.236005E+01
36.000000 16.000000 2.465823E+01
36.000000 14.000000 7.323769E+01
36.000000 12.000000 9.763864E+01
36.000000 10.000000 8.764907E+01
36.000000 8.000000 3.951283E+01
36.000000 6.000000 -1.724056E+01
36.000000 4.000000 -6.453567E+01
36.000000 2.000000 -8.065978E+01
36.000000 0.000000 -7.028868E+01
36.000000 -2.000000 -4.644622E+01
36.000000 -4.000000 -2.695721E+01
36.000000 -6.000000 -2.820615E+01
36.000000 -8.000000 -4.375097E+01
36.000000 -10.000000 -6.287574E+01
36.000000 -12.000000 -6.963553E+01
36.000000 -14.000000 -6.836213E+01
36.000000 -16.000000 -7.064360E+01
36.000000 -18.000000 -8.008994E+01
36.000000 -20.000000 -8.428262E+01
36.000000 -22.000000 -7.587482E+01
36.000000 -24.000000 -5.018808E+01
36.000000 -26.000000 -2.211134E+01
36.000000 -28.000000 -5.054996E+00
36.000000 -30.000000 2.133480E+00
36.000000 -32.000000 -9.698741E+00
36.000000 -34.000000 -2.577743E+01
36.000000 -36.000000 -2.696791E+01
36.000000 -38.000000 -1.470668E+01
36.000000 -40.000000 -3.762228E+00
38.000000 40.000000 -6.282578E+01
38.000000 38.000000 -5.067824E+01
38.000000 36.000000 -3.260268E+01
38.000000 34.000000 -1.441486E+01
38.000000 32.000000 -8.240750E+00
38.000000 30.000000 -5.986410E+00
38.000000 28.000000 5.345106E-01
38.000000 26.000000 6.087342E+00
38.000000 24.000000 -5.956677E+00
38.000000 22.000000 -2.951695E+01
38.000000 20.000000 -3.854380E+01
38.000000 18.000000 -1.994401E+01
38.000000 16.000000 2.267994E+01
38.000000 14.000000 6.979938E+01
38.000000 12.000000 9.450040E+01
38.000000 10.000000 8.363976E+01
38.000000 8.000000 3.362129E+01
38.000000 6.000000 -2.600013E+01
38.000000 4.000000 -7.884617E+01
38.000000 2.000000 -9.888465E+01
38.000000 0.000000 -8.883965E+01
38.000000 -2.000000 -6.184294E+01
38.000000 -4.000000 -3.978906E+01
38.000000 -6.000000 -3.618008E+01
38.000000 -8.000000 -4.501946E+01
38.000000 -10.000000 -5.816369E+01
38.000000 -12.000000 -6.336791E+01
38.000000 -14.000000 -6.222642E+01
38.000000 -16.000000 -6.277379E+01
38.000000 -18.000000 -6.770137E+01
38.000000 -20.000000 -6.990970E+01
38.000000 -22.000000 -6.327877E+01
38.000000 -24.000000 -4.089424E+01
38.000000 -26.000000 -1.534162E+01
38.000000 -28.000000 4.031607E+00
38.000000 -30.000000 1.660897E+01
38.000000 -32.000000 9.499804E+00
38.000000 -34.000000 -6.643399E+00
38.000000 -36.000000 -1.272222E+01
38.000000 -38.000000 -7.791900E+00
38.000000 -40.000000 -1.614485E+00
40.000000 40.000000 -5.664364E+01
40.000000 38.000000 -4.321716E+01
40.000000 36.000000 -2.592228E+01
40.000000 34.000000 -8.750220E+00
40.000000 32.000000 -1.351617E+00
40.000000 30.000000 3.590466E+00
40.000000 28.000000 1.223709E+01
40.000000 26.000000 1.796752E+01
40.000000 24.000000 5.554523E+00
40.000000 22.000000 -2.133555E+01
40.000000 20.000000 -3.751780E+01
40.000000 18.000000 -2.963041E+01
40.000000 16.000000 4.289351E+00
40.000000 14.000000 4.711170E+01
40.000000 12.000000 7.421726E+01
40.000000 10.000000 7.052588E+01
40.000000 8.000000 3.112298E+01
40.000000 6.000000 -1.979812E+01
40.000000 4.000000 -6.817110E+01
40.000000 2.000000 -8.861917E+01
40.000000 0.000000 -8.059724E+01
40.000000 -2.000000 -5.535901E+01
40.000000 -4.000000 -3.556338E+01
40.000000 -6.000000 -3.225490E+01
40.000000 -8.000000 -3.775965E+01
40.000000 -10.000000 -4.463703E+01
40.000000 -12.000000 -4.758560E+01
40.000000 -14.000000 -4.822454E+01
40.000000 -16.000000 -5.246122E+01
40.000000 -18.000000 -6.043620E+01
40.000000 -20.000000 -6.550865E+01
40.000000 -22.000000 -6.226536E+01
40.000000 -24.000000 -4.291994E+01
40.000000 -26.000000 -1.819084E+01
40.000000 -28.000000 3.945185E+00
40.000000 -30.000000 1.996806E+01
40.000000 -32.000000 1.800556E+01
40.000000 -34.000000 5.543173E+00
40.000000 -36.000000 -5.566177E-01
40.000000 -38.000000 1.474199E-01
40.000000 -40.000000 3.106135E+00
42.000000 40.000000 -4.660705E+01
42.000000 38.000000 -3.394742E+01
42.000000 36.000000 -2.023847E+01
42.000000 34.000000 -6.893468E+00
42.000000 32.000000 -1.990852E-01
42.000000 30.000000 5.425151E+00
42.000000 28.000000 1.504334E+01
42.000000 26.000000 2.083979E+01
42.000000 24.000000 7.066949E+00
42.000000 22.000000 -2.170776E+01
42.000000 20.000000 -4.327326E+01
42.000000 18.000000 -4.441750E+01
42.000000 16.000000 -1.864419E+01
42.000000 14.000000 1.794865E+01
42.000000 12.000000 4.716022E+01
42.000000 10.000000 5.423720E+01
42.000000 8.000000 3.202275E+01
42.000000 6.000000 -4.008155E+00
42.000000 4.000000 -4.147733E+01
42.000000 2.000000 -5.865126E+01
42.000000 0.000000 -5.281946E+01
42.000000 -2.000000 -3.391413E+01
42.000000 -4.000000 -1.965115E+01
42.000000 -6.000000 -1.968370E+01
42.000000 -8.000000 -2.606363E+01
42.000000 -10.000000 -2.965297E+01
42.000000 -12.000000 -2.978940E+01
42.000000 -14.000000 -3.229953E+01
42.000000 -16.000000 -4.191284E+01
42.000000 -18.000000 -5.624833E+01
42.000000 -20.000000 -6.518757E+01
42.000000 -22.000000 -6.488479E+01
42.000000 -24.000000 -4.881350E+01
42.000000 -26.000000 -2.498080E+01
42.000000 -28.000000 -1.650082E+00
42.000000 -30.000000 1.514174E+01
42.000000 -32.000000 1.629431E+01
42.000000 -34.000000 8.666327E+00
42.000000 -36.000000 6.280601E+00
42.000000 -38.000000 6.115570E+00
42.000000 -40.000000 7.792890E+00
44.000000 40.000000 -3.486268E+01
44.000000 38.000000 -2.500725E+01
44.000000 36.000000 -1.592620E+01
44.000000 34.000000 -8.190263E+00
44.000000 32.000000 -4.758435E+00
44.000000 30.000000 -1.727729E-01
44.000000 28.000000 9.671969E+00
44.000000 26.000000 1.610417E+01
44.000000 24.000000 2.364478E+00
44.000000 22.000000 -2.546097E+01
44.000000 20.000000 -4.806949E+01
44.000000 18.000000 -5.255896E+01
44.000000 16.000000 -3.235384E+01
44.000000 14.000000 -2.575445E+00
44.000000 12.000000 2.517135E+01
44.000000 10.000000 3.902533E+01
44.000000 8.000000 3.312640E+01
44.000000 6.000000 1.303909E+01
44.000000 4.000000 -1.409679E+01
44.000000 2.000000 -2.933797E+01
44.000000 0.000000 -2.609504E+01
44.000000 -2.000000 -1.349650E+01
44.000000 -4.000000 -4.016950E+00
44.000000 -6.000000 -7.648118E+00
44.000000 -8.000000 -1.593072E+01
44.000000 -10.000000 -1.753114E+01
44.000000 -12.000000 -1.556068E+01
44.000000 -14.000000 -1.897043E+01
44.000000 -16.000000 -3.172398E+01
44.000000 -18.000000 -5.015880E+01
44.000000 -20.000000 -6.088266E+01
44.000000 -22.000000 -6.245684E+01
44.000000 -24.000000 -5.046185E+01
44.000000 -26.000000 -2.933943E+01
44.000000 -28.000000 -7.486705E+00
44.000000 -30.000000 7.125713E+00
44.000000 -32.000000 8.492044E+00
44.000000 -34.000000 3.390373E+00
44.000000 -36.000000 4.866178E+00
44.000000 -38.000000 7.169446E+00
44.000000 -40.000000 1.072871E+01
46.000000 40.000000 -2.396229E+01
46.000000 38.000000 -1.737007E+01
46.000000 36.000000 -1.353804E+01
46.000000 34.000000 -1.319056E+01
46.000000 32.000000 -1.470276E+01
46.000000 30.000000 -9.714281E+00
46.000000 28.000000 3.286842E+00
46.000000 26.000000 1.214995E+01
46.000000 24.000000 1.760812E-01
46.000000 22.000000 -2.386069E+01
46.000000 20.000000 -4.266563E+01
46.000000 18.000000 -4.430273E+01
46.000000 16.000000 -2.756705E+01
46.000000 14.000000 -5.517382E+00
46.000000 12.000000 1.431584E+01
46.000000 10.000000 2.659006E+01
46.000000 8.000000 2.970933E+01
46.000000 6.000000 2.171513E+01
46.000000 4.000000 1.866872E+00
46.000000 2.000000 -1.530404E+01
46.000000 0.000000 -1.759695E+01
46.000000 -2.000000 -9.748993E+00
46.000000 -4.000000 -1.693515E+00
46.000000 -6.000000 -5.229653E+00
46.000000 -8.000000 -1.206663E+01
46.000000 -10.000000 -1.120424E+01
46.000000 -12.000000 -7.482039E+00
46.000000 -14.000000 -8.829675E+00
46.000000 -16.000000 -2.021299E+01
46.000000 -18.000000 -3.750383E+01
46.000000 -20.000000 -4.846834E+01
46.000000 -22.000000 -5.295184E+01
46.000000 -24.000000 -4.592781E+01
46.000000 -26.000000 -2.784992E+01
46.000000 -28.000000 -9.518427E+00
46.000000 -30.000000 7.478790E-01
46.000000 -32.000000 -1.367677E+00
46.000000 -34.000000 -7.651513E+00
46.000000 -36.000000 -4.399489E+00
46.000000 -38.000000 2.848280E+00
46.000000 -40.000000 1.149594E+01
48.000000 40.000000 -1.497135E+01
48.000000 38.000000 -1.073564E+01
48.000000 36.000000 -1.223672E+01
48.000000 34.000000 -2.033832E+01
48.000000 32.000000 -2.744707E+01
48.000000 30.000000 -2.041420E+01
48.000000 28.000000 -1.300871E-01
48.000000 26.000000 1.497584E+01
48.000000 24.000000 7.134327E+00
48.000000 22.000000 -1.136349E+01
48.000000 20.000000 -2.455855E+01
48.000000 18.000000 -2.213720E+01
48.000000 16.000000 -7.892398E+00
48.000000 14.000000 6.930430E+00
48.000000 12.000000 1.602464E+01
48.000000 10.000000 2.037062E+01
48.000000 8.000000 2.071613E+01
48.000000 6.000000 1.534405E+01
48.000000 4.000000 -1.881754E+00
48.000000 2.000000 -2.155211E+01
48.000000 0.000000 -2.794357E+01
48.000000 -2.000000 -2.182112E+01
48.000000 -4.000000 -1.248268E+01
48.000000 -6.000000 -1.127841E+01
48.000000 -8.000000 -1.268072E+01
48.000000 -10.000000 -1.016475E+01
48.000000 -12.000000 -5.205180E+00
48.000000 -14.000000 -1.658754E+00
48.000000 -16.000000 -6.323193E+00
48.000000 -18.000000 -1.900888E+01
48.000000 -20.000000 -3.167093E+01
48.000000 -22.000000 -4.264953E+01
48.000000 -24.000000 -4.041348E+01
48.000000 -26.000000 -2.376665E+01
48.000000 -28.000000 -8.524095E+00
48.000000 -30.000000 -1.882335E+00
48.000000 -32.000000 -9.419134E+00
48.000000 -34.000000 -1.925240E+01
48.000000 -36.000000 -1.541682E+01
48.000000 -38.000000 -3.568758E+00
48.000000 -40.000000 9.729623E+00
50.000000 40.000000 -8.636515E+00
50.000000 38.000000 -5.277723E+00
50.000000 36.000000 -1.036950E+01
50.000000 34.000000 -2.489673E+01
50.000000 32.000000 -3.611993E+01
50.000000 30.000000 -2.752817E+01
50.000000 28.000000 -1.340265E+00
50.000000 26.000000 2.085131E+01
50.000000 24.000000 2.036369E+01
50.000000 22.000000 8.625308E+00
50.000000 20.000000 1.077899E+00
50.000000 18.000000 5.789626E+00
50.000000 16.000000 1.666986E+01
50.000000 14.000000 2.468172E+01
50.000000 12.000000 2.428328E+01
50.000000 10.000000 1.958653E+01
50.000000 8.000000 1.080445E+01
50.000000 6.000000 1.172613E+00
50.000000 4.000000 -1.783026E+01
50.000000 2.000000 -3.828886E+01
50.000000 0.000000 -4.532675E+01
50.000000 -2.000000 -3.796353E+01
50.000000 -4.000000 -2.557671E+01
50.000000 -6.000000 -1.849050E+01
50.000000 -8.000000 -1.550048E+01
50.000000 -10.000000 -1.324922E+01
50.000000 -12.000000 -8.583402E+00
50.000000 -14.000000 -5.853224E-01
50.000000 -16.000000 4.058268E+00
50.000000 -18.000000 -3.560847E+00
50.000000 -20.000000 -1.990534E+01
50.000000 -22.000000 -3.700751E+01
50.000000 -24.000000 -3.725298E+01
50.000000 -26.000000 -2.101468E+01
50.000000 -28.000000 -5.989478E+00
50.000000 -30.000000 -1.596889E-01
50.000000 -32.000000 -1.216524E+01
50.000000 -34.000000 -2.718775E+01
50.000000 -36.000000 -2.438901E+01
50.000000 -38.000000 -9.883304E+00
50.000000 -40.000000 5.701026E+00
52.000000 40.000000 -5.337253E+00
52.000000 38.000000 -1.191826E+00
52.000000 36.000000 -7.380470E+00
52.000000 34.000000 -2.395079E+01
52.000000 32.000000 -3.656706E+01
52.000000 30.000000 -2.769926E+01
52.000000 28.000000 9.919194E-01
52.000000 26.000000 2.820603E+01
52.000000 24.000000 3.583328E+01
52.000000 22.000000 2.878000E+01
52.000000 20.000000 2.287911E+01
52.000000 18.000000 2.713947E+01
52.000000 16.000000 3.489375E+01
52.000000 14.000000 3.768240E+01
52.000000 12.000000 2.991515E+01
52.000000 10.000000 1.703521E+01
52.000000 8.000000 1.385786E+00
52.000000 6.000000 -1.304232E+01
52.000000 4.000000 -3.272346E+01
52.000000 2.000000 -4.852383E+01
52.000000 0.000000 -5.094566E+01
52.000000 -2.000000 -4.040374E+01
52.000000 -4.000000 -2.579447E+01
52.000000 -6.000000 -1.640445E+01
52.000000 -8.000000 -1.577309E+01
52.000000 -10.000000 -1.855281E+01
52.000000 -12.000000 -1.776994E+01
52.000000 -14.000000 -9.060788E+00
52.000000 -16.000000 3.702250E-01
52.000000 -18.000000 -4.581668E+00
52.000000 -20.000000 -2.181462E+01
52.000000 -22.000000 -3.751417E+01
52.000000 -24.000000 -3.579177E+01
52.000000 -26.000000 -1.971116E+01
52.000000 -28.000000 -3.583737E+00
52.000000 -30.000000 3.238983E+00
52.000000 -32.000000 -1.023528E+01
52.000000 -34.000000 -2.980755E+01
52.000000 -36.000000 -3.043175E+01
52.000000 -38.000000 -1.523770E+01
52.000000 -40.000000 1.176692E+00
54.000000 40.000000 -4.735277E+00
54.000000 38.000000 1.071973E+00
54.000000 36.000000 -4.392296E+00
54.000000 34.000000 -1.966520E+01
54.000000 32.000000 -3.077088E+01
54.000000 30.000000 -2.121542E+01
54.000000 28.000000 1.025599E+01
54.000000 26.000000 4.240190E+01
54.000000 24.000000 5.492013E+01
54.000000 22.000000 4.528629E+01
54.000000 20.000000 3.276198E+01
54.000000 18.000000 3.075376E+01
54.000000 16.000000 3.590077E+01
54.000000 14.000000 3.703632E+01
54.000000 12.000000 2.671180E+01
54.000000 10.000000 1.010878E+01
54.000000 8.000000 -6.357701E+00
54.000000 6.000000 -2.055969E+01
54.000000 4.000000 -3.555702E+01
54.000000 2.000000 -4.272563E+01
54.000000 0.000000 -3.687890E+01
54.000000 -2.000000 -2.300302E+01
54.000000 -4.000000 -1.089880E+01
54.000000 -6.000000 -7.376427E+00
54.000000 -8.000000 -1.438131E+01
54.000000 -10.000000 -2.417410E+01
54.000000 -12.000000 -2.767662E+01
54.000000 -14.000000 -2.090188E+01
54.000000 -16.000000 -1.364481E+01
54.000000 -18.000000 -2.041538E+01
54.000000 -20.000000 -3.539578E+01
54.000000 -22.000000 -4.505841E+01
54.000000 -24.000000 -3.800063E+01
54.000000 -26.000000 -2.048863E+01
54.000000 -28.000000 -4.661158E+00
54.000000 -30.000000 3.073501E+00
54.000000 -32.000000 -8.261225E+00
54.000000 -34.000000 -2.808639E+01
54.000000 -36.000000 -3.150763E+01
54.000000 -38.000000 -1.786208E+01
54.000000 -40.000000 -2.458115E+00
56.000000 40.000000 -4.781860E+00
56.000000 38.000000 1.643714E+00
56.000000 36.000000 -2.813359E+00
56.000000 34.000000 -1.464335E+01
56.000000 32.000000 -2.131297E+01
56.000000 30.000000 -9.134646E+00
56.000000 28.000000 2.375931E+01
56.000000 26.000000 5.729881E+01
56.000000 24.000000 7.261108E+01
56.000000 22.000000 5.424248E+01
56.000000 20.000000 2.881254E+01
56.000000 18.000000 1.582631E+01
56.000000 16.000000 1.953327E+01
56.000000 14.000000 2.432032E+01
56.000000 12.000000 1.826375E+01
56.000000 10.000000 4.404774E+00
56.000000 8.000000 -7.325395E+00
56.000000 6.000000 -1.561738E+01
56.000000 4.000000 -2.193842E+01
56.000000 2.000000 -2.109690E+01
56.000000 0.000000 -8.645960E+00
56.000000 -2.000000 7.327788E+00
56.000000 -4.000000 1.319988E+01
56.000000 -6.000000 2.763125E+00
56.000000 -8.000000 -1.431491E+01
56.000000 -10.000000 -3.034282E+01
56.000000 -12.000000 -3.339999E+01
56.000000 -14.000000 -2.764823E+01
56.000000 -16.000000 -2.776184E+01
56.000000 -18.000000 -4.049611E+01
56.000000 -20.000000 -5.394757E+01
56.000000 -22.000000 -5.835844E+01
56.000000 -24.000000 -4.560178E+01
56.000000 -26.000000 -2.530255E+01
56.000000 -28.000000 -1.026725E+01
56.000000 -30.000000 -2.025773E+00
56.000000 -32.000000 -1.024973E+01
56.000000 -34.000000 -2.591310E+01
56.000000 -36.000000 -2.827295E+01
56.000000 -38.000000 -1.805306E+01
56.000000 -40.000000 -5.106091E+00
58.000000 40.000000 -3.434416E+00
58.000000 38.000000 2.112223E+00
58.000000 36.000000 -1.480544E+00
58.000000 34.000000 -1.012313E+01
58.000000 32.000000 -1.324721E+01
58.000000 30.000000 1.245132E+00
58.000000 28.000000 3.322593E+01
58.000000 26.000000 6.423888E+01
58.000000 24.000000 7.566055E+01
58.000000 22.000000 5.294120E+01
58.000000 20.000000 2.118462E+01
58.000000 18.000000 1.781948E+00
58.000000 16.000000 5.500686E+00
58.000000 14.000000 1.409051E+01
58.000000 12.000000 1.391274E+01
58.000000 10.000000 5.663839E+00
58.000000 8.000000 -2.148831E+00
58.000000 6.000000 -5.455594E+00
58.000000 4.000000 -4.994883E+00
58.000000 2.000000 8.481340E-01
58.000000 0.000000 1.579646E+01
58.000000 -2.000000 3.043249E+01
58.000000 -4.000000 3.095445E+01
58.000000 -6.000000 1.131980E+01
58.000000 -8.000000 -1.083283E+01
58.000000 -10.000000 -2.980892E+01
58.000000 -12.000000 -3.293410E+01
58.000000 -14.000000 -3.110304E+01
58.000000 -16.000000 -3.830233E+01
58.000000 -18.000000 -5.441218E+01
58.000000 -20.000000 -6.583389E+01
58.000000 -22.000000 -6.649406E+01
58.000000 -24.000000 -5.179353E+01
58.000000 -26.000000 -3.164080E+01
58.000000 -28.000000 -1.469676E+01
58.000000 -30.000000 -7.103689E+00
58.000000 -32.000000 -1.439147E+01
58.000000 -34.000000 -2.724040E+01
58.000000 -36.000000 -2.695103E+01
58.000000 -38.000000 -1.608189E+01
58.000000 -40.000000 -4.714010E+00
60.000000 40.000000 -1.377629E+00
60.000000 38.000000 2.173802E+00
60.000000 36.000000 -5.578766E-01
60.000000 34.000000 -5.393150E+00
60.000000 32.000000 -4.933042E+00
60.000000 30.000000 1.082357E+01
60.000000 28.000000 3.989466E+01
60.000000 26.000000 6.467652E+01
60.000000 24.000000 7.332181E+01
60.000000 22.000000 4.872017E+01
60.000000 20.000000 1.247650E+01
60.000000 18.000000 -9.756913E+00
60.000000 16.000000 -2.986979E+00
60.000000 14.000000 1.002638E+01
60.000000 12.000000 1.578751E+01
60.000000 10.000000 1.255693E+01
60.000000 8.000000 5.211543E+00
60.000000 6.000000 3.518831E+00
60.000000 4.000000 7.097754E+00
60.000000 2.000000 1.548223E+01
60.000000 0.000000 3.117156E+01
60.000000 -2.000000 4.308425E+01
60.000000 -4.000000 4.151184E+01
60.000000 -6.000000 1.971215E+01
60.000000 -8.000000 -5.017491E+00
60.000000 -10.000000 -2.412374E+01
60.000000 -12.000000 -3.016918E+01
60.000000 -14.000000 -3.371982E+01
60.000000 -16.000000 -4.449475E+01
60.000000 -18.000000 -6.177870E+01
60.000000 -20.000000 -7.288614E+01
60.000000 -22.000000 -7.047034E+01
60.000000 -24.000000 -5.278749E+01
60.000000 -26.000000 -3.289432E+01
60.000000 -28.000000 -1.890894E+01
60.000000 -30.000000 -1.288367E+01
60.000000 -32.000000 -1.881332E+01
60.000000 -34.000000 -2.827707E+01
60.000000 -36.000000 -2.587969E+01
