-30.000000 -10.000000 3.378129E+01
-30.000000 -12.000000 4.732255E+01
-30.000000 -14.000000 6.344982E+01
-30.000000 -16.000000 8.382461E+01
-30.000000 -18.000000 1.009997E+02
-30.000000 -20.000000 1.061477E+02
-30.000000 -22.000000 9.956727E+01
-30.000000 -24.000000 8.610393E+01
-30.000000 -26.000000 7.512668E+01
-30.000000 -28.000000 6.660972E+01
-30.000000 -30.000000 5.922619E+01
-30.000000 -32.000000 5.389893E+01
-30.000000 -34.000000 5.022959E+01
-30.000000 -36.000000 4.919649E+01
-30.000000 -38.000000 4.610089E+01
-30.000000 -40.000000 3.918600E+01
-28.000000 40.000000 5.340958E+00
-28.000000 38.000000 -5.226162E+00
-28.000000 36.000000 -1.730233E+01
-28.000000 34.000000 -3.061965E+01
-28.000000 32.000000 -3.518131E+01
-28.000000 30.000000 -2.785235E+01
-28.000000 28.000000 -1.501794E+01
-28.000000 26.000000 -5.794069E+00
-28.000000 24.000000 -2.153299E+00
-28.000000 22.000000 -9.104176E+00
-28.000000 20.000000 -1.201122E+01
-28.000000 18.000000 -2.081211E+00
-28.000000 16.000000 1.581957E+01
-28.000000 14.000000 1.602209E+01
-28.000000 12.000000 -2.055199E+01
-28.000000 10.000000 -7.954505E+01
-28.000000 8.000000 -1.110189E+02
-28.000000 6.000000 -1.069005E+02
-28.000000 4.000000 -6.402670E+01
-28.000000 2.000000 -1.574241E+01
-28.000000 0.000000 2.185577E+01
-28.000000 -2.000000 4.100357E+01
-28.000000 -4.000000 4.015279E+01
-28.000000 -6.000000 2.845118E+01
-28.000000 -8.000000 2.415676E+01
-28.000000 -10.000000 2.804306E+01
-28.000000 -12.000000 4.003971E+01
-28.000000 -14.000000 5.599140E+01
-28.000000 -16.000000 7.828858E+01
-28.000000 -18.000000 9.633365E+01
-28.000000 -20.000000 1.010575E+02
-28.000000 -22.000000 9.429487E+01
-28.000000 -24.000000 8.020628E+01
-28.000000 -26.000000 6.815747E+01
-28.000000 -28.000000 5.647766E+01
-28.000000 -30.000000 4.795472E+01
-28.000000 -32.000000 4.361281E+01
-28.000000 -34.000000 4.263349E+01
-28.000000 -36.000000 4.555316E+01
-28.000000 -38.000000 4.375928E+01
-28.000000 -40.000000 3.529802E+01
-26.000000 40.000000 5.153011E+00
-26.000000 38.000000 -6.472084E+00
-26.000000 36.000000 -1.608376E+01
-26.000000 34.000000 -2.789068E+01
-26.000000 32.000000 -3.274859E+01
-26.000000 30.000000 -2.715123E+01
-26.000000 28.000000 -1.728096E+01
-26.000000 26.000000 -1.418937E+01
-26.000000 24.000000 -1.887294E+01
-26.000000 22.000000 -3.314128E+01
-26.000000 20.000000 -4.008670E+01
-26.000000 18.000000 -2.689160E+01
-26.000000 16.000000 -1.269747E+00
-26.000000 14.000000 8.408257E+00
-26.000000 12.000000 -2.043075E+01
-26.000000 10.000000 -7.388355E+01
-26.000000 8.000000 -1.003972E+02
-26.000000 6.000000 -8.686274E+01
-26.000000 4.000000 -4.348212E+01
-26.000000 2.000000 -3.430240E+00
-26.000000 0.000000 2.605074E+01
-26.000000 -2.000000 4.053026E+01
-26.000000 -4.000000 3.686410E+01
-26.000000 -6.000000 2.334628E+01
-26.000000 -8.000000 1.813122E+01
-26.000000 -10.000000 2.232974E+01
-26.000000 -12.000000 3.219018E+01
-26.000000 -14.000000 4.812146E+01
-26.000000 -16.000000 6.969631E+01
-26.000000 -18.000000 8.677988E+01
-26.000000 -20.000000 9.141206E+01
-26.000000 -22.000000 8.382351E+01
-26.000000 -24.000000 6.801292E+01
-26.000000 -26.000000 5.463956E+01
-26.000000 -28.000000 4.413577E+01
-26.000000 -30.000000 3.469561E+01
-26.000000 -32.000000 3.103473E+01
-26.000000 -34.000000 3.340790E+01
-26.000000 -36.000000 4.053320E+01
-26.000000 -38.000000 4.085546E+01
-26.000000 -40.000000 3.240739E+01
-24.000000 40.000000 6.184990E+00
-24.000000 38.000000 -6.306641E+00
-24.000000 36.000000 -1.630896E+01
-24.000000 34.000000 -2.601071E+01
-24.000000 32.000000 -3.085231E+01
-24.000000 30.000000 -2.802697E+01
-24.000000 28.000000 -2.396663E+01
-24.000000 26.000000 -2.687090E+01
-24.000000 24.000000 -4.271074E+01
-24.000000 22.000000 -6.219179E+01
-24.000000 20.000000 -7.015761E+01
-24.000000 18.000000 -5.131165E+01
-24.000000 16.000000 -1.734268E+01
-24.000000 14.000000 3.410107E+00
-24.000000 12.000000 -1.223238E+01
-24.000000 10.000000 -5.236553E+01
-24.000000 8.000000 -6.980759E+01
-24.000000 6.000000 -4.809433E+01
-24.000000 4.000000 -9.215217E+00
-24.000000 2.000000 1.312562E+01
-24.000000 0.000000 2.469743E+01
-24.000000 -2.000000 3.215099E+01
-24.000000 -4.000000 2.957971E+01
-24.000000 -6.000000 1.817205E+01
-24.000000 -8.000000 1.218370E+01
-24.000000 -10.000000 1.541807E+01
-24.000000 -12.000000 2.320940E+01
-24.000000 -14.000000 3.466419E+01
-24.000000 -16.000000 5.052441E+01
-24.000000 -18.000000 6.629154E+01
-24.000000 -20.000000 7.271395E+01
-24.000000 -22.000000 6.582020E+01
-24.000000 -24.000000 4.898368E+01
-24.000000 -26.000000 3.561685E+01
-24.000000 -28.000000 2.615771E+01
-24.000000 -30.000000 1.740477E+01
-24.000000 -32.000000 1.569307E+01
-24.000000 -34.000000 2.226757E+01
-24.000000 -36.000000 3.333804E+01
-24.000000 -38.000000 3.604992E+01
-24.000000 -40.000000 2.986381E+01
-22.000000 40.000000 5.161545E+00
-22.000000 38.000000 -7.920979E+00
-22.000000 36.000000 -1.752240E+01
-22.000000 34.000000 -2.731887E+01
-22.000000 32.000000 -3.264460E+01
-22.000000 30.000000 -3.202778E+01
-22.000000 28.000000 -3.196085E+01
-22.000000 26.000000 -3.872978E+01
-22.000000 24.000000 -5.979238E+01
-22.000000 22.000000 -8.011466E+01
-22.000000 20.000000 -8.725879E+01
-22.000000 18.000000 -6.421944E+01
-22.000000 16.000000 -2.466409E+01
-22.000000 14.000000 4.248800E+00
-22.000000 12.000000 -4.993591E-01
-22.000000 10.000000 -2.792212E+01
-22.000000 8.000000 -3.865943E+01
-22.000000 6.000000 -1.405239E+01
-22.000000 4.000000 1.867078E+01
-22.000000 2.000000 2.763123E+01
-22.000000 0.000000 2.428803E+01
-22.000000 -2.000000 2.371557E+01
-22.000000 -4.000000 2.002705E+01
-22.000000 -6.000000 9.887456E+00
-22.000000 -8.000000 3.891417E+00
-22.000000 -10.000000 5.902992E+00
-22.000000 -12.000000 1.003945E+01
-22.000000 -14.000000 1.433310E+01
-22.000000 -16.000000 2.562977E+01
-22.000000 -18.000000 4.062214E+01
-22.000000 -20.000000 4.820990E+01
-22.000000 -22.000000 4.461179E+01
-22.000000 -24.000000 3.046247E+01
-22.000000 -26.000000 1.813845E+01
-22.000000 -28.000000 8.675487E+00
-22.000000 -30.000000 1.031282E+00
-22.000000 -32.000000 1.638548E+00
-22.000000 -34.000000 1.163327E+01
-22.000000 -36.000000 2.389353E+01
-22.000000 -38.000000 2.854374E+01
-22.000000 -40.000000 2.593748E+01
-20.000000 40.000000 3.867184E+00
-20.000000 38.000000 -9.948610E+00
-20.000000 36.000000 -2.066300E+01
-20.000000 34.000000 -3.218559E+01
-20.000000 32.000000 -3.879756E+01
-20.000000 30.000000 -3.721595E+01
-20.000000 28.000000 -3.479765E+01
-20.000000 26.000000 -4.039018E+01
-20.000000 24.000000 -6.027296E+01
-20.000000 22.000000 -7.847776E+01
-20.000000 20.000000 -8.590117E+01
-20.000000 18.000000 -6.544260E+01
-20.000000 16.000000 -2.891473E+01
-20.000000 14.000000 -1.514524E+00
-20.000000 12.000000 -2.558939E+00
-20.000000 10.000000 -1.961913E+01
-20.000000 8.000000 -2.348060E+01
-20.000000 6.000000 3.763746E+00
-20.000000 4.000000 3.242226E+01
-20.000000 2.000000 3.714108E+01
-20.000000 0.000000 2.881839E+01
-20.000000 -2.000000 2.051117E+01
-20.000000 -4.000000 1.163008E+01
-20.000000 -6.000000 6.665053E-01
-20.000000 -8.000000 -3.918388E+00
-20.000000 -10.000000 -3.182517E+00
-20.000000 -12.000000 -4.989816E+00
-20.000000 -14.000000 -7.510302E+00
-20.000000 -16.000000 6.566792E-01
-20.000000 -18.000000 1.429888E+01
-20.000000 -20.000000 2.252104E+01
-20.000000 -22.000000 2.302244E+01
-20.000000 -24.000000 1.365673E+01
-20.000000 -26.000000 4.579005E+00
-20.000000 -28.000000 -4.324449E+00
-20.000000 -30.000000 -1.179081E+01
-20.000000 -32.000000 -1.021146E+01
-20.000000 -34.000000 2.805863E+00
-20.000000 -36.000000 1.641783E+01
-20.000000 -38.000000 2.165066E+01
-20.000000 -40.000000 2.113612E+01
-18.000000 40.000000 8.582611E-01
-18.000000 38.000000 -1.339896E+01
-18.000000 36.000000 -2.545126E+01
-18.000000 34.000000 -3.812827E+01
-18.000000 32.000000 -4.474148E+01
-18.000000 30.000000 -3.914687E+01
-18.000000 28.000000 -2.952910E+01
-18.000000 26.000000 -2.878730E+01
-18.000000 24.000000 -3.966836E+01
-18.000000 22.000000 -5.312225E+01
-18.000000 20.000000 -6.096608E+01
-18.000000 18.000000 -4.826803E+01
-18.000000 16.000000 -2.539871E+01
-18.000000 14.000000 -1.446201E+01
-18.000000 12.000000 -2.750590E+01
-18.000000 10.000000 -4.878918E+01
-18.000000 8.000000 -4.937072E+01
-18.000000 6.000000 -1.526617E+01
-18.000000 4.000000 2.297971E+01
-18.000000 2.000000 3.685198E+01
-18.000000 0.000000 3.362920E+01
-18.000000 -2.000000 2.271432E+01
-18.000000 -4.000000 9.992371E+00
-18.000000 -6.000000 -3.242454E+00
-18.000000 -8.000000 -9.419975E+00
-18.000000 -10.000000 -1.161945E+01
-18.000000 -12.000000 -1.798222E+01
-18.000000 -14.000000 -2.494590E+01
-18.000000 -16.000000 -2.038322E+01
-18.000000 -18.000000 -6.670084E+00
-18.000000 -20.000000 5.232409E+00
-18.000000 -22.000000 8.843341E+00
-18.000000 -24.000000 2.410548E+00
-18.000000 -26.000000 -4.865283E+00
-18.000000 -28.000000 -1.289519E+01
-18.000000 -30.000000 -2.081296E+01
-18.000000 -32.000000 -1.935036E+01
-18.000000 -34.000000 -4.859893E+00
-18.000000 -36.000000 1.112699E+01
-18.000000 -38.000000 1.776026E+01
-18.000000 -40.000000 1.754054E+01
-16.000000 40.000000 -5.105621E+00
-16.000000 38.000000 -1.885566E+01
-16.000000 36.000000 -3.121778E+01
-16.000000 34.000000 -4.265433E+01
-16.000000 32.000000 -4.689914E+01
-16.000000 30.000000 -3.696762E+01
-16.000000 28.000000 -1.938802E+01
-16.000000 26.000000 -8.774483E+00
-16.000000 24.000000 -5.448265E+00
-16.000000 22.000000 -1.250043E+01
-16.000000 20.000000 -1.920644E+01
-16.000000 18.000000 -1.761325E+01
-16.000000 16.000000 -1.705237E+01
-16.000000 14.000000 -3.252474E+01
-16.000000 12.000000 -6.805499E+01
-16.000000 10.000000 -1.066576E+02
-16.000000 8.000000 -1.087228E+02
-16.000000 6.000000 -6.713840E+01
-16.000000 4.000000 -1.019918E+01
-16.000000 2.000000 2.168977E+01
-16.000000 0.000000 2.992605E+01
-16.000000 -2.000000 2.235504E+01
-16.000000 -4.000000 1.038881E+01
-16.000000 -6.000000 -4.573245E+00
-16.000000 -8.000000 -1.375552E+01
-16.000000 -10.000000 -1.824263E+01
-16.000000 -12.000000 -2.595982E+01
-16.000000 -14.000000 -3.318111E+01
-16.000000 -16.000000 -2.864681E+01
-16.000000 -18.000000 -1.227162E+01
-16.000000 -20.000000 3.820565E+00
-16.000000 -22.000000 8.047706E+00
-16.000000 -24.000000 8.681811E-01
-16.000000 -26.000000 -8.676982E+00
-16.000000 -28.000000 -1.814949E+01
-16.000000 -30.000000 -2.643708E+01
-16.000000 -32.000000 -2.501294E+01
-16.000000 -34.000000 -1.058692E+01
-16.000000 -36.000000 6.955280E+00
-16.000000 -38.000000 1.532395E+01
-16.000000 -40.000000 1.446651E+01
-14.000000 40.000000 -1.028134E+01
-14.000000 38.000000 -2.380306E+01
-14.000000 36.000000 -3.708313E+01
-14.000000 34.000000 -4.705143E+01
-14.000000 32.000000 -4.820353E+01
-14.000000 30.000000 -3.509942E+01
-14.000000 28.000000 -1.116368E+01
-14.000000 26.000000 8.674240E+00
-14.000000 24.000000 2.349073E+01
-14.000000 22.000000 2.110097E+01
-14.000000 20.000000 1.634046E+01
-14.000000 18.000000 9.774124E+00
-14.000000 16.000000 -8.695915E+00
-14.000000 14.000000 -4.684502E+01
-14.000000 12.000000 -1.040238E+02
-14.000000 10.000000 -1.626250E+02
-14.000000 8.000000 -1.685359E+02
-14.000000 6.000000 -1.227658E+02
-14.000000 4.000000 -4.876888E+01
-14.000000 2.000000 -5.963898E-01
-14.000000 0.000000 1.652237E+01
-14.000000 -2.000000 1.298152E+01
-14.000000 -4.000000 2.878057E+00
-14.000000 -6.000000 -1.043674E+01
-14.000000 -8.000000 -1.903997E+01
-14.000000 -10.000000 -2.290559E+01
-14.000000 -12.000000 -2.719619E+01
-14.000000 -14.000000 -2.895617E+01
-14.000000 -16.000000 -1.892256E+01
-14.000000 -18.000000 -2.479458E-02
-14.000000 -20.000000 1.383510E+01
-14.000000 -22.000000 1.401911E+01
-14.000000 -24.000000 3.099937E+00
-14.000000 -26.000000 -9.701570E+00
-14.000000 -28.000000 -2.029866E+01
-14.000000 -30.000000 -2.745717E+01
-14.000000 -32.000000 -2.525204E+01
-14.000000 -34.000000 -1.190871E+01
-14.000000 -36.000000 5.238307E+00
-14.000000 -38.000000 1.297848E+01
-14.000000 -40.000000 9.770690E+00
-12.000000 40.000000 -1.228204E+01
-12.000000 38.000000 -2.617972E+01
-12.000000 36.000000 -4.118488E+01
-12.000000 34.000000 -5.241976E+01
-12.000000 32.000000 -5.274290E+01
-12.000000 30.000000 -3.755468E+01
-12.000000 28.000000 -1.017685E+01
-12.000000 26.000000 1.303620E+01
-12.000000 24.000000 3.035583E+01
-12.000000 22.000000 2.875278E+01
-12.000000 20.000000 2.513298E+01
-12.000000 18.000000 1.829333E+01
-12.000000 16.000000 -4.254284E+00
-12.000000 14.000000 -4.990362E+01
-12.000000 12.000000 -1.188632E+02
-12.000000 10.000000 -1.903956E+02
-12.000000 8.000000 -2.002484E+02
-12.000000 6.000000 -1.518396E+02
-12.000000 4.000000 -6.790384E+01
-12.000000 2.000000 -1.370106E+01
-12.000000 0.000000 3.705109E+00
-12.000000 -2.000000 8.132229E-01
-12.000000 -4.000000 -9.127920E+00
-12.000000 -6.000000 -1.927036E+01
-12.000000 -8.000000 -2.349987E+01
-12.000000 -10.000000 -2.397309E+01
-12.000000 -12.000000 -2.323282E+01
-12.000000 -14.000000 -1.942142E+01
-12.000000 -16.000000 -5.267802E+00
-12.000000 -18.000000 1.392363E+01
-12.000000 -20.000000 2.244802E+01
-12.000000 -22.000000 1.589736E+01
-12.000000 -24.000000 -2.556667E-01
-12.000000 -26.000000 -1.227253E+01
-12.000000 -28.000000 -1.882581E+01
-12.000000 -30.000000 -2.290237E+01
-12.000000 -32.000000 -1.981580E+01
-12.000000 -34.000000 -9.131650E+00
-12.000000 -36.000000 5.740166E+00
-12.000000 -38.000000 1.073441E+01
-12.000000 -40.000000 4.097963E+00
-10.000000 40.000000 -1.091923E+01
-10.000000 38.000000 -2.598119E+01
-10.000000 36.000000 -4.331863E+01
-10.000000 34.000000 -5.818238E+01
-10.000000 32.000000 -6.101496E+01
-10.000000 30.000000 -4.624695E+01
-10.000000 28.000000 -1.924078E+01
-10.000000 26.000000 1.281101E+00
-10.000000 24.000000 1.271553E+01
-10.000000 22.000000 8.687538E+00
-10.000000 20.000000 5.608440E+00
-10.000000 18.000000 6.163677E+00
-10.000000 16.000000 -5.390659E+00
-10.000000 14.000000 -4.261604E+01
-10.000000 12.000000 -1.102930E+02
-10.000000 10.000000 -1.831579E+02
-10.000000 8.000000 -1.951793E+02
-10.000000 6.000000 -1.440535E+02
-10.000000 4.000000 -5.936335E+01
-10.000000 2.000000 -8.359118E+00
-10.000000 0.000000 4.103157E+00
-10.000000 -2.000000 -3.116083E+00
-10.000000 -4.000000 -1.617513E+01
-10.000000 -6.000000 -2.581317E+01
-10.000000 -8.000000 -2.491484E+01
-10.000000 -10.000000 -2.098359E+01
-10.000000 -12.000000 -1.920633E+01
-10.000000 -14.000000 -1.654996E+01
-10.000000 -16.000000 -3.318502E+00
-10.000000 -18.000000 1.588012E+01
-10.000000 -20.000000 2.114219E+01
-10.000000 -22.000000 1.003289E+01
-10.000000 -24.000000 -7.725593E+00
-10.000000 -26.000000 -1.509226E+01
-10.000000 -28.000000 -1.490913E+01
-10.000000 -30.000000 -1.564612E+01
-10.000000 -32.000000 -1.262016E+01
-10.000000 -34.000000 -5.229030E+00
-10.000000 -36.000000 6.112194E+00
-10.000000 -38.000000 8.105893E+00
-10.000000 -40.000000 -9.895635E-01
-8.000000 40.000000 -6.888853E+00
-8.000000 38.000000 -2.405712E+01
-8.000000 36.000000 -4.429327E+01
-8.000000 34.000000 -6.293710E+01
-8.000000 32.000000 -6.923664E+01
-8.000000 30.000000 -5.779396E+01
-8.000000 28.000000 -3.506221E+01
-8.000000 26.000000 -2.042936E+01
-8.000000 24.000000 -1.675425E+01
-8.000000 22.000000 -2.321051E+01
-8.000000 20.000000 -2.557248E+01
-8.000000 18.000000 -1.509733E+01
-8.000000 16.000000 -1.039290E+01
-8.000000 14.000000 -3.291120E+01
-8.000000 12.000000 -9.322419E+01
-8.000000 10.000000 -1.627596E+02
-8.000000 8.000000 -1.757768E+02
-8.000000 6.000000 -1.235471E+02
-8.000000 4.000000 -3.988861E+01
-8.000000 2.000000 8.188099E+00
-8.000000 0.000000 1.642614E+01
-8.000000 -2.000000 4.844334E+00
-8.000000 -4.000000 -1.199072E+01
-8.000000 -6.000000 -2.383022E+01
-8.000000 -8.000000 -2.122494E+01
-8.000000 -10.000000 -1.535617E+01
-8.000000 -12.000000 -1.636445E+01
-8.000000 -14.000000 -1.840636E+01
-8.000000 -16.000000 -8.614617E+00
-8.000000 -18.000000 9.710381E+00
-8.000000 -20.000000 1.398316E+01
-8.000000 -22.000000 3.612565E+00
-8.000000 -24.000000 -1.038773E+01
-8.000000 -26.000000 -1.442190E+01
-8.000000 -28.000000 -1.128890E+01
-8.000000 -30.000000 -1.132885E+01
-8.000000 -32.000000 -9.083682E+00
-8.000000 -34.000000 -3.400774E+00
-8.000000 -36.000000 4.695400E+00
-8.000000 -38.000000 4.436253E+00
-8.000000 -40.000000 -5.308161E+00
-6.000000 40.000000 -3.503695E+00
-6.000000 38.000000 -2.121679E+01
-6.000000 36.000000 -4.186886E+01
-6.000000 34.000000 -6.202167E+01
-6.000000 32.000000 -7.021795E+01
-6.000000 30.000000 -6.402489E+01
-6.000000 28.000000 -4.835415E+01
-6.000000 26.000000 -3.946791E+01
-6.000000 24.000000 -4.250813E+01
-6.000000 22.000000 -5.116752E+01
-6.000000 20.000000 -5.399704E+01
-6.000000 18.000000 -3.775569E+01
-6.000000 16.000000 -2.220148E+01
-6.000000 14.000000 -3.367221E+01
-6.000000 12.000000 -8.663440E+01
-6.000000 10.000000 -1.524565E+02
-6.000000 8.000000 -1.651957E+02
-6.000000 6.000000 -1.137552E+02
-6.000000 4.000000 -3.053067E+01
-6.000000 2.000000 1.860046E+01
-6.000000 0.000000 2.805532E+01
-6.000000 -2.000000 1.695552E+01
-6.000000 -4.000000 1.347794E+00
-6.000000 -6.000000 -1.138568E+01
-6.000000 -8.000000 -1.122343E+01
-6.000000 -10.000000 -7.664587E+00
-6.000000 -12.000000 -1.153234E+01
-6.000000 -14.000000 -1.603493E+01
-6.000000 -16.000000 -7.581297E+00
-6.000000 -18.000000 8.050316E+00
-6.000000 -20.000000 1.110447E+01
-6.000000 -22.000000 3.961866E+00
-6.000000 -24.000000 -5.635965E+00
-6.000000 -26.000000 -8.871698E+00
-6.000000 -28.000000 -7.699667E+00
-6.000000 -30.000000 -1.074721E+01
-6.000000 -32.000000 -9.988863E+00
-6.000000 -34.000000 -4.230406E+00
-6.000000 -36.000000 1.541699E+00
-6.000000 -38.000000 -1.070662E+00
-6.000000 -40.000000 -1.071377E+01
-4.000000 40.000000 -1.458071E+00
-4.000000 38.000000 -1.802453E+01
-4.000000 36.000000 -3.582896E+01
-4.000000 34.000000 -5.458353E+01
-4.000000 32.000000 -6.353880E+01
-4.000000 30.000000 -6.193600E+01
-4.000000 28.000000 -5.213023E+01
-4.000000 26.000000 -4.687808E+01
-4.000000 24.000000 -5.475864E+01
-4.000000 22.000000 -6.593433E+01
-4.000000 20.000000 -7.165057E+01
-4.000000 18.000000 -5.618918E+01
-4.000000 16.000000 -3.757578E+01
-4.000000 14.000000 -4.382933E+01
-4.000000 12.000000 -9.218734E+01
-4.000000 10.000000 -1.572021E+02
-4.000000 8.000000 -1.723279E+02
-4.000000 6.000000 -1.231971E+02
-4.000000 4.000000 -3.949415E+01
-4.000000 2.000000 1.239808E+01
-4.000000 0.000000 2.597470E+01
-4.000000 -2.000000 2.028093E+01
-4.000000 -4.000000 1.219006E+01
-4.000000 -6.000000 3.188801E+00
-4.000000 -8.000000 1.042969E+00
-4.000000 -10.000000 2.713909E+00
-4.000000 -12.000000 -2.129118E+00
-4.000000 -14.000000 -5.432470E+00
-4.000000 -16.000000 3.961557E+00
-4.000000 -18.000000 1.706136E+01
-4.000000 -20.000000 1.794081E+01
-4.000000 -22.000000 1.105757E+01
-4.000000 -24.000000 2.841845E+00
-4.000000 -26.000000 -5.019722E-01
-4.000000 -28.000000 -2.797381E+00
-4.000000 -30.000000 -1.010873E+01
-4.000000 -32.000000 -1.182687E+01
-4.000000 -34.000000 -6.387837E+00
-4.000000 -36.000000 -3.051069E+00
-4.000000 -38.000000 -8.824113E+00
-4.000000 -40.000000 -1.906665E+01
-2.000000 40.000000 2.452967E+00
-2.000000 38.000000 -1.359470E+01
-2.000000 36.000000 -2.879220E+01
-2.000000 34.000000 -4.477547E+01
-2.000000 32.000000 -5.425240E+01
-2.000000 30.000000 -5.427389E+01
-2.000000 28.000000 -4.572223E+01
-2.000000 26.000000 -4.227515E+01
-2.000000 24.000000 -5.207927E+01
-2.000000 22.000000 -6.450370E+01
-2.000000 20.000000 -7.301158E+01
-2.000000 18.000000 -6.265930E+01
-2.000000 16.000000 -4.603700E+01
-2.000000 14.000000 -5.175150E+01
-2.000000 12.000000 -1.005476E+02
-2.000000 10.000000 -1.693432E+02
-2.000000 8.000000 -1.864273E+02
-2.000000 6.000000 -1.392276E+02
-2.000000 4.000000 -5.690815E+01
-2.000000 2.000000 -4.693165E+00
-2.000000 0.000000 1.099943E+01
-2.000000 -2.000000 9.635876E+00
-2.000000 -4.000000 6.710831E+00
-2.000000 -6.000000 3.744041E+00
-2.000000 -8.000000 3.335018E+00
-2.000000 -10.000000 7.301422E+00
-2.000000 -12.000000 5.581680E+00
-2.000000 -14.000000 6.588102E+00
-2.000000 -16.000000 1.843234E+01
-2.000000 -18.000000 3.146776E+01
-2.000000 -20.000000 3.049091E+01
-2.000000 -22.000000 2.027668E+01
-2.000000 -24.000000 1.037472E+01
-2.000000 -26.000000 6.551790E+00
-2.000000 -28.000000 2.519216E+00
-2.000000 -30.000000 -7.485161E+00
-2.000000 -32.000000 -1.259706E+01
-2.000000 -34.000000 -1.036180E+01
-2.000000 -36.000000 -1.011854E+01
-2.000000 -38.000000 -1.746551E+01
-2.000000 -40.000000 -2.748586E+01
0.000000 40.000000 7.524691E+00
0.000000 38.000000 -6.946488E+00
0.000000 36.000000 -1.923532E+01
0.000000 34.000000 -3.317156E+01
0.000000 32.000000 -4.445071E+01
0.000000 30.000000 -4.394272E+01
0.000000 28.000000 -3.350277E+01
0.000000 26.000000 -2.935696E+01
0.000000 24.000000 -3.751095E+01
0.000000 22.000000 -4.983987E+01
0.000000 20.000000 -5.834847E+01
0.000000 18.000000 -5.131606E+01
0.000000 16.000000 -3.804589E+01
0.000000 14.000000 -4.773581E+01
0.000000 12.000000 -1.016053E+02
0.000000 10.000000 -1.778179E+02
0.000000 8.000000 -1.993785E+02
0.000000 6.000000 -1.544089E+02
0.000000 4.000000 -7.265229E+01
0.000000 2.000000 -2.088042E+01
0.000000 0.000000 -4.469826E+00
0.000000 -2.000000 -5.019211E+00
0.000000 -4.000000 -8.472933E+00
0.000000 -6.000000 -1.041149E+01
0.000000 -8.000000 -8.986826E+00
0.000000 -10.000000 -2.209187E+00
0.000000 -12.000000 1.254627E+00
0.000000 -14.000000 6.559103E+00
0.000000 -16.000000 2.192164E+01
0.000000 -18.000000 3.789989E+01
0.000000 -20.000000 3.695574E+01
0.000000 -22.000000 2.437328E+01
0.000000 -24.000000 1.228823E+01
0.000000 -26.000000 8.680210E+00
0.000000 -28.000000 5.701218E+00
0.000000 -30.000000 -4.576769E+00
0.000000 -32.000000 -1.294995E+01
0.000000 -34.000000 -1.551393E+01
0.000000 -36.000000 -1.847976E+01
0.000000 -38.000000 -2.465655E+01
0.000000 -40.000000 -3.236894E+01
2.000000 40.000000 1.105804E+01
2.000000 38.000000 7.186556E-01
2.000000 36.000000 -6.828629E+00
2.000000 34.000000 -1.934075E+01
2.000000 32.000000 -3.254690E+01
2.000000 30.000000 -3.195429E+01
2.000000 28.000000 -2.019652E+01
2.000000 26.000000 -1.311803E+01
2.000000 24.000000 -1.639460E+01
2.000000 22.000000 -2.729996E+01
2.000000 20.000000 -3.365365E+01
2.000000 18.000000 -2.660290E+01
2.000000 16.000000 -1.621241E+01
2.000000 14.000000 -2.999371E+01
2.000000 12.000000 -8.813440E+01
2.000000 10.000000 -1.701628E+02
2.000000 8.000000 -2.004970E+02
2.000000 6.000000 -1.626239E+02
2.000000 4.000000 -8.485475E+01
2.000000 2.000000 -3.349040E+01
2.000000 0.000000 -1.545004E+01
2.000000 -2.000000 -1.665822E+01
2.000000 -4.000000 -2.338721E+01
2.000000 -6.000000 -2.891584E+01
2.000000 -8.000000 -2.859443E+01
2.000000 -10.000000 -2.254137E+01
2.000000 -12.000000 -1.738414E+01
2.000000 -14.000000 -1.094907E+01
2.000000 -16.000000 7.669163E+00
2.000000 -18.000000 2.761920E+01
2.000000 -20.000000 2.921977E+01
2.000000 -22.000000 1.771265E+01
2.000000 -24.000000 6.463356E+00
2.000000 -26.000000 5.252718E+00
2.000000 -28.000000 4.558133E+00
2.000000 -30.000000 -4.542312E+00
2.000000 -32.000000 -1.410430E+01
2.000000 -34.000000 -1.940735E+01
2.000000 -36.000000 -2.377905E+01
2.000000 -38.000000 -2.885131E+01
2.000000 -40.000000 -3.445825E+01
4.000000 40.000000 1.484664E+01
4.000000 38.000000 8.145311E+00
4.000000 36.000000 4.729460E+00
4.000000 34.000000 -5.770397E+00
4.000000 32.000000 -1.868349E+01
4.000000 30.000000 -1.851858E+01
4.000000 28.000000 -7.480829E+00
4.000000 26.000000 1.278925E+00
4.000000 24.000000 3.155035E+00
4.000000 22.000000 -5.953384E+00
4.000000 20.000000 -1.083189E+01
4.000000 18.000000 -1.593906E+00
4.000000 16.000000 1.093198E+01
4.000000 14.000000 -1.211781E+00
4.000000 12.000000 -6.097918E+01
4.000000 10.000000 -1.467743E+02
4.000000 8.000000 -1.888488E+02
4.000000 6.000000 -1.616229E+02
4.000000 4.000000 -9.075748E+01
4.000000 2.000000 -3.872707E+01
4.000000 0.000000 -1.702560E+01
4.000000 -2.000000 -1.870974E+01
4.000000 -4.000000 -3.065834E+01
4.000000 -6.000000 -4.266090E+01
4.000000 -8.000000 -4.876833E+01
4.000000 -10.000000 -4.919697E+01
4.000000 -12.000000 -4.528760E+01
4.000000 -14.000000 -3.948109E+01
4.000000 -16.000000 -1.856721E+01
4.000000 -18.000000 4.624178E+00
4.000000 -20.000000 9.087984E+00
4.000000 -22.000000 4.078121E-01
4.000000 -24.000000 -6.412373E+00
4.000000 -26.000000 -2.984520E+00
4.000000 -28.000000 -7.619152E-01
4.000000 -30.000000 -7.677615E+00
4.000000 -32.000000 -1.641707E+01
4.000000 -34.000000 -2.237591E+01
4.000000 -36.000000 -2.512136E+01
4.000000 -38.000000 -2.941883E+01
4.000000 -40.000000 -3.438495E+01
6.000000 40.000000 2.012697E+01
6.000000 38.000000 1.480916E+01
6.000000 36.000000 1.362355E+01
6.000000 34.000000 6.194713E+00
6.000000 32.000000 -5.006244E+00
6.000000 30.000000 -5.102749E+00
6.000000 28.000000 4.485537E+00
6.000000 26.000000 1.227731E+01
6.000000 24.000000 1.593886E+01
6.000000 22.000000 7.127148E+00
6.000000 20.000000 2.629631E+00
6.000000 18.000000 1.567282E+01
6.000000 16.000000 3.403401E+01
6.000000 14.000000 2.770001E+01
6.000000 12.000000 -3.292640E+01
6.000000 10.000000 -1.267923E+02
6.000000 8.000000 -1.834468E+02
6.000000 6.000000 -1.669342E+02
6.000000 4.000000 -9.555574E+01
6.000000 2.000000 -3.290360E+01
6.000000 0.000000 -1.452950E+00
6.000000 -2.000000 3.581314E-01
6.000000 -4.000000 -1.566640E+01
6.000000 -6.000000 -3.924109E+01
6.000000 -8.000000 -6.059570E+01
6.000000 -10.000000 -7.494241E+01
6.000000 -12.000000 -7.196484E+01
6.000000 -14.000000 -6.518298E+01
6.000000 -16.000000 -4.355357E+01
6.000000 -18.000000 -1.999806E+01
6.000000 -20.000000 -1.518623E+01
6.000000 -22.000000 -2.173472E+01
6.000000 -24.000000 -2.297390E+01
6.000000 -26.000000 -1.411478E+01
6.000000 -28.000000 -8.926616E+00
6.000000 -30.000000 -1.260822E+01
6.000000 -32.000000 -1.950077E+01
6.000000 -34.000000 -2.502794E+01
6.000000 -36.000000 -2.496381E+01
6.000000 -38.000000 -2.770918E+01
6.000000 -40.000000 -3.217323E+01
8.000000 40.000000 2.489628E+01
8.000000 38.000000 2.025437E+01
8.000000 36.000000 1.983126E+01
8.000000 34.000000 1.540659E+01
8.000000 32.000000 6.925896E+00
8.000000 30.000000 6.524451E+00
8.000000 28.000000 1.456988E+01
8.000000 26.000000 2.027259E+01
8.000000 24.000000 2.024533E+01
8.000000 22.000000 9.908314E+00
8.000000 20.000000 7.098536E+00
8.000000 18.000000 2.335460E+01
8.000000 16.000000 4.376111E+01
8.000000 14.000000 3.918774E+01
8.000000 12.000000 -2.164118E+01
8.000000 10.000000 -1.213259E+02
8.000000 8.000000 -1.884020E+02
8.000000 6.000000 -1.810554E+02
8.000000 4.000000 -1.068646E+02
8.000000 2.000000 -2.949933E+01
8.000000 0.000000 1.851908E+01
8.000000 -2.000000 3.201380E+01
8.000000 -4.000000 1.883879E+01
8.000000 -6.000000 -1.549754E+01
8.000000 -8.000000 -5.200640E+01
8.000000 -10.000000 -7.831621E+01
8.000000 -12.000000 -7.651961E+01
8.000000 -14.000000 -6.910329E+01
8.000000 -16.000000 -5.008778E+01
8.000000 -18.000000 -3.313068E+01
8.000000 -20.000000 -3.399319E+01
8.000000 -22.000000 -4.129070E+01
8.000000 -24.000000 -3.794937E+01
8.000000 -26.000000 -2.449094E+01
8.000000 -28.000000 -1.663824E+01
8.000000 -30.000000 -1.720033E+01
8.000000 -32.000000 -2.293493E+01
8.000000 -34.000000 -2.811208E+01
8.000000 -36.000000 -2.642197E+01
8.000000 -38.000000 -2.626611E+01
8.000000 -40.000000 -2.947792E+01
10.000000 40.000000 2.924690E+01
10.000000 38.000000 2.499453E+01
10.000000 36.000000 2.361694E+01
10.000000 34.000000 1.945386E+01
10.000000 32.000000 1.315760E+01
10.000000 30.000000 1.272456E+01
10.000000 28.000000 1.886407E+01
10.000000 26.000000 2.166973E+01
10.000000 24.000000 1.517062E+01
10.000000 22.000000 2.281322E+00
10.000000 20.000000 3.843899E-01
10.000000 18.000000 1.702737E+01
10.000000 16.000000 3.626738E+01
10.000000 14.000000 3.012989E+01
10.000000 12.000000 -2.856455E+01
10.000000 10.000000 -1.242689E+02
10.000000 8.000000 -1.925733E+02
10.000000 6.000000 -1.931359E+02
10.000000 4.000000 -1.252386E+02
10.000000 2.000000 -4.244485E+01
10.000000 0.000000 2.131579E+01
10.000000 -2.000000 5.193612E+01
10.000000 -4.000000 5.175068E+01
10.000000 -6.000000 1.982526E+01
10.000000 -8.000000 -1.732005E+01
10.000000 -10.000000 -4.132529E+01
10.000000 -12.000000 -4.172564E+01
10.000000 -14.000000 -3.771176E+01
10.000000 -16.000000 -2.785442E+01
10.000000 -18.000000 -2.628780E+01
10.000000 -20.000000 -4.108099E+01
10.000000 -22.000000 -5.438924E+01
10.000000 -24.000000 -4.734879E+01
10.000000 -26.000000 -2.925064E+01
10.000000 -28.000000 -1.838259E+01
10.000000 -30.000000 -1.779962E+01
10.000000 -32.000000 -2.488568E+01
10.000000 -34.000000 -3.168532E+01
10.000000 -36.000000 -3.022737E+01
10.000000 -38.000000 -2.694687E+01
10.000000 -40.000000 -2.879705E+01
12.000000 40.000000 3.420601E+01
12.000000 38.000000 2.839593E+01
12.000000 36.000000 2.394502E+01
12.000000 34.000000 1.710265E+01
12.000000 32.000000 1.041185E+01
12.000000 30.000000 9.735970E+00
12.000000 28.000000 1.499132E+01
12.000000 26.000000 1.526686E+01
12.000000 24.000000 4.311617E+00
12.000000 22.000000 -1.155551E+01
12.000000 20.000000 -1.670026E+01
12.000000 18.000000 -2.554775E+00
12.000000 16.000000 1.563934E+01
12.000000 14.000000 9.102253E+00
12.000000 12.000000 -4.498608E+01
12.000000 10.000000 -1.321224E+02
12.000000 8.000000 -1.960961E+02
12.000000 6.000000 -2.012592E+02
12.000000 4.000000 -1.454690E+02
12.000000 2.000000 -6.800257E+01
12.000000 0.000000 3.843498E+00
12.000000 -2.000000 5.138316E+01
12.000000 -4.000000 6.990318E+01
12.000000 -6.000000 5.536489E+01
12.000000 -8.000000 3.386612E+01
12.000000 -10.000000 2.387807E+01
12.000000 -12.000000 2.412390E+01
12.000000 -14.000000 2.315034E+01
12.000000 -16.000000 1.796800E+01
12.000000 -18.000000 -9.070606E-01
12.000000 -20.000000 -3.197112E+01
12.000000 -22.000000 -5.241061E+01
12.000000 -24.000000 -4.485680E+01
12.000000 -26.000000 -2.483992E+01
12.000000 -28.000000 -1.298596E+01
12.000000 -30.000000 -1.388573E+01
12.000000 -32.000000 -2.438425E+01
12.000000 -34.000000 -3.405718E+01
12.000000 -36.000000 -3.447652E+01
12.000000 -38.000000 -3.010070E+01
12.000000 -40.000000 -3.178779E+01
14.000000 40.000000 3.896015E+01
14.000000 38.000000 2.924912E+01
14.000000 36.000000 2.041722E+01
14.000000 34.000000 8.840827E+00
14.000000 32.000000 -7.648190E-01
14.000000 30.000000 -1.701483E+00
14.000000 28.000000 5.196495E+00
14.000000 26.000000 5.939566E+00
14.000000 24.000000 -5.983620E+00
14.000000 22.000000 -2.484665E+01
14.000000 20.000000 -3.546341E+01
14.000000 18.000000 -2.397240E+01
14.000000 16.000000 -5.671041E+00
14.000000 14.000000 -1.138767E+01
14.000000 12.000000 -6.168625E+01
14.000000 10.000000 -1.438238E+02
14.000000 8.000000 -2.045401E+02
14.000000 6.000000 -2.134928E+02
14.000000 4.000000 -1.675926E+02
14.000000 2.000000 -9.727543E+01
14.000000 0.000000 -2.198487E+01
14.000000 -2.000000 3.899721E+01
14.000000 -4.000000 7.434312E+01
14.000000 -6.000000 8.027945E+01
14.000000 -8.000000 8.127333E+01
14.000000 -10.000000 9.104531E+01
14.000000 -12.000000 9.754389E+01
14.000000 -14.000000 9.393700E+01
14.000000 -16.000000 7.304400E+01
14.000000 -18.000000 3.570069E+01
14.000000 -20.000000 -7.069470E+00
14.000000 -22.000000 -3.219907E+01
14.000000 -24.000000 -2.940412E+01
14.000000 -26.000000 -1.373934E+01
14.000000 -28.000000 -5.824027E+00
14.000000 -30.000000 -9.703733E+00
14.000000 -32.000000 -2.345488E+01
14.000000 -34.000000 -3.516816E+01
14.000000 -36.000000 -3.703773E+01
14.000000 -38.000000 -3.343532E+01
14.000000 -40.000000 -3.661204E+01
16.000000 40.000000 4.163173E+01
16.000000 38.000000 2.663451E+01
16.000000 36.000000 1.265860E+01
16.000000 34.000000 -3.652214E+00
16.000000 32.000000 -1.590011E+01
16.000000 30.000000 -1.632670E+01
16.000000 28.000000 -6.158344E+00
16.000000 26.000000 -5.499620E-01
16.000000 24.000000 -8.561208E+00
16.000000 22.000000 -2.855510E+01
16.000000 20.000000 -4.398822E+01
16.000000 18.000000 -3.564247E+01
16.000000 16.000000 -1.673065E+01
16.000000 14.000000 -2.048931E+01
16.000000 12.000000 -6.911303E+01
16.000000 10.000000 -1.534879E+02
16.000000 8.000000 -2.190599E+02
16.000000 6.000000 -2.350070E+02
16.000000 4.000000 -1.931331E+02
16.000000 2.000000 -1.228386E+02
16.000000 0.000000 -4.256566E+01
16.000000 -2.000000 2.461983E+01
16.000000 -4.000000 6.930576E+01
16.000000 -6.000000 9.140903E+01
16.000000 -8.000000 1.110786E+02
16.000000 -10.000000 1.387772E+02
16.000000 -12.000000 1.566569E+02
16.000000 -14.000000 1.528610E+02
16.000000 -16.000000 1.199931E+02
16.000000 -18.000000 7.060919E+01
16.000000 -20.000000 2.122990E+01
16.000000 -22.000000 -7.395449E+00
16.000000 -24.000000 -1.104084E+01
16.000000 -26.000000 -2.888627E+00
16.000000 -28.000000 -1.441155E+00
16.000000 -30.000000 -8.814035E+00
16.000000 -32.000000 -2.334736E+01
16.000000 -34.000000 -3.333011E+01
16.000000 -36.000000 -3.507251E+01
16.000000 -38.000000 -3.422986E+01
16.000000 -40.000000 -4.048741E+01
18.000000 40.000000 3.874746E+01
18.000000 38.000000 1.946159E+01
18.000000 36.000000 2.639004E+00
18.000000 34.000000 -1.459580E+01
18.000000 32.000000 -2.621950E+01
18.000000 30.000000 -2.592018E+01
18.000000 28.000000 -1.366180E+01
18.000000 26.000000 -2.759038E+00
18.000000 24.000000 -4.362234E+00
18.000000 22.000000 -2.225118E+01
18.000000 20.000000 -3.951023E+01
18.000000 18.000000 -3.356195E+01
18.000000 16.000000 -1.316408E+01
18.000000 14.000000 -1.071991E+01
18.000000 12.000000 -5.686697E+01
18.000000 10.000000 -1.507272E+02
18.000000 8.000000 -2.312833E+02
18.000000 6.000000 -2.590273E+02
18.000000 4.000000 -2.222297E+02
18.000000 2.000000 -1.503710E+02
18.000000 0.000000 -6.614985E+01
18.000000 -2.000000 3.966154E+00
18.000000 -4.000000 5.509058E+01
18.000000 -6.000000 9.134831E+01
18.000000 -8.000000 1.255496E+02
18.000000 -10.000000 1.655881E+02
18.000000 -12.000000 1.933293E+02
18.000000 -14.000000 1.882734E+02
18.000000 -16.000000 1.470352E+02
18.000000 -18.000000 9.027462E+01
18.000000 -20.000000 3.742876E+01
18.000000 -22.000000 6.904513E+00
18.000000 -24.000000 -1.362070E+00
18.000000 -26.000000 1.502976E+00
18.000000 -28.000000 -1.325598E+00
18.000000 -30.000000 -1.111271E+01
18.000000 -32.000000 -2.298637E+01
18.000000 -34.000000 -2.756192E+01
18.000000 -36.000000 -2.840167E+01
18.000000 -38.000000 -3.224560E+01
18.000000 -40.000000 -4.313224E+01
20.000000 40.000000 3.185587E+01
20.000000 38.000000 1.073547E+01
20.000000 36.000000 -4.451107E+00
20.000000 34.000000 -1.888343E+01
20.000000 32.000000 -2.942953E+01
20.000000 30.000000 -2.967797E+01
20.000000 28.000000 -1.844315E+01
20.000000 26.000000 -6.283424E+00
20.000000 24.000000 -2.688796E+00
20.000000 22.000000 -1.584771E+01
20.000000 20.000000 -3.076715E+01
20.000000 18.000000 -2.359946E+01
20.000000 16.000000 2.067315E+00
20.000000 14.000000 1.755898E+01
20.000000 12.000000 -2.214227E+01
20.000000 10.000000 -1.293114E+02
20.000000 8.000000 -2.318524E+02
20.000000 6.000000 -2.741230E+02
20.000000 4.000000 -2.475497E+02
20.000000 2.000000 -1.838347E+02
20.000000 0.000000 -1.054001E+02
20.000000 -2.000000 -2.845580E+01
20.000000 -4.000000 3.589378E+01
20.000000 -6.000000 8.893877E+01
20.000000 -8.000000 1.371401E+02
20.000000 -10.000000 1.850306E+02
20.000000 -12.000000 2.123047E+02
20.000000 -14.000000 1.982784E+02
20.000000 -16.000000 1.480737E+02
20.000000 -18.000000 8.686452E+01
20.000000 -20.000000 3.433578E+01
20.000000 -22.000000 5.179733E+00
20.000000 -24.000000 -3.939935E+00
20.000000 -26.000000 -3.195056E+00
20.000000 -28.000000 -7.523868E+00
20.000000 -30.000000 -1.597494E+01
20.000000 -32.000000 -2.229139E+01
20.000000 -34.000000 -2.125819E+01
20.000000 -36.000000 -2.099995E+01
20.000000 -38.000000 -2.891482E+01
20.000000 -40.000000 -4.449887E+01
22.000000 40.000000 2.992014E+01
22.000000 38.000000 6.492693E+00
22.000000 36.000000 -8.239346E+00
22.000000 34.000000 -2.078366E+01
22.000000 32.000000 -3.218987E+01
22.000000 30.000000 -3.365550E+01
22.000000 28.000000 -2.418556E+01
22.000000 26.000000 -1.220718E+01
22.000000 24.000000 -4.944434E+00
22.000000 22.000000 -1.244264E+01
22.000000 20.000000 -2.309216E+01
22.000000 18.000000 -1.497591E+01
22.000000 16.000000 1.341015E+01
22.000000 14.000000 3.570937E+01
22.000000 12.000000 4.908738E-01
22.000000 10.000000 -1.100958E+02
22.000000 8.000000 -2.216307E+02
22.000000 6.000000 -2.705356E+02
22.000000 4.000000 -2.535523E+02
22.000000 2.000000 -2.020064E+02
22.000000 0.000000 -1.320438E+02
22.000000 -2.000000 -5.041110E+01
22.000000 -4.000000 2.719961E+01
22.000000 -6.000000 9.603550E+01
22.000000 -8.000000 1.550313E+02
22.000000 -10.000000 2.044525E+02
22.000000 -12.000000 2.195095E+02
22.000000 -14.000000 1.868115E+02
22.000000 -16.000000 1.226937E+02
22.000000 -18.000000 5.946536E+01
22.000000 -20.000000 1.221905E+01
22.000000 -22.000000 -1.168591E+01
22.000000 -24.000000 -1.889804E+01
22.000000 -26.000000 -1.820678E+01
22.000000 -28.000000 -2.127950E+01
22.000000 -30.000000 -2.459877E+01
22.000000 -32.000000 -2.351089E+01
22.000000 -34.000000 -1.730221E+01
22.000000 -36.000000 -1.612188E+01
22.000000 -38.000000 -2.553493E+01
22.000000 -40.000000 -4.349749E+01
24.000000 40.000000 3.687767E+01
24.000000 38.000000 9.433939E+00
24.000000 36.000000 -8.063978E+00
24.000000 34.000000 -2.151992E+01
24.000000 32.000000 -3.388482E+01
24.000000 30.000000 -3.762248E+01
24.000000 28.000000 -3.154154E+01
24.000000 26.000000 -2.018375E+01
24.000000 24.000000 -1.256282E+01
24.000000 22.000000 -1.703713E+01
24.000000 20.000000 -2.481456E+01
24.000000 18.000000 -1.600380E+01
24.000000 16.000000 9.451520E+00
24.000000 14.000000 2.545650E+01
24.000000 12.000000 -1.128669E+01
24.000000 10.000000 -1.087876E+02
24.000000 8.000000 -2.046068E+02
24.000000 6.000000 -2.482453E+02
24.000000 4.000000 -2.371812E+02
24.000000 2.000000 -1.962601E+02
24.000000 0.000000 -1.329472E+02
24.000000 -2.000000 -4.764251E+01
24.000000 -4.000000 4.268972E+01
24.000000 -6.000000 1.213321E+02
24.000000 -8.000000 1.823900E+02
24.000000 -10.000000 2.270061E+02
24.000000 -12.000000 2.235728E+02
24.000000 -14.000000 1.658335E+02
24.000000 -16.000000 8.318436E+01
24.000000 -18.000000 1.998414E+01
24.000000 -20.000000 -1.973204E+01
24.000000 -22.000000 -3.815449E+01
24.000000 -24.000000 -4.325304E+01
24.000000 -26.000000 -4.104705E+01
24.000000 -28.000000 -4.014471E+01
24.000000 -30.000000 -3.650556E+01
24.000000 -32.000000 -2.757108E+01
24.000000 -34.000000 -1.632548E+01
24.000000 -36.000000 -1.467173E+01
24.000000 -38.000000 -2.396131E+01
24.000000 -40.000000 -4.147492E+01
26.000000 40.000000 4.761270E+01
26.000000 38.000000 1.859722E+01
26.000000 36.000000 -1.728897E-01
26.000000 34.000000 -1.625386E+01
26.000000 32.000000 -2.929062E+01
26.000000 30.000000 -3.551187E+01
26.000000 28.000000 -3.554134E+01
26.000000 26.000000 -2.905713E+01
26.000000 24.000000 -2.632021E+01
26.000000 22.000000 -3.229855E+01
26.000000 20.000000 -4.137458E+01
26.000000 18.000000 -3.170965E+01
26.000000 16.000000 -7.751216E+00
26.000000 14.000000 4.380607E+00
26.000000 12.000000 -2.822156E+01
26.000000 10.000000 -1.050964E+02
26.000000 8.000000 -1.780447E+02
26.000000 6.000000 -2.136782E+02
26.000000 4.000000 -2.112983E+02
26.000000 2.000000 -1.835110E+02
26.000000 0.000000 -1.275130E+02
26.000000 -2.000000 -3.901495E+01
26.000000 -4.000000 6.210466E+01
26.000000 -6.000000 1.483306E+02
26.000000 -8.000000 2.083814E+02
26.000000 -10.000000 2.473972E+02
26.000000 -12.000000 2.282847E+02
26.000000 -14.000000 1.532358E+02
26.000000 -16.000000 5.682820E+01
26.000000 -18.000000 -1.192583E+01
26.000000 -20.000000 -5.060695E+01
26.000000 -22.000000 -6.619139E+01
26.000000 -24.000000 -6.844997E+01
26.000000 -26.000000 -6.291531E+01
26.000000 -28.000000 -5.780984E+01
26.000000 -30.000000 -4.829545E+01
26.000000 -32.000000 -3.369929E+01
26.000000 -34.000000 -1.883082E+01
26.000000 -36.000000 -1.667666E+01
26.000000 -38.000000 -2.524195E+01
26.000000 -40.000000 -4.099375E+01
28.000000 40.000000 5.685645E+01
28.000000 38.000000 3.036270E+01
28.000000 36.000000 1.219851E+01
28.000000 34.000000 -6.321430E+00
28.000000 32.000000 -1.946012E+01
28.000000 30.000000 -2.523405E+01
28.000000 28.000000 -2.756042E+01
28.000000 26.000000 -2.760309E+01
28.000000 24.000000 -3.256865E+01
28.000000 22.000000 -4.395933E+01
28.000000 20.000000 -5.673204E+01
28.000000 18.000000 -4.562547E+01
28.000000 16.000000 -1.875402E+01
28.000000 14.000000 -5.737150E+00
28.000000 12.000000 -3.315478E+01
28.000000 10.000000 -9.483997E+01
28.000000 8.000000 -1.511908E+02
28.000000 6.000000 -1.781672E+02
28.000000 4.000000 -1.832344E+02
28.000000 2.000000 -1.697844E+02
28.000000 0.000000 -1.239754E+02
28.000000 -2.000000 -3.923619E+01
28.000000 -4.000000 6.441444E+01
28.000000 -6.000000 1.559678E+02
28.000000 -8.000000 2.166494E+02
28.000000 -10.000000 2.522445E+02
28.000000 -12.000000 2.255504E+02
28.000000 -14.000000 1.476828E+02
28.000000 -16.000000 4.953732E+01
28.000000 -18.000000 -2.721374E+01
28.000000 -20.000000 -7.096293E+01
28.000000 -22.000000 -8.685145E+01
28.000000 -24.000000 -8.583407E+01
28.000000 -26.000000 -7.575680E+01
28.000000 -28.000000 -6.811995E+01
28.000000 -30.000000 -5.716392E+01
28.000000 -32.000000 -4.168973E+01
28.000000 -34.000000 -2.486679E+01
28.000000 -36.000000 -2.066998E+01
28.000000 -38.000000 -2.742675E+01
28.000000 -40.000000 -4.133849E+01
30.000000 40.000000 6.102657E+01
30.000000 38.000000 3.991621E+01
30.000000 36.000000 2.403909E+01
30.000000 34.000000 6.490982E+00
30.000000 32.000000 -4.537266E+00
30.000000 30.000000 -8.080875E+00
30.000000 28.000000 -7.477194E+00
30.000000 26.000000 -8.849575E+00
30.000000 24.000000 -1.813315E+01
30.000000 22.000000 -3.642908E+01
30.000000 20.000000 -5.337475E+01
30.000000 18.000000 -4.082811E+01
30.000000 16.000000 -1.110455E+01
30.000000 14.000000 1.642474E+00
30.000000 12.000000 -2.838273E+01
30.000000 10.000000 -9.041489E+01
30.000000 8.000000 -1.396863E+02
30.000000 6.000000 -1.570009E+02
30.000000 4.000000 -1.571645E+02
30.000000 2.000000 -1.483585E+02
30.000000 0.000000 -1.137878E+02
30.000000 -2.000000 -4.216424E+01
30.000000 -4.000000 5.416159E+01
30.000000 -6.000000 1.444307E+02
30.000000 -8.000000 2.043967E+02
30.000000 -10.000000 2.365605E+02
30.000000 -12.000000 2.079019E+02
30.000000 -14.000000 1.332449E+02
30.000000 -16.000000 4.141586E+01
30.000000 -18.000000 -3.301947E+01
30.000000 -20.000000 -7.683607E+01
30.000000 -22.000000 -9.306839E+01
30.000000 -24.000000 -8.981042E+01
30.000000 -26.000000 -7.752787E+01
30.000000 -28.000000 -7.035420E+01
30.000000 -30.000000 -6.127135E+01
30.000000 -32.000000 -4.769215E+01
30.000000 -34.000000 -3.010372E+01
30.000000 -36.000000 -2.361189E+01
30.000000 -38.000000 -2.876300E+01
30.000000 -40.000000 -4.147307E+01
32.000000 40.000000 5.984661E+01
32.000000 38.000000 4.561855E+01
32.000000 36.000000 3.411688E+01
32.000000 34.000000 2.107395E+01
32.000000 32.000000 1.283989E+01
32.000000 30.000000 1.052968E+01
32.000000 28.000000 1.557675E+01
32.000000 26.000000 1.883310E+01
32.000000 24.000000 1.247078E+01
32.000000 22.000000 -8.536196E+00
32.000000 20.000000 -2.757394E+01
32.000000 18.000000 -1.716286E+01
32.000000 16.000000 7.899621E+00
32.000000 14.000000 1.301581E+01
32.000000 12.000000 -2.560564E+01
32.000000 10.000000 -9.280131E+01
32.000000 8.000000 -1.380834E+02
32.000000 6.000000 -1.476285E+02
32.000000 4.000000 -1.359183E+02
32.000000 2.000000 -1.223641E+02
32.000000 0.000000 -9.429174E+01
32.000000 -2.000000 -3.639641E+01
32.000000 -4.000000 4.656244E+01
32.000000 -6.000000 1.275066E+02
32.000000 -8.000000 1.828562E+02
32.000000 -10.000000 2.099585E+02
32.000000 -12.000000 1.800635E+02
32.000000 -14.000000 1.086036E+02
32.000000 -16.000000 2.683092E+01
32.000000 -18.000000 -3.522510E+01
32.000000 -20.000000 -7.236220E+01
32.000000 -22.000000 -8.661190E+01
32.000000 -24.000000 -8.250818E+01
32.000000 -26.000000 -7.147842E+01
32.000000 -28.000000 -6.588798E+01
32.000000 -30.000000 -5.946477E+01
32.000000 -32.000000 -4.856312E+01
32.000000 -34.000000 -3.165696E+01
32.000000 -36.000000 -2.383938E+01
32.000000 -38.000000 -2.805624E+01
32.000000 -40.000000 -4.068179E+01
34.000000 40.000000 5.858043E+01
34.000000 38.000000 4.858137E+01
34.000000 36.000000 3.938391E+01
34.000000 34.000000 2.915913E+01
34.000000 32.000000 2.176965E+01
34.000000 30.000000 2.095710E+01
34.000000 28.000000 3.220349E+01
34.000000 26.000000 4.352999E+01
34.000000 24.000000 4.747418E+01
34.000000 22.000000 3.047175E+01
34.000000 20.000000 1.276657E+01
34.000000 18.000000 1.508011E+01
34.000000 16.000000 2.544446E+01
34.000000 14.000000 1.543359E+01
34.000000 12.000000 -3.309651E+01
34.000000 10.000000 -1.026289E+02
34.000000 8.000000 -1.412380E+02
34.000000 6.000000 -1.406444E+02
34.000000 4.000000 -1.160570E+02
34.000000 2.000000 -9.436615E+01
34.000000 0.000000 -6.741261E+01
34.000000 -2.000000 -1.946365E+01
34.000000 -4.000000 4.661136E+01
34.000000 -6.000000 1.114068E+02
34.000000 -8.000000 1.590810E+02
34.000000 -10.000000 1.830104E+02
34.000000 -12.000000 1.538312E+02
34.000000 -14.000000 8.705653E+01
34.000000 -16.000000 1.798493E+01
34.000000 -18.000000 -2.880946E+01
34.000000 -20.000000 -5.843575E+01
34.000000 -22.000000 -7.118732E+01
34.000000 -24.000000 -6.788078E+01
34.000000 -26.000000 -5.916426E+01
34.000000 -28.000000 -5.410849E+01
34.000000 -30.000000 -5.034010E+01
34.000000 -32.000000 -4.365883E+01
34.000000 -34.000000 -3.007350E+01
34.000000 -36.000000 -2.262999E+01
34.000000 -38.000000 -2.589998E+01
34.000000 -40.000000 -3.895667E+01
36.000000 40.000000 6.094144E+01
36.000000 38.000000 4.944323E+01
36.000000 36.000000 3.824503E+01
36.000000 34.000000 2.573888E+01
36.000000 32.000000 1.638809E+01
36.000000 30.000000 1.715961E+01
36.000000 28.000000 3.442165E+01
36.000000 26.000000 5.488562E+01
36.000000 24.000000 7.094360E+01
36.000000 22.000000 6.236968E+01
36.000000 20.000000 4.868042E+01
36.000000 18.000000 4.187189E+01
36.000000 16.000000 3.660103E+01
36.000000 14.000000 1.264797E+01
36.000000 12.000000 -4.258874E+01
36.000000 10.000000 -1.114449E+02
36.000000 8.000000 -1.406091E+02
36.000000 6.000000 -1.266305E+02
36.000000 4.000000 -9.117042E+01
36.000000 2.000000 -6.627658E+01
36.000000 0.000000 -4.357122E+01
36.000000 -2.000000 -8.536846E+00
36.000000 -4.000000 3.766739E+01
36.000000 -6.000000 8.422418E+01
36.000000 -8.000000 1.246919E+02
36.000000 -10.000000 1.511066E+02
36.000000 -12.000000 1.329557E+02
36.000000 -14.000000 8.266247E+01
36.000000 -16.000000 3.146284E+01
36.000000 -18.000000 -2.415664E+00
36.000000 -20.000000 -2.758214E+01
36.000000 -22.000000 -4.183983E+01
36.000000 -24.000000 -4.330327E+01
36.000000 -26.000000 -3.883660E+01
36.000000 -28.000000 -3.573398E+01
36.000000 -30.000000 -3.577542E+01
36.000000 -32.000000 -3.456855E+01
36.000000 -34.000000 -2.634593E+01
36.000000 -36.000000 -2.116618E+01
36.000000 -38.000000 -2.468890E+01
36.000000 -40.000000 -3.832444E+01
38.000000 40.000000 6.751794E+01
38.000000 38.000000 5.050634E+01
38.000000 36.000000 3.450351E+01
38.000000 34.000000 1.601679E+01
38.000000 32.000000 2.048767E+00
38.000000 30.000000 1.325333E+00
38.000000 28.000000 2.012930E+01
38.000000 26.000000 4.558322E+01
38.000000 24.000000 6.810944E+01
38.000000 22.000000 6.656392E+01
38.000000 20.000000 5.652843E+01
38.000000 18.000000 4.734960E+01
38.000000 16.000000 3.847495E+01
38.000000 14.000000 1.272603E+01
38.000000 12.000000 -4.093592E+01
38.000000 10.000000 -1.054141E+02
38.000000 8.000000 -1.271705E+02
38.000000 6.000000 -1.028653E+02
38.000000 4.000000 -5.943405E+01
38.000000 2.000000 -3.614164E+01
38.000000 0.000000 -2.305213E+01
38.000000 -2.000000 -5.450218E+00
38.000000 -4.000000 1.798536E+01
38.000000 -6.000000 4.399998E+01
38.000000 -8.000000 7.661477E+01
38.000000 -10.000000 1.091917E+02
38.000000 -12.000000 1.127850E+02
38.000000 -14.000000 9.021112E+01
38.000000 -16.000000 6.252383E+01
38.000000 -18.000000 4.147063E+01
38.000000 -20.000000 1.942906E+01
38.000000 -22.000000 1.200295E+00
38.000000 -24.000000 -9.717110E+00
38.000000 -26.000000 -1.414523E+01
38.000000 -28.000000 -1.689520E+01
38.000000 -30.000000 -2.272762E+01
38.000000 -32.000000 -2.650917E+01
38.000000 -34.000000 -2.179575E+01
38.000000 -36.000000 -1.805172E+01
38.000000 -38.000000 -2.271652E+01
