-10.000000 26.000000 4.674727E+01
-10.000000 24.000000 4.787801E+01
-10.000000 22.000000 4.954666E+01
-10.000000 20.000000 6.292782E+01
-10.000000 18.000000 1.036698E+02
-10.000000 16.000000 1.726587E+02
-10.000000 14.000000 2.443469E+02
-10.000000 12.000000 2.787457E+02
-10.000000 10.000000 2.588774E+02
-10.000000 8.000000 1.848811E+02
-10.000000 6.000000 1.015639E+02
-10.000000 4.000000 3.761714E+01
-10.000000 2.000000 1.080239E+01
-10.000000 0.000000 6.770741E+00
-10.000000 -2.000000 1.291611E+01
-10.000000 -4.000000 2.004570E+01
-10.000000 -6.000000 1.572120E+01
-10.000000 -8.000000 3.558140E+00
-10.000000 -10.000000 -7.111076E+00
-10.000000 -12.000000 -2.091602E+00
-10.000000 -14.000000 1.118288E+01
-10.000000 -16.000000 2.175444E+01
-10.000000 -18.000000 2.332656E+01
-10.000000 -20.000000 1.495461E+01
-10.000000 -22.000000 9.333805E+00
-10.000000 -24.000000 1.764325E+01
-10.000000 -26.000000 2.795169E+01
-10.000000 -28.000000 2.934799E+01
-10.000000 -30.000000 2.389984E+01
-10.000000 -32.000000 1.750221E+01
-10.000000 -34.000000 2.122004E+01
-10.000000 -36.000000 3.642766E+01
-10.000000 -38.000000 5.421207E+01
-10.000000 -40.000000 6.861435E+01
-8.000000 40.000000 2.008347E+01
-8.000000 38.000000 2.781353E+01
-8.000000 36.000000 3.421886E+01
-8.000000 34.000000 4.315753E+01
-8.000000 32.000000 4.786714E+01
-8.000000 30.000000 4.938666E+01
-8.000000 28.000000 4.715647E+01
-8.000000 26.000000 4.676628E+01
-8.000000 24.000000 4.589743E+01
-8.000000 22.000000 4.427618E+01
-8.000000 20.000000 5.594087E+01
-8.000000 18.000000 9.641078E+01
-8.000000 16.000000 1.657742E+02
-8.000000 14.000000 2.400116E+02
-8.000000 12.000000 2.827995E+02
-8.000000 10.000000 2.759240E+02
-8.000000 8.000000 2.113946E+02
-8.000000 6.000000 1.285039E+02
-8.000000 4.000000 5.325184E+01
-8.000000 2.000000 1.165872E+01
-8.000000 0.000000 -1.132534E+00
-8.000000 -2.000000 4.619331E+00
-8.000000 -4.000000 1.458686E+01
-8.000000 -6.000000 1.457853E+01
-8.000000 -8.000000 3.980621E+00
-8.000000 -10.000000 -3.989937E+00
-8.000000 -12.000000 1.431992E+00
-8.000000 -14.000000 1.218940E+01
-8.000000 -16.000000 1.891016E+01
-8.000000 -18.000000 1.709382E+01
-8.000000 -20.000000 5.882133E+00
-8.000000 -22.000000 -2.609142E+00
-8.000000 -24.000000 2.928902E+00
-8.000000 -26.000000 1.218751E+01
-8.000000 -28.000000 1.483529E+01
-8.000000 -30.000000 9.804489E+00
-8.000000 -32.000000 3.482433E+00
-8.000000 -34.000000 9.857323E+00
-8.000000 -36.000000 3.160072E+01
-8.000000 -38.000000 5.402412E+01
-8.000000 -40.000000 7.023638E+01
-6.000000 40.000000 2.169076E+01
-6.000000 38.000000 3.179074E+01
-6.000000 36.000000 4.060362E+01
-6.000000 34.000000 5.089646E+01
-6.000000 32.000000 5.296760E+01
-6.000000 30.000000 4.880565E+01
-6.000000 28.000000 4.014849E+01
-6.000000 26.000000 3.511673E+01
-6.000000 24.000000 2.935343E+01
-6.000000 22.000000 2.362646E+01
-6.000000 20.000000 3.101833E+01
-6.000000 18.000000 7.087527E+01
-6.000000 16.000000 1.427026E+02
-6.000000 14.000000 2.215188E+02
-6.000000 12.000000 2.751901E+02
-6.000000 10.000000 2.847902E+02
-6.000000 8.000000 2.336231E+02
-6.000000 6.000000 1.537194E+02
-6.000000 4.000000 6.862500E+01
-6.000000 2.000000 1.344233E+01
-6.000000 0.000000 -7.529465E+00
-6.000000 -2.000000 -1.442909E+00
-6.000000 -4.000000 1.284179E+01
-6.000000 -6.000000 1.814876E+01
-6.000000 -8.000000 9.579220E+00
-6.000000 -10.000000 3.636925E+00
-6.000000 -12.000000 8.809330E+00
-6.000000 -14.000000 1.746374E+01
-6.000000 -16.000000 2.041731E+01
-6.000000 -18.000000 1.657553E+01
-6.000000 -20.000000 5.498230E+00
-6.000000 -22.000000 -4.152386E+00
-6.000000 -24.000000 -2.622852E+00
-6.000000 -26.000000 3.285877E+00
-6.000000 -28.000000 5.974049E+00
-6.000000 -30.000000 2.375801E+00
-6.000000 -32.000000 -2.308769E+00
-6.000000 -34.000000 6.041142E+00
-6.000000 -36.000000 3.072198E+01
-6.000000 -38.000000 5.462621E+01
-6.000000 -40.000000 7.136868E+01
-4.000000 40.000000 2.664597E+01
-4.000000 38.000000 3.986270E+01
-4.000000 36.000000 5.078068E+01
-4.000000 34.000000 5.718167E+01
-4.000000 32.000000 5.198377E+01
-4.000000 30.000000 4.036762E+01
-4.000000 28.000000 2.435224E+01
-4.000000 26.000000 1.345881E+01
-4.000000 24.000000 2.027283E+00
-4.000000 22.000000 -6.067627E+00
-4.000000 20.000000 -2.711243E+00
-4.000000 18.000000 3.527230E+01
-4.000000 16.000000 1.091623E+02
-4.000000 14.000000 1.925763E+02
-4.000000 12.000000 2.582079E+02
-4.000000 10.000000 2.876572E+02
-4.000000 8.000000 2.545823E+02
-4.000000 6.000000 1.799566E+02
-4.000000 4.000000 8.545380E+01
-4.000000 2.000000 1.811951E+01
-4.000000 0.000000 -8.982712E+00
-4.000000 -2.000000 -2.536327E+00
-4.000000 -4.000000 1.472110E+01
-4.000000 -6.000000 2.201703E+01
-4.000000 -8.000000 1.375543E+01
-4.000000 -10.000000 7.813622E+00
-4.000000 -12.000000 1.333198E+01
-4.000000 -14.000000 2.327362E+01
-4.000000 -16.000000 2.569325E+01
-4.000000 -18.000000 2.229485E+01
-4.000000 -20.000000 1.325622E+01
-4.000000 -22.000000 3.824169E+00
-4.000000 -24.000000 2.218010E+00
-4.000000 -26.000000 5.059998E+00
-4.000000 -28.000000 6.580566E+00
-4.000000 -30.000000 4.227951E+00
-4.000000 -32.000000 1.821712E+00
-4.000000 -34.000000 1.034483E+01
-4.000000 -36.000000 3.281473E+01
-4.000000 -38.000000 5.492668E+01
-4.000000 -40.000000 7.170242E+01
-2.000000 40.000000 3.242280E+01
-2.000000 38.000000 4.659922E+01
-2.000000 36.000000 5.602855E+01
-2.000000 34.000000 5.575369E+01
-2.000000 32.000000 4.365710E+01
-2.000000 30.000000 2.770101E+01
-2.000000 28.000000 8.974869E+00
-2.000000 26.000000 -4.559021E+00
-2.000000 24.000000 -2.003246E+01
-2.000000 22.000000 -2.839644E+01
-2.000000 20.000000 -2.760243E+01
-2.000000 18.000000 5.628006E+00
-2.000000 16.000000 7.706519E+01
-2.000000 14.000000 1.620454E+02
-2.000000 12.000000 2.376479E+02
-2.000000 10.000000 2.856386E+02
-2.000000 8.000000 2.704509E+02
-2.000000 6.000000 2.004305E+02
-2.000000 4.000000 9.715739E+01
-2.000000 2.000000 2.084540E+01
-2.000000 0.000000 -9.381981E+00
-2.000000 -2.000000 -2.235317E+00
-2.000000 -4.000000 1.605938E+01
-2.000000 -6.000000 2.205029E+01
-2.000000 -8.000000 1.339933E+01
-2.000000 -10.000000 6.790123E+00
-2.000000 -12.000000 1.188536E+01
-2.000000 -14.000000 2.390650E+01
-2.000000 -16.000000 3.018274E+01
-2.000000 -18.000000 2.898370E+01
-2.000000 -20.000000 2.243076E+01
-2.000000 -22.000000 1.463705E+01
-2.000000 -24.000000 1.314539E+01
-2.000000 -26.000000 1.584842E+01
-2.000000 -28.000000 1.765909E+01
-2.000000 -30.000000 1.718243E+01
-2.000000 -32.000000 1.627108E+01
-2.000000 -34.000000 2.196723E+01
-2.000000 -36.000000 3.853911E+01
-2.000000 -38.000000 5.575818E+01
-2.000000 -40.000000 6.975961E+01
0.000000 40.000000 3.538728E+01
0.000000 38.000000 4.758429E+01
0.000000 36.000000 5.175851E+01
0.000000 34.000000 4.466069E+01
0.000000 32.000000 2.908928E+01
0.000000 30.000000 1.447681E+01
0.000000 28.000000 7.273026E-01
0.000000 26.000000 -8.569420E+00
0.000000 24.000000 -2.240199E+01
0.000000 22.000000 -3.107564E+01
0.000000 20.000000 -3.247261E+01
0.000000 18.000000 -5.845894E+00
0.000000 16.000000 5.773386E+01
0.000000 14.000000 1.412545E+02
0.000000 12.000000 2.248501E+02
0.000000 10.000000 2.843919E+02
0.000000 8.000000 2.764228E+02
0.000000 6.000000 2.072053E+02
0.000000 4.000000 9.922474E+01
0.000000 2.000000 1.769510E+01
0.000000 0.000000 -1.506725E+01
0.000000 -2.000000 -7.228737E+00
0.000000 -4.000000 1.244324E+01
0.000000 -6.000000 1.796395E+01
0.000000 -8.000000 8.757877E+00
0.000000 -10.000000 1.062515E+00
0.000000 -12.000000 4.991760E+00
0.000000 -14.000000 1.721764E+01
0.000000 -16.000000 2.708127E+01
0.000000 -18.000000 2.947822E+01
0.000000 -20.000000 2.646756E+01
0.000000 -22.000000 2.234807E+01
0.000000 -24.000000 2.470777E+01
0.000000 -26.000000 3.012554E+01
0.000000 -28.000000 3.562224E+01
0.000000 -30.000000 3.817487E+01
0.000000 -32.000000 3.731609E+01
0.000000 -34.000000 3.835124E+01
0.000000 -36.000000 4.777456E+01
0.000000 -38.000000 5.754055E+01
0.000000 -40.000000 6.564157E+01
2.000000 40.000000 3.430246E+01
2.000000 38.000000 4.364805E+01
2.000000 36.000000 4.143222E+01
2.000000 34.000000 2.761409E+01
2.000000 32.000000 1.096179E+01
2.000000 30.000000 2.448669E+00
2.000000 28.000000 -1.347973E+00
2.000000 26.000000 -9.445953E-01
2.000000 24.000000 -6.217415E+00
2.000000 22.000000 -1.502891E+01
2.000000 20.000000 -1.924630E+01
2.000000 18.000000 -9.766464E-01
2.000000 16.000000 5.200032E+01
2.000000 14.000000 1.319485E+02
2.000000 12.000000 2.207068E+02
2.000000 10.000000 2.861687E+02
2.000000 8.000000 2.775726E+02
2.000000 6.000000 2.064957E+02
2.000000 4.000000 9.694146E+01
2.000000 2.000000 1.231364E+01
2.000000 0.000000 -2.442075E+01
2.000000 -2.000000 -1.754641E+01
2.000000 -4.000000 3.477005E+00
2.000000 -6.000000 1.101781E+01
2.000000 -8.000000 2.948963E+00
2.000000 -10.000000 -5.579456E+00
2.000000 -12.000000 -4.005863E+00
2.000000 -14.000000 5.158363E+00
2.000000 -16.000000 1.584513E+01
2.000000 -18.000000 2.257827E+01
2.000000 -20.000000 2.460884E+01
2.000000 -22.000000 2.608669E+01
2.000000 -24.000000 3.397559E+01
2.000000 -26.000000 4.327915E+01
2.000000 -28.000000 5.206178E+01
2.000000 -30.000000 5.683498E+01
2.000000 -32.000000 5.607964E+01
2.000000 -34.000000 5.372525E+01
2.000000 -36.000000 5.655262E+01
2.000000 -38.000000 5.976053E+01
2.000000 -40.000000 6.291304E+01
4.000000 40.000000 3.082762E+01
4.000000 38.000000 3.674947E+01
4.000000 36.000000 2.877104E+01
4.000000 34.000000 1.011257E+01
4.000000 32.000000 -6.003956E+00
4.000000 30.000000 -7.039692E+00
4.000000 28.000000 -4.065514E-01
4.000000 26.000000 1.044356E+01
4.000000 24.000000 1.579767E+01
4.000000 22.000000 7.935390E+00
4.000000 20.000000 8.284874E-01
4.000000 18.000000 9.933556E+00
4.000000 16.000000 5.218257E+01
4.000000 14.000000 1.262823E+02
4.000000 12.000000 2.154745E+02
4.000000 10.000000 2.841672E+02
4.000000 8.000000 2.772878E+02
4.000000 6.000000 2.071612E+02
4.000000 4.000000 9.779726E+01
4.000000 2.000000 1.045631E+01
4.000000 0.000000 -3.132767E+01
4.000000 -2.000000 -2.745782E+01
4.000000 -4.000000 -5.599102E+00
4.000000 -6.000000 5.833286E+00
4.000000 -8.000000 5.938034E-01
4.000000 -10.000000 -8.712444E+00
4.000000 -12.000000 -1.019751E+01
4.000000 -14.000000 -5.420155E+00
4.000000 -16.000000 5.215618E+00
4.000000 -18.000000 1.593459E+01
4.000000 -20.000000 2.214355E+01
4.000000 -22.000000 2.815634E+01
4.000000 -24.000000 3.968454E+01
4.000000 -26.000000 5.132806E+01
4.000000 -28.000000 5.986943E+01
4.000000 -30.000000 6.493577E+01
4.000000 -32.000000 6.502417E+01
4.000000 -34.000000 6.140305E+01
4.000000 -36.000000 6.050867E+01
4.000000 -38.000000 6.126631E+01
4.000000 -40.000000 6.355972E+01
6.000000 40.000000 2.690044E+01
6.000000 38.000000 2.929440E+01
6.000000 36.000000 1.780555E+01
6.000000 34.000000 -2.291847E+00
6.000000 32.000000 -1.717038E+01
6.000000 30.000000 -1.374522E+01
6.000000 28.000000 -1.225597E+00
6.000000 26.000000 1.483135E+01
6.000000 24.000000 2.742184E+01
6.000000 22.000000 2.358916E+01
6.000000 20.000000 1.574215E+01
6.000000 18.000000 1.759718E+01
6.000000 16.000000 5.053272E+01
6.000000 14.000000 1.166450E+02
6.000000 12.000000 2.023375E+02
6.000000 10.000000 2.730706E+02
6.000000 8.000000 2.745407E+02
6.000000 6.000000 2.137433E+02
6.000000 4.000000 1.088442E+02
6.000000 2.000000 1.767193E+01
6.000000 0.000000 -3.191588E+01
6.000000 -2.000000 -3.310744E+01
6.000000 -4.000000 -9.461613E+00
6.000000 -6.000000 7.864590E+00
6.000000 -8.000000 5.416252E+00
6.000000 -10.000000 -4.336994E+00
6.000000 -12.000000 -8.971977E+00
6.000000 -14.000000 -7.547428E+00
6.000000 -16.000000 3.072609E+00
6.000000 -18.000000 1.552157E+01
6.000000 -20.000000 2.243682E+01
6.000000 -22.000000 2.917365E+01
6.000000 -24.000000 4.044067E+01
6.000000 -26.000000 5.064262E+01
6.000000 -28.000000 5.706107E+01
6.000000 -30.000000 6.180918E+01
6.000000 -32.000000 6.264720E+01
6.000000 -34.000000 5.944792E+01
6.000000 -36.000000 5.868922E+01
6.000000 -38.000000 6.096961E+01
6.000000 -40.000000 6.635839E+01
8.000000 40.000000 2.342471E+01
8.000000 38.000000 2.502127E+01
8.000000 36.000000 1.321432E+01
8.000000 34.000000 -6.815561E+00
8.000000 32.000000 -2.195029E+01
8.000000 30.000000 -1.897129E+01
8.000000 28.000000 -7.166904E+00
8.000000 26.000000 7.129089E+00
8.000000 24.000000 2.205644E+01
8.000000 22.000000 2.497554E+01
8.000000 20.000000 1.945598E+01
8.000000 18.000000 1.823295E+01
8.000000 16.000000 4.351134E+01
8.000000 14.000000 1.002506E+02
8.000000 12.000000 1.803282E+02
8.000000 10.000000 2.534034E+02
8.000000 8.000000 2.691964E+02
8.000000 6.000000 2.260623E+02
8.000000 4.000000 1.312793E+02
8.000000 2.000000 3.565681E+01
8.000000 0.000000 -2.499962E+01
8.000000 -2.000000 -3.394267E+01
8.000000 -4.000000 -7.882442E+00
8.000000 -6.000000 1.669808E+01
8.000000 -8.000000 1.504283E+01
8.000000 -10.000000 4.408920E+00
8.000000 -12.000000 -1.929070E+00
8.000000 -14.000000 9.691963E-01
8.000000 -16.000000 1.183930E+01
8.000000 -18.000000 2.181073E+01
8.000000 -20.000000 2.482265E+01
8.000000 -22.000000 2.731857E+01
8.000000 -24.000000 3.483376E+01
8.000000 -26.000000 4.147793E+01
8.000000 -28.000000 4.587705E+01
8.000000 -30.000000 5.061701E+01
8.000000 -32.000000 5.216532E+01
8.000000 -34.000000 5.134366E+01
8.000000 -36.000000 5.415645E+01
8.000000 -38.000000 6.008320E+01
8.000000 -40.000000 6.943889E+01
10.000000 40.000000 2.087320E+01
10.000000 38.000000 2.458137E+01
10.000000 36.000000 1.513201E+01
10.000000 34.000000 -4.381838E+00
10.000000 32.000000 -2.212755E+01
10.000000 30.000000 -2.396283E+01
10.000000 28.000000 -1.745147E+01
10.000000 26.000000 -8.673702E+00
10.000000 24.000000 5.056324E+00
10.000000 22.000000 1.543547E+01
10.000000 20.000000 1.451087E+01
10.000000 18.000000 1.417764E+01
10.000000 16.000000 3.417911E+01
10.000000 14.000000 8.260348E+01
10.000000 12.000000 1.568591E+02
10.000000 10.000000 2.325982E+02
10.000000 8.000000 2.636027E+02
10.000000 6.000000 2.387878E+02
10.000000 4.000000 1.551011E+02
10.000000 2.000000 5.633726E+01
10.000000 0.000000 -1.431482E+01
10.000000 -2.000000 -3.224053E+01
10.000000 -4.000000 -7.844501E+00
10.000000 -6.000000 1.884636E+01
10.000000 -8.000000 1.730583E+01
10.000000 -10.000000 7.148132E+00
10.000000 -12.000000 3.715652E+00
10.000000 -14.000000 1.416224E+01
10.000000 -16.000000 2.912185E+01
10.000000 -18.000000 3.532569E+01
10.000000 -20.000000 2.946247E+01
10.000000 -22.000000 2.236012E+01
10.000000 -24.000000 2.378800E+01
10.000000 -26.000000 2.847244E+01
10.000000 -28.000000 3.265472E+01
10.000000 -30.000000 3.720912E+01
10.000000 -32.000000 3.981045E+01
10.000000 -34.000000 4.262495E+01
10.000000 -36.000000 5.032529E+01
10.000000 -38.000000 5.974016E+01
10.000000 -40.000000 7.099560E+01
12.000000 40.000000 1.905854E+01
12.000000 38.000000 2.555398E+01
12.000000 36.000000 2.039646E+01
12.000000 34.000000 3.061195E+00
12.000000 32.000000 -1.792904E+01
12.000000 30.000000 -2.735118E+01
12.000000 28.000000 -2.826749E+01
12.000000 26.000000 -2.429180E+01
12.000000 24.000000 -1.343718E+01
12.000000 22.000000 1.517582E+00
12.000000 20.000000 5.850327E+00
12.000000 18.000000 9.157970E+00
12.000000 16.000000 2.751654E+01
12.000000 14.000000 7.111613E+01
12.000000 12.000000 1.405223E+02
12.000000 10.000000 2.163087E+02
12.000000 8.000000 2.567587E+02
12.000000 6.000000 2.445194E+02
12.000000 4.000000 1.689784E+02
12.000000 2.000000 6.966022E+01
12.000000 0.000000 -6.900833E+00
12.000000 -2.000000 -3.321368E+01
12.000000 -4.000000 -1.733921E+01
12.000000 -6.000000 3.714630E+00
12.000000 -8.000000 3.565926E+00
12.000000 -10.000000 -4.048038E+00
12.000000 -12.000000 1.964758E+00
12.000000 -14.000000 2.679488E+01
12.000000 -16.000000 5.155457E+01
12.000000 -18.000000 5.574019E+01
12.000000 -20.000000 3.807501E+01
12.000000 -22.000000 1.680882E+01
12.000000 -24.000000 1.071857E+01
12.000000 -26.000000 1.628143E+01
12.000000 -28.000000 2.227054E+01
12.000000 -30.000000 2.668722E+01
12.000000 -32.000000 3.007789E+01
12.000000 -34.000000 3.577313E+01
12.000000 -36.000000 4.762234E+01
12.000000 -38.000000 5.921565E+01
12.000000 -40.000000 7.038765E+01
14.000000 40.000000 1.669303E+01
14.000000 38.000000 2.657155E+01
14.000000 36.000000 2.736017E+01
14.000000 34.000000 1.462799E+01
14.000000 32.000000 -8.873968E+00
14.000000 30.000000 -2.680700E+01
14.000000 28.000000 -3.563883E+01
14.000000 26.000000 -3.427037E+01
14.000000 24.000000 -2.556915E+01
14.000000 22.000000 -1.025381E+01
14.000000 20.000000 -2.231861E+00
14.000000 18.000000 5.105553E+00
14.000000 16.000000 2.505718E+01
14.000000 14.000000 6.765665E+01
14.000000 12.000000 1.335268E+02
14.000000 10.000000 2.059880E+02
14.000000 8.000000 2.457678E+02
14.000000 6.000000 2.365139E+02
14.000000 4.000000 1.661360E+02
14.000000 2.000000 7.045647E+01
14.000000 0.000000 -7.220249E+00
14.000000 -2.000000 -4.079252E+01
14.000000 -4.000000 -3.752158E+01
14.000000 -6.000000 -2.613895E+01
14.000000 -8.000000 -2.626180E+01
14.000000 -10.000000 -2.918158E+01
14.000000 -12.000000 -7.310585E+00
14.000000 -14.000000 3.703954E+01
14.000000 -16.000000 7.489594E+01
14.000000 -18.000000 7.930366E+01
14.000000 -20.000000 5.060098E+01
14.000000 -22.000000 1.571548E+01
14.000000 -24.000000 1.694599E+00
14.000000 -26.000000 7.534022E+00
14.000000 -28.000000 1.527569E+01
14.000000 -30.000000 1.989605E+01
14.000000 -32.000000 2.298526E+01
14.000000 -34.000000 2.974350E+01
14.000000 -36.000000 4.449470E+01
14.000000 -38.000000 5.770947E+01
14.000000 -40.000000 6.826274E+01
16.000000 40.000000 1.236618E+01
16.000000 38.000000 2.684258E+01
16.000000 36.000000 3.499795E+01
16.000000 34.000000 2.852281E+01
16.000000 32.000000 4.062201E+00
16.000000 30.000000 -2.065829E+01
16.000000 28.000000 -3.597294E+01
16.000000 26.000000 -3.638100E+01
16.000000 24.000000 -2.809286E+01
16.000000 22.000000 -1.432906E+01
16.000000 20.000000 -5.319408E+00
16.000000 18.000000 4.377960E+00
16.000000 16.000000 2.576815E+01
16.000000 14.000000 6.750087E+01
16.000000 12.000000 1.291369E+02
16.000000 10.000000 1.960185E+02
16.000000 8.000000 2.294676E+02
16.000000 6.000000 2.170103E+02
16.000000 4.000000 1.499038E+02
16.000000 2.000000 6.078399E+01
16.000000 0.000000 -1.434896E+01
16.000000 -2.000000 -5.415745E+01
16.000000 -4.000000 -6.497746E+01
16.000000 -6.000000 -6.536994E+01
16.000000 -8.000000 -6.772228E+01
16.000000 -10.000000 -6.203825E+01
16.000000 -12.000000 -2.019291E+01
16.000000 -14.000000 4.430948E+01
16.000000 -16.000000 9.463128E+01
16.000000 -18.000000 9.963356E+01
16.000000 -20.000000 6.455941E+01
16.000000 -22.000000 2.264776E+01
16.000000 -24.000000 1.060905E+00
16.000000 -26.000000 1.918335E+00
16.000000 -28.000000 8.793047E+00
16.000000 -30.000000 1.336532E+01
16.000000 -32.000000 1.610437E+01
16.000000 -34.000000 2.371397E+01
16.000000 -36.000000 4.034016E+01
16.000000 -38.000000 5.508775E+01
16.000000 -40.000000 6.547257E+01
18.000000 40.000000 5.601924E+00
18.000000 38.000000 2.507114E+01
18.000000 36.000000 4.115370E+01
18.000000 34.000000 4.223961E+01
18.000000 32.000000 1.927508E+01
18.000000 30.000000 -9.020233E+00
18.000000 28.000000 -2.837727E+01
18.000000 26.000000 -2.997154E+01
18.000000 24.000000 -2.120884E+01
18.000000 22.000000 -1.035339E+01
18.000000 20.000000 -3.073391E+00
18.000000 18.000000 6.497950E+00
18.000000 16.000000 2.704986E+01
18.000000 14.000000 6.458615E+01
18.000000 12.000000 1.191717E+02
18.000000 10.000000 1.785243E+02
18.000000 8.000000 2.071021E+02
18.000000 6.000000 1.933651E+02
18.000000 4.000000 1.313817E+02
18.000000 2.000000 5.056162E+01
18.000000 0.000000 -2.187552E+01
18.000000 -2.000000 -6.907983E+01
18.000000 -4.000000 -9.318720E+01
18.000000 -6.000000 -1.053104E+02
18.000000 -8.000000 -1.109688E+02
18.000000 -10.000000 -9.741101E+01
18.000000 -12.000000 -3.537296E+01
18.000000 -14.000000 4.849811E+01
18.000000 -16.000000 1.089812E+02
18.000000 -18.000000 1.137999E+02
18.000000 -20.000000 7.540707E+01
18.000000 -22.000000 3.132260E+01
18.000000 -24.000000 4.542856E+00
18.000000 -26.000000 -1.757137E+00
18.000000 -28.000000 7.474117E-01
18.000000 -30.000000 3.686741E+00
18.000000 -32.000000 7.609414E+00
18.000000 -34.000000 1.789152E+01
18.000000 -36.000000 3.585644E+01
18.000000 -38.000000 5.155337E+01
18.000000 -40.000000 6.231832E+01
20.000000 40.000000 -2.244090E+00
20.000000 38.000000 2.136624E+01
20.000000 36.000000 4.423546E+01
20.000000 34.000000 5.305144E+01
20.000000 32.000000 3.350448E+01
20.000000 30.000000 4.251597E+00
20.000000 28.000000 -1.709685E+01
20.000000 26.000000 -1.939233E+01
20.000000 24.000000 -1.067712E+01
20.000000 22.000000 -2.684389E+00
20.000000 20.000000 1.610182E+00
20.000000 18.000000 8.956297E+00
20.000000 16.000000 2.694900E+01
20.000000 14.000000 5.798306E+01
20.000000 12.000000 1.029901E+02
20.000000 10.000000 1.531057E+02
20.000000 8.000000 1.814842E+02
20.000000 6.000000 1.733530E+02
20.000000 4.000000 1.212818E+02
20.000000 2.000000 4.826198E+01
20.000000 0.000000 -2.333283E+01
20.000000 -2.000000 -7.851027E+01
20.000000 -4.000000 -1.151755E+02
20.000000 -6.000000 -1.383519E+02
20.000000 -8.000000 -1.463096E+02
20.000000 -10.000000 -1.268375E+02
20.000000 -12.000000 -4.945364E+01
20.000000 -14.000000 4.770348E+01
20.000000 -16.000000 1.135378E+02
20.000000 -18.000000 1.175280E+02
20.000000 -20.000000 7.750923E+01
20.000000 -22.000000 3.372923E+01
20.000000 -24.000000 4.999724E+00
20.000000 -26.000000 -6.095799E+00
20.000000 -28.000000 -8.756442E+00
20.000000 -30.000000 -8.188646E+00
20.000000 -32.000000 -2.192168E+00
20.000000 -34.000000 1.173244E+01
20.000000 -36.000000 3.073273E+01
20.000000 -38.000000 4.727143E+01
20.000000 -40.000000 5.876886E+01
22.000000 40.000000 -9.258579E+00
22.000000 38.000000 1.620550E+01
22.000000 36.000000 4.291259E+01
22.000000 34.000000 5.766227E+01
22.000000 32.000000 4.280680E+01
22.000000 30.000000 1.481276E+01
22.000000 28.000000 -7.136040E+00
22.000000 26.000000 -1.093146E+01
22.000000 24.000000 -3.455215E+00
22.000000 22.000000 3.280202E+00
22.000000 20.000000 6.235266E+00
22.000000 18.000000 1.204153E+01
22.000000 16.000000 2.658182E+01
22.000000 14.000000 4.992488E+01
22.000000 12.000000 8.404276E+01
22.000000 10.000000 1.250619E+02
22.000000 8.000000 1.570063E+02
22.000000 6.000000 1.606683E+02
22.000000 4.000000 1.228704E+02
22.000000 2.000000 5.721716E+01
22.000000 0.000000 -1.522470E+01
22.000000 -2.000000 -7.737650E+01
22.000000 -4.000000 -1.234242E+02
22.000000 -6.000000 -1.554199E+02
22.000000 -8.000000 -1.657444E+02
22.000000 -10.000000 -1.442121E+02
22.000000 -12.000000 -6.104028E+01
22.000000 -14.000000 3.994935E+01
22.000000 -16.000000 1.064474E+02
22.000000 -18.000000 1.063966E+02
22.000000 -20.000000 6.420883E+01
22.000000 -22.000000 2.275786E+01
22.000000 -24.000000 -2.927778E+00
22.000000 -26.000000 -1.398564E+01
22.000000 -28.000000 -1.918983E+01
22.000000 -30.000000 -1.965984E+01
22.000000 -32.000000 -1.178721E+01
22.000000 -34.000000 5.285212E+00
22.000000 -36.000000 2.564218E+01
22.000000 -38.000000 4.277586E+01
22.000000 -40.000000 5.465287E+01
24.000000 40.000000 -1.648549E+01
24.000000 38.000000 8.520271E+00
24.000000 36.000000 3.709157E+01
24.000000 34.000000 5.611743E+01
24.000000 32.000000 4.653602E+01
24.000000 30.000000 2.088105E+01
24.000000 28.000000 -1.568638E+00
24.000000 26.000000 -8.184065E+00
24.000000 24.000000 -2.846253E+00
24.000000 22.000000 4.751438E+00
24.000000 20.000000 9.797860E+00
24.000000 18.000000 1.621392E+01
24.000000 16.000000 2.681569E+01
24.000000 14.000000 4.246006E+01
24.000000 12.000000 6.756772E+01
24.000000 10.000000 1.025573E+02
24.000000 8.000000 1.381017E+02
24.000000 6.000000 1.542572E+02
24.000000 4.000000 1.312303E+02
24.000000 2.000000 7.318862E+01
24.000000 0.000000 1.622343E+00
24.000000 -2.000000 -6.432415E+01
24.000000 -4.000000 -1.153054E+02
24.000000 -6.000000 -1.511266E+02
24.000000 -8.000000 -1.646697E+02
24.000000 -10.000000 -1.458771E+02
24.000000 -12.000000 -6.791610E+01
24.000000 -14.000000 2.655789E+01
24.000000 -16.000000 8.578434E+01
24.000000 -18.000000 7.779150E+01
24.000000 -20.000000 3.303548E+01
24.000000 -22.000000 -3.995013E+00
24.000000 -24.000000 -2.101928E+01
24.000000 -26.000000 -2.620121E+01
24.000000 -28.000000 -2.980943E+01
24.000000 -30.000000 -2.939072E+01
24.000000 -32.000000 -1.950448E+01
24.000000 -34.000000 2.011191E-01
24.000000 -36.000000 2.197459E+01
24.000000 -38.000000 3.877483E+01
24.000000 -40.000000 5.016644E+01
26.000000 40.000000 -2.560782E+01
26.000000 38.000000 -2.583368E+00
26.000000 36.000000 2.747015E+01
26.000000 34.000000 5.013835E+01
26.000000 32.000000 4.514644E+01
26.000000 30.000000 2.105883E+01
26.000000 28.000000 -1.627069E+00
26.000000 26.000000 -9.467968E+00
26.000000 24.000000 -5.144070E+00
26.000000 22.000000 4.793712E+00
26.000000 20.000000 1.378492E+01
26.000000 18.000000 2.251820E+01
26.000000 16.000000 2.999955E+01
26.000000 14.000000 3.863231E+01
26.000000 12.000000 5.600856E+01
26.000000 10.000000 8.511548E+01
26.000000 8.000000 1.228172E+02
26.000000 6.000000 1.488877E+02
26.000000 4.000000 1.381533E+02
26.000000 2.000000 8.748270E+01
26.000000 0.000000 2.025494E+01
26.000000 -2.000000 -4.401963E+01
26.000000 -4.000000 -9.475902E+01
26.000000 -6.000000 -1.318075E+02
26.000000 -8.000000 -1.492882E+02
26.000000 -10.000000 -1.350210E+02
26.000000 -12.000000 -6.940637E+01
26.000000 -14.000000 9.625393E+00
26.000000 -16.000000 5.351763E+01
26.000000 -18.000000 3.818397E+01
26.000000 -20.000000 -6.317746E+00
26.000000 -22.000000 -3.811814E+01
26.000000 -24.000000 -4.468783E+01
26.000000 -26.000000 -4.036472E+01
26.000000 -28.000000 -3.846431E+01
26.000000 -30.000000 -3.553210E+01
26.000000 -32.000000 -2.473434E+01
26.000000 -34.000000 -3.788369E+00
26.000000 -36.000000 1.923865E+01
26.000000 -38.000000 3.529959E+01
26.000000 -40.000000 4.542482E+01
28.000000 40.000000 -3.589084E+01
28.000000 38.000000 -1.586102E+01
28.000000 36.000000 1.332629E+01
28.000000 34.000000 3.824710E+01
28.000000 32.000000 3.787015E+01
28.000000 30.000000 1.675763E+01
28.000000 28.000000 -4.326333E+00
28.000000 26.000000 -1.177470E+01
28.000000 24.000000 -6.927390E+00
28.000000 22.000000 6.373864E+00
28.000000 20.000000 1.992113E+01
28.000000 18.000000 3.152232E+01
28.000000 16.000000 3.730252E+01
28.000000 14.000000 4.102569E+01
28.000000 12.000000 5.147763E+01
28.000000 10.000000 7.247956E+01
28.000000 8.000000 1.085025E+02
28.000000 6.000000 1.379722E+02
28.000000 4.000000 1.349230E+02
28.000000 2.000000 9.239396E+01
28.000000 0.000000 3.285174E+01
28.000000 -2.000000 -2.435734E+01
28.000000 -4.000000 -7.023911E+01
28.000000 -6.000000 -1.090566E+02
28.000000 -8.000000 -1.323090E+02
28.000000 -10.000000 -1.261287E+02
28.000000 -12.000000 -7.499277E+01
28.000000 -14.000000 -1.168357E+01
28.000000 -16.000000 1.868439E+01
28.000000 -18.000000 -4.156370E-01
28.000000 -20.000000 -4.194091E+01
28.000000 -22.000000 -6.740443E+01
28.000000 -24.000000 -6.368628E+01
28.000000 -26.000000 -4.967494E+01
28.000000 -28.000000 -4.123475E+01
28.000000 -30.000000 -3.539662E+01
28.000000 -32.000000 -2.561305E+01
28.000000 -34.000000 -5.985606E+00
28.000000 -36.000000 1.625700E+01
28.000000 -38.000000 3.054307E+01
28.000000 -40.000000 3.845094E+01
30.000000 40.000000 -4.723199E+01
30.000000 38.000000 -3.080906E+01
30.000000 36.000000 -5.254491E+00
30.000000 34.000000 2.023436E+01
30.000000 32.000000 2.542398E+01
30.000000 30.000000 1.036737E+01
30.000000 28.000000 -7.076750E+00
30.000000 26.000000 -1.383438E+01
30.000000 24.000000 -7.492529E+00
30.000000 22.000000 8.874494E+00
30.000000 20.000000 2.566494E+01
30.000000 18.000000 3.950105E+01
30.000000 16.000000 4.714201E+01
30.000000 14.000000 5.152753E+01
30.000000 12.000000 5.893941E+01
30.000000 10.000000 7.268693E+01
30.000000 8.000000 9.926660E+01
30.000000 6.000000 1.213378E+02
30.000000 4.000000 1.188852E+02
30.000000 2.000000 8.432846E+01
30.000000 0.000000 3.508518E+01
30.000000 -2.000000 -1.167193E+01
30.000000 -4.000000 -5.041169E+01
30.000000 -6.000000 -9.120155E+01
30.000000 -8.000000 -1.235380E+02
30.000000 -10.000000 -1.306232E+02
30.000000 -12.000000 -9.306397E+01
30.000000 -14.000000 -4.089258E+01
30.000000 -16.000000 -1.578225E+01
30.000000 -18.000000 -3.173143E+01
30.000000 -20.000000 -6.649887E+01
30.000000 -22.000000 -8.433841E+01
30.000000 -24.000000 -7.239269E+01
30.000000 -26.000000 -5.077958E+01
30.000000 -28.000000 -3.680533E+01
30.000000 -30.000000 -2.813676E+01
30.000000 -32.000000 -1.994454E+01
30.000000 -34.000000 -4.066160E+00
30.000000 -36.000000 1.313718E+01
30.000000 -38.000000 2.311633E+01
30.000000 -40.000000 2.765915E+01
32.000000 40.000000 -6.004646E+01
32.000000 38.000000 -4.777489E+01
32.000000 36.000000 -2.661888E+01
32.000000 34.000000 -1.695082E+00
32.000000 32.000000 9.142143E+00
32.000000 30.000000 1.478755E+00
32.000000 28.000000 -1.025779E+01
32.000000 26.000000 -1.373132E+01
32.000000 24.000000 -5.996597E+00
32.000000 22.000000 9.279039E+00
32.000000 20.000000 2.627322E+01
32.000000 18.000000 4.186470E+01
32.000000 16.000000 5.486832E+01
32.000000 14.000000 6.701137E+01
32.000000 12.000000 7.760373E+01
32.000000 10.000000 8.679558E+01
32.000000 8.000000 9.828374E+01
32.000000 6.000000 1.050616E+02
32.000000 4.000000 9.670623E+01
32.000000 2.000000 6.862775E+01
32.000000 0.000000 3.059723E+01
32.000000 -2.000000 -5.912604E+00
32.000000 -4.000000 -3.873708E+01
32.000000 -6.000000 -8.094272E+01
32.000000 -8.000000 -1.232900E+02
32.000000 -10.000000 -1.455471E+02
32.000000 -12.000000 -1.218007E+02
32.000000 -14.000000 -7.869968E+01
32.000000 -16.000000 -5.160015E+01
32.000000 -18.000000 -5.658003E+01
32.000000 -20.000000 -7.888129E+01
32.000000 -22.000000 -8.905272E+01
32.000000 -24.000000 -7.308063E+01
32.000000 -26.000000 -4.752671E+01
32.000000 -28.000000 -2.967212E+01
32.000000 -30.000000 -1.758196E+01
32.000000 -32.000000 -1.030544E+01
32.000000 -34.000000 6.182728E-01
32.000000 -36.000000 9.985815E+00
32.000000 -38.000000 1.433477E+01
32.000000 -40.000000 1.529764E+01
34.000000 40.000000 -7.249632E+01
34.000000 38.000000 -6.495740E+01
34.000000 36.000000 -4.899231E+01
34.000000 34.000000 -2.633832E+01
34.000000 32.000000 -1.073034E+01
34.000000 30.000000 -1.052231E+01
34.000000 28.000000 -1.485329E+01
34.000000 26.000000 -1.346809E+01
34.000000 24.000000 -5.934885E+00
34.000000 22.000000 4.054835E+00
34.000000 20.000000 1.757210E+01
34.000000 18.000000 3.497609E+01
34.000000 16.000000 5.616404E+01
34.000000 14.000000 8.039036E+01
34.000000 12.000000 9.944768E+01
34.000000 10.000000 1.072758E+02
34.000000 8.000000 1.039232E+02
34.000000 6.000000 9.413093E+01
34.000000 4.000000 7.643999E+01
34.000000 2.000000 5.246471E+01
34.000000 0.000000 2.402492E+01
34.000000 -2.000000 -4.650691E+00
34.000000 -4.000000 -3.373418E+01
34.000000 -6.000000 -7.604700E+01
34.000000 -8.000000 -1.242565E+02
34.000000 -10.000000 -1.583944E+02
34.000000 -12.000000 -1.483514E+02
34.000000 -14.000000 -1.152990E+02
34.000000 -16.000000 -8.542677E+01
34.000000 -18.000000 -7.737701E+01
34.000000 -20.000000 -8.470840E+01
34.000000 -22.000000 -8.825504E+01
34.000000 -24.000000 -7.170591E+01
34.000000 -26.000000 -4.558220E+01
34.000000 -28.000000 -2.617871E+01
34.000000 -30.000000 -1.074991E+01
34.000000 -32.000000 -2.261011E+00
34.000000 -34.000000 4.878540E+00
34.000000 -36.000000 6.853558E+00
34.000000 -38.000000 6.234829E+00
34.000000 -40.000000 4.317809E+00
36.000000 40.000000 -8.239289E+01
36.000000 38.000000 -8.005941E+01
36.000000 36.000000 -7.001303E+01
36.000000 34.000000 -5.143358E+01
36.000000 32.000000 -3.198958E+01
36.000000 30.000000 -2.385180E+01
36.000000 28.000000 -2.136621E+01
36.000000 26.000000 -1.800714E+01
36.000000 24.000000 -1.345074E+01
36.000000 22.000000 -9.254323E+00
36.000000 20.000000 -1.192516E+00
36.000000 18.000000 1.708097E+01
36.000000 16.000000 4.767884E+01
36.000000 14.000000 8.504295E+01
36.000000 12.000000 1.144482E+02
36.000000 10.000000 1.250028E+02
36.000000 8.000000 1.113966E+02
36.000000 6.000000 8.831454E+01
36.000000 4.000000 6.056014E+01
36.000000 2.000000 3.772920E+01
36.000000 0.000000 1.659262E+01
36.000000 -2.000000 -6.091452E+00
36.000000 -4.000000 -3.114894E+01
36.000000 -6.000000 -6.950749E+01
36.000000 -8.000000 -1.169289E+02
36.000000 -10.000000 -1.562464E+02
36.000000 -12.000000 -1.582081E+02
36.000000 -14.000000 -1.375698E+02
36.000000 -16.000000 -1.106762E+02
36.000000 -18.000000 -9.545308E+01
36.000000 -20.000000 -9.172415E+01
36.000000 -22.000000 -8.985051E+01
36.000000 -24.000000 -7.340026E+01
36.000000 -26.000000 -4.792241E+01
36.000000 -28.000000 -2.736521E+01
36.000000 -30.000000 -9.537992E+00
36.000000 -32.000000 1.045984E+00
36.000000 -34.000000 6.466400E+00
36.000000 -36.000000 3.807238E+00
36.000000 -38.000000 -4.228973E-01
36.000000 -40.000000 -5.113119E+00
38.000000 40.000000 -8.934090E+01
38.000000 38.000000 -9.291978E+01
38.000000 36.000000 -8.886185E+01
38.000000 34.000000 -7.396826E+01
38.000000 32.000000 -5.003004E+01
38.000000 30.000000 -3.486104E+01
38.000000 28.000000 -2.805818E+01
38.000000 26.000000 -2.582757E+01
38.000000 24.000000 -2.665013E+01
38.000000 22.000000 -2.761092E+01
38.000000 20.000000 -2.471858E+01
38.000000 18.000000 -7.039203E+00
38.000000 16.000000 3.032944E+01
38.000000 14.000000 7.728786E+01
38.000000 12.000000 1.151772E+02
38.000000 10.000000 1.304469E+02
38.000000 8.000000 1.111702E+02
38.000000 6.000000 7.945784E+01
38.000000 4.000000 4.397850E+01
38.000000 2.000000 1.925693E+01
38.000000 0.000000 2.588591E+00
38.000000 -2.000000 -1.209149E+01
38.000000 -4.000000 -2.900021E+01
38.000000 -6.000000 -5.779640E+01
38.000000 -8.000000 -9.761806E+01
38.000000 -10.000000 -1.338519E+02
38.000000 -12.000000 -1.441869E+02
38.000000 -14.000000 -1.368944E+02
38.000000 -16.000000 -1.209538E+02
38.000000 -18.000000 -1.088898E+02
38.000000 -20.000000 -1.016670E+02
38.000000 -22.000000 -9.522328E+01
38.000000 -24.000000 -7.646303E+01
38.000000 -26.000000 -5.071394E+01
38.000000 -28.000000 -2.937709E+01
38.000000 -30.000000 -1.113156E+01
38.000000 -32.000000 -1.136957E+00
38.000000 -34.000000 2.784725E+00
38.000000 -36.000000 -1.304008E+00
38.000000 -38.000000 -7.534327E+00
38.000000 -40.000000 -1.510233E+01
40.000000 40.000000 -9.357694E+01
40.000000 38.000000 -1.036304E+02
40.000000 36.000000 -1.051117E+02
40.000000 34.000000 -9.130769E+01
40.000000 32.000000 -6.112685E+01
40.000000 30.000000 -3.991072E+01
40.000000 28.000000 -3.079919E+01
40.000000 26.000000 -3.058525E+01
40.000000 24.000000 -3.704146E+01
40.000000 22.000000 -4.191966E+01
40.000000 20.000000 -4.317771E+01
40.000000 18.000000 -2.861085E+01
40.000000 16.000000 9.761979E+00
40.000000 14.000000 5.933266E+01
40.000000 12.000000 9.986534E+01
40.000000 10.000000 1.162596E+02
40.000000 8.000000 9.440864E+01
40.000000 6.000000 5.825255E+01
40.000000 4.000000 2.009668E+01
40.000000 2.000000 -3.423822E+00
40.000000 0.000000 -1.523916E+01
40.000000 -2.000000 -2.101031E+01
40.000000 -4.000000 -2.726028E+01
40.000000 -6.000000 -4.287676E+01
40.000000 -8.000000 -7.027373E+01
40.000000 -10.000000 -9.668420E+01
40.000000 -12.000000 -1.112526E+02
40.000000 -14.000000 -1.161743E+02
40.000000 -16.000000 -1.164784E+02
40.000000 -18.000000 -1.158317E+02
40.000000 -20.000000 -1.122287E+02
40.000000 -22.000000 -1.018685E+02
40.000000 -24.000000 -7.703310E+01
40.000000 -26.000000 -4.991911E+01
40.000000 -28.000000 -3.029794E+01
40.000000 -30.000000 -1.459230E+01
40.000000 -32.000000 -8.686010E+00
40.000000 -34.000000 -7.013973E+00
40.000000 -36.000000 -1.060449E+01
40.000000 -38.000000 -1.730303E+01
40.000000 -40.000000 -2.657329E+01
42.000000 40.000000 -9.607444E+01
42.000000 38.000000 -1.116576E+02
42.000000 36.000000 -1.171726E+02
42.000000 34.000000 -1.018972E+02
42.000000 32.000000 -6.459766E+01
42.000000 30.000000 -3.690429E+01
42.000000 28.000000 -2.593476E+01
42.000000 26.000000 -2.761666E+01
42.000000 24.000000 -3.725680E+01
42.000000 22.000000 -4.391604E+01
42.000000 20.000000 -4.675805E+01
42.000000 18.000000 -3.652396E+01
42.000000 16.000000 -4.203977E+00
42.000000 14.000000 3.816431E+01
42.000000 12.000000 7.230779E+01
42.000000 10.000000 8.351072E+01
42.000000 8.000000 6.164861E+01
42.000000 6.000000 2.608462E+01
42.000000 4.000000 -7.132802E+00
42.000000 2.000000 -2.299702E+01
42.000000 0.000000 -2.783398E+01
42.000000 -2.000000 -2.669480E+01
42.000000 -4.000000 -2.362406E+01
42.000000 -6.000000 -2.645784E+01
42.000000 -8.000000 -4.202260E+01
42.000000 -10.000000 -5.751630E+01
42.000000 -12.000000 -7.437164E+01
42.000000 -14.000000 -9.021504E+01
42.000000 -16.000000 -1.081106E+02
42.000000 -18.000000 -1.212608E+02
42.000000 -20.000000 -1.224152E+02
42.000000 -22.000000 -1.083472E+02
42.000000 -24.000000 -7.616020E+01
42.000000 -26.000000 -4.738272E+01
42.000000 -28.000000 -3.276440E+01
42.000000 -30.000000 -2.297994E+01
42.000000 -32.000000 -2.125809E+01
42.000000 -34.000000 -2.052629E+01
42.000000 -36.000000 -2.342749E+01
42.000000 -38.000000 -2.919365E+01
42.000000 -40.000000 -3.746203E+01
44.000000 40.000000 -9.896326E+01
44.000000 38.000000 -1.162080E+02
44.000000 36.000000 -1.225434E+02
44.000000 34.000000 -1.047789E+02
44.000000 32.000000 -6.236333E+01
44.000000 30.000000 -2.851745E+01
44.000000 28.000000 -1.463471E+01
44.000000 26.000000 -1.569753E+01
44.000000 24.000000 -2.363391E+01
44.000000 22.000000 -3.075298E+01
44.000000 20.000000 -3.397120E+01
44.000000 18.000000 -2.689147E+01
44.000000 16.000000 -4.422671E+00
44.000000 14.000000 2.336523E+01
44.000000 12.000000 4.368688E+01
44.000000 10.000000 4.511741E+01
44.000000 8.000000 2.589173E+01
44.000000 6.000000 -3.047874E+00
44.000000 4.000000 -2.501333E+01
44.000000 2.000000 -3.143301E+01
44.000000 0.000000 -3.000962E+01
44.000000 -2.000000 -2.562406E+01
44.000000 -4.000000 -1.985836E+01
44.000000 -6.000000 -1.599830E+01
44.000000 -8.000000 -2.227017E+01
44.000000 -10.000000 -3.067008E+01
44.000000 -12.000000 -5.038197E+01
44.000000 -14.000000 -7.671743E+01
44.000000 -16.000000 -1.093837E+02
44.000000 -18.000000 -1.328212E+02
44.000000 -20.000000 -1.350597E+02
44.000000 -22.000000 -1.153564E+02
44.000000 -24.000000 -7.647288E+01
44.000000 -26.000000 -4.704315E+01
44.000000 -28.000000 -3.850367E+01
44.000000 -30.000000 -3.553101E+01
44.000000 -32.000000 -3.643061E+01
44.000000 -34.000000 -3.497323E+01
44.000000 -36.000000 -3.637345E+01
44.000000 -38.000000 -4.007637E+01
44.000000 -40.000000 -4.643681E+01
46.000000 40.000000 -1.044127E+02
46.000000 38.000000 -1.163719E+02
46.000000 36.000000 -1.182467E+02
46.000000 34.000000 -9.838499E+01
46.000000 32.000000 -5.663137E+01
46.000000 30.000000 -2.049884E+01
46.000000 28.000000 -9.403906E-01
46.000000 26.000000 3.471190E+00
46.000000 24.000000 5.923929E-01
46.000000 22.000000 -8.062169E+00
46.000000 20.000000 -1.307570E+01
46.000000 18.000000 -8.869440E+00
46.000000 16.000000 5.125665E+00
46.000000 14.000000 1.971896E+01
46.000000 12.000000 2.644711E+01
46.000000 10.000000 1.882558E+01
46.000000 8.000000 2.656068E+00
46.000000 6.000000 -1.744226E+01
46.000000 4.000000 -2.833734E+01
46.000000 2.000000 -2.865467E+01
46.000000 0.000000 -2.492718E+01
46.000000 -2.000000 -2.195474E+01
46.000000 -4.000000 -1.972126E+01
46.000000 -6.000000 -1.582824E+01
46.000000 -8.000000 -1.774153E+01
46.000000 -10.000000 -2.498655E+01
46.000000 -12.000000 -4.798705E+01
46.000000 -14.000000 -8.259623E+01
46.000000 -16.000000 -1.230515E+02
46.000000 -18.000000 -1.496735E+02
46.000000 -20.000000 -1.492255E+02
46.000000 -22.000000 -1.226642E+02
46.000000 -24.000000 -7.934917E+01
46.000000 -26.000000 -4.998217E+01
46.000000 -28.000000 -4.557674E+01
46.000000 -30.000000 -4.776976E+01
46.000000 -32.000000 -5.119257E+01
46.000000 -34.000000 -4.901879E+01
46.000000 -36.000000 -4.740035E+01
46.000000 -38.000000 -4.829676E+01
46.000000 -40.000000 -5.390183E+01
48.000000 40.000000 -1.104788E+02
48.000000 38.000000 -1.128863E+02
48.000000 36.000000 -1.072819E+02
48.000000 34.000000 -8.677000E+01
48.000000 32.000000 -5.107206E+01
48.000000 30.000000 -1.753665E+01
48.000000 28.000000 8.264966E+00
48.000000 26.000000 2.055949E+01
48.000000 24.000000 2.393783E+01
48.000000 22.000000 1.409320E+01
48.000000 20.000000 6.692419E+00
48.000000 18.000000 8.179799E+00
48.000000 16.000000 1.783618E+01
48.000000 14.000000 2.551237E+01
48.000000 12.000000 2.476617E+01
48.000000 10.000000 1.310118E+01
48.000000 8.000000 -2.250919E+00
48.000000 6.000000 -1.646525E+01
48.000000 4.000000 -2.250394E+01
48.000000 2.000000 -2.300411E+01
48.000000 0.000000 -2.189817E+01
48.000000 -2.000000 -2.217020E+01
48.000000 -4.000000 -2.372872E+01
48.000000 -6.000000 -2.392853E+01
48.000000 -8.000000 -2.822383E+01
48.000000 -10.000000 -3.915012E+01
48.000000 -12.000000 -6.456251E+01
48.000000 -14.000000 -1.007349E+02
48.000000 -16.000000 -1.389601E+02
48.000000 -18.000000 -1.618858E+02
48.000000 -20.000000 -1.581037E+02
48.000000 -22.000000 -1.286675E+02
48.000000 -24.000000 -8.453978E+01
48.000000 -26.000000 -5.459717E+01
48.000000 -28.000000 -5.050401E+01
48.000000 -30.000000 -5.535580E+01
48.000000 -32.000000 -6.248820E+01
48.000000 -34.000000 -6.131571E+01
48.000000 -36.000000 -5.736499E+01
48.000000 -38.000000 -5.601423E+01
48.000000 -40.000000 -6.129725E+01
50.000000 40.000000 -1.124368E+02
50.000000 38.000000 -1.068698E+02
50.000000 36.000000 -9.571091E+01
50.000000 34.000000 -7.788199E+01
50.000000 32.000000 -5.215278E+01
50.000000 30.000000 -2.510370E+01
50.000000 28.000000 4.569910E+00
50.000000 26.000000 2.509373E+01
50.000000 24.000000 3.573593E+01
50.000000 22.000000 2.824779E+01
50.000000 20.000000 2.006620E+01
50.000000 18.000000 2.103574E+01
50.000000 16.000000 3.039280E+01
50.000000 14.000000 3.585907E+01
50.000000 12.000000 3.133789E+01
50.000000 10.000000 1.811944E+01
50.000000 8.000000 2.054024E+00
50.000000 6.000000 -9.917906E+00
50.000000 4.000000 -1.549922E+01
50.000000 2.000000 -1.932737E+01
50.000000 0.000000 -2.298352E+01
50.000000 -2.000000 -2.636750E+01
50.000000 -4.000000 -3.056490E+01
50.000000 -6.000000 -3.656013E+01
50.000000 -8.000000 -4.663224E+01
50.000000 -10.000000 -6.253697E+01
50.000000 -12.000000 -8.643586E+01
50.000000 -14.000000 -1.155806E+02
50.000000 -16.000000 -1.426460E+02
50.000000 -18.000000 -1.578535E+02
50.000000 -20.000000 -1.540047E+02
50.000000 -22.000000 -1.295049E+02
50.000000 -24.000000 -9.082497E+01
50.000000 -26.000000 -6.256151E+01
50.000000 -28.000000 -5.564276E+01
50.000000 -30.000000 -6.015495E+01
50.000000 -32.000000 -7.051873E+01
50.000000 -34.000000 -7.134987E+01
50.000000 -36.000000 -6.649514E+01
50.000000 -38.000000 -6.422133E+01
50.000000 -40.000000 -6.879684E+01
52.000000 40.000000 -1.058494E+02
52.000000 38.000000 -9.827628E+01
52.000000 36.000000 -8.784998E+01
52.000000 34.000000 -7.740717E+01
52.000000 32.000000 -6.485189E+01
52.000000 30.000000 -4.749285E+01
52.000000 28.000000 -1.732058E+01
52.000000 26.000000 1.096521E+01
52.000000 24.000000 3.093521E+01
52.000000 22.000000 3.234301E+01
52.000000 20.000000 2.731715E+01
52.000000 18.000000 2.992886E+01
52.000000 16.000000 3.999820E+01
52.000000 14.000000 4.489379E+01
52.000000 12.000000 3.768864E+01
52.000000 10.000000 2.354238E+01
52.000000 8.000000 6.235563E+00
52.000000 6.000000 -6.293692E+00
52.000000 4.000000 -1.311497E+01
52.000000 2.000000 -1.918570E+01
52.000000 0.000000 -2.625535E+01
52.000000 -2.000000 -3.200399E+01
52.000000 -4.000000 -3.743663E+01
52.000000 -6.000000 -4.810803E+01
52.000000 -8.000000 -6.374439E+01
52.000000 -10.000000 -8.257819E+01
52.000000 -12.000000 -9.937619E+01
52.000000 -14.000000 -1.153050E+02
52.000000 -16.000000 -1.285206E+02
52.000000 -18.000000 -1.365799E+02
52.000000 -20.000000 -1.364706E+02
52.000000 -22.000000 -1.221152E+02
52.000000 -24.000000 -9.404903E+01
52.000000 -26.000000 -7.213209E+01
52.000000 -28.000000 -6.457055E+01
52.000000 -30.000000 -6.763878E+01
52.000000 -32.000000 -7.826455E+01
52.000000 -34.000000 -8.026570E+01
52.000000 -36.000000 -7.458435E+01
52.000000 -38.000000 -7.121447E+01
52.000000 -40.000000 -7.477134E+01
54.000000 40.000000 -9.233854E+01
54.000000 38.000000 -8.898752E+01
54.000000 36.000000 -8.609671E+01
54.000000 34.000000 -8.693746E+01
54.000000 32.000000 -8.747536E+01
54.000000 30.000000 -7.921131E+01
54.000000 28.000000 -5.040837E+01
54.000000 26.000000 -1.563037E+01
54.000000 24.000000 1.511958E+01
54.000000 22.000000 2.889352E+01
54.000000 20.000000 3.004757E+01
54.000000 18.000000 3.379593E+01
54.000000 16.000000 4.283774E+01
54.000000 14.000000 4.669058E+01
54.000000 12.000000 3.826762E+01
54.000000 10.000000 2.392454E+01
54.000000 8.000000 5.799402E+00
54.000000 6.000000 -8.204743E+00
54.000000 4.000000 -1.715508E+01
54.000000 2.000000 -2.403625E+01
54.000000 0.000000 -3.110891E+01
54.000000 -2.000000 -3.762361E+01
54.000000 -4.000000 -4.310904E+01
54.000000 -6.000000 -5.461732E+01
54.000000 -8.000000 -7.261573E+01
54.000000 -10.000000 -9.074626E+01
54.000000 -12.000000 -9.791303E+01
54.000000 -14.000000 -1.007407E+02
54.000000 -16.000000 -1.033654E+02
54.000000 -18.000000 -1.065956E+02
54.000000 -20.000000 -1.108814E+02
54.000000 -22.000000 -1.070292E+02
54.000000 -24.000000 -9.162418E+01
54.000000 -26.000000 -7.896373E+01
54.000000 -28.000000 -7.491722E+01
54.000000 -30.000000 -7.797440E+01
54.000000 -32.000000 -8.696049E+01
54.000000 -34.000000 -8.903036E+01
54.000000 -36.000000 -8.267236E+01
54.000000 -38.000000 -7.720098E+01
54.000000 -40.000000 -7.855629E+01
56.000000 40.000000 -8.171784E+01
56.000000 38.000000 -8.412296E+01
56.000000 36.000000 -8.747285E+01
56.000000 34.000000 -1.003739E+02
56.000000 32.000000 -1.092963E+02
56.000000 30.000000 -1.050734E+02
56.000000 28.000000 -7.624199E+01
56.000000 26.000000 -3.660941E+01
56.000000 24.000000 1.378241E+00
56.000000 22.000000 2.373127E+01
56.000000 20.000000 2.821012E+01
56.000000 18.000000 3.069780E+01
56.000000 16.000000 3.640896E+01
56.000000 14.000000 3.679067E+01
56.000000 12.000000 2.647093E+01
56.000000 10.000000 1.203745E+01
56.000000 8.000000 -4.438414E+00
56.000000 6.000000 -1.941834E+01
56.000000 4.000000 -3.068951E+01
56.000000 2.000000 -3.707968E+01
56.000000 0.000000 -4.185267E+01
56.000000 -2.000000 -4.698514E+01
56.000000 -4.000000 -5.030954E+01
56.000000 -6.000000 -5.803484E+01
56.000000 -8.000000 -7.318688E+01
56.000000 -10.000000 -8.458637E+01
56.000000 -12.000000 -8.098665E+01
56.000000 -14.000000 -7.358083E+01
56.000000 -16.000000 -7.048347E+01
56.000000 -18.000000 -7.307494E+01
56.000000 -20.000000 -8.160679E+01
56.000000 -22.000000 -8.715310E+01
56.000000 -24.000000 -8.449963E+01
56.000000 -26.000000 -8.106309E+01
56.000000 -28.000000 -8.192068E+01
56.000000 -30.000000 -8.729303E+01
56.000000 -32.000000 -9.475337E+01
56.000000 -34.000000 -9.533611E+01
56.000000 -36.000000 -8.904723E+01
56.000000 -38.000000 -8.233511E+01
56.000000 -40.000000 -8.042532E+01
58.000000 40.000000 -7.373742E+01
58.000000 38.000000 -7.929886E+01
58.000000 36.000000 -8.911167E+01
58.000000 34.000000 -1.080672E+02
58.000000 32.000000 -1.192179E+02
58.000000 30.000000 -1.141976E+02
58.000000 28.000000 -8.322584E+01
58.000000 26.000000 -3.965029E+01
58.000000 24.000000 -1.450477E+00
58.000000 22.000000 1.942446E+01
58.000000 20.000000 2.436658E+01
58.000000 18.000000 2.565787E+01
58.000000 16.000000 2.729291E+01
58.000000 14.000000 2.310336E+01
58.000000 12.000000 1.144885E+01
58.000000 10.000000 -3.172065E+00
58.000000 8.000000 -1.603969E+01
58.000000 6.000000 -3.053448E+01
58.000000 4.000000 -4.234795E+01
58.000000 2.000000 -4.808927E+01
58.000000 0.000000 -5.184700E+01
58.000000 -2.000000 -5.543117E+01
58.000000 -4.000000 -5.724875E+01
58.000000 -6.000000 -6.127809E+01
58.000000 -8.000000 -6.929396E+01
58.000000 -10.000000 -7.162824E+01
58.000000 -12.000000 -6.136481E+01
58.000000 -14.000000 -4.929111E+01
58.000000 -16.000000 -4.536429E+01
58.000000 -18.000000 -4.950209E+01
58.000000 -20.000000 -6.025583E+01
58.000000 -22.000000 -7.087958E+01
58.000000 -24.000000 -7.616119E+01
58.000000 -26.000000 -7.872562E+01
58.000000 -28.000000 -8.465577E+01
58.000000 -30.000000 -9.213293E+01
58.000000 -32.000000 -9.818736E+01
58.000000 -34.000000 -9.795792E+01
58.000000 -36.000000 -9.329256E+01
58.000000 -38.000000 -8.644234E+01
