-10.000000 40.000000 -7.680093E+00
-10.000000 38.000000 -2.744576E+00
-10.000000 36.000000 2.239785E+01
-10.000000 34.000000 5.163528E+01
-10.000000 32.000000 5.920105E+01
-10.000000 30.000000 5.615561E+01
-10.000000 28.000000 5.064219E+01
-10.000000 26.000000 5.738652E+01
-10.000000 24.000000 6.242934E+01
-10.000000 22.000000 4.404503E+01
-10.000000 20.000000 3.088312E+01
-10.000000 18.000000 2.877911E+01
-10.000000 16.000000 5.272185E+01
-10.000000 14.000000 1.051101E+02
-10.000000 12.000000 1.568247E+02
-10.000000 10.000000 1.674595E+02
-10.000000 8.000000 1.192729E+02
-10.000000 6.000000 4.591789E+01
-10.000000 4.000000 -1.446022E+01
-10.000000 2.000000 -3.477433E+01
-10.000000 0.000000 -3.751248E+01
-10.000000 -2.000000 -3.981961E+01
-10.000000 -4.000000 -4.415816E+01
-10.000000 -6.000000 -4.910591E+01
-10.000000 -8.000000 -4.324100E+01
-10.000000 -10.000000 -2.931964E+01
-10.000000 -12.000000 -1.582677E+01
-10.000000 -14.000000 -6.243549E+00
-10.000000 -16.000000 1.015681E+01
-10.000000 -18.000000 2.317999E+01
-10.000000 -20.000000 2.220296E+01
-10.000000 -22.000000 2.074319E+01
-10.000000 -24.000000 2.258582E+01
-10.000000 -26.000000 2.638454E+01
-10.000000 -28.000000 2.677677E+01
-10.000000 -30.000000 2.052750E+01
-10.000000 -32.000000 2.638173E+01
-10.000000 -34.000000 4.922738E+01
-10.000000 -36.000000 4.622269E+01
-10.000000 -38.000000 1.422514E+01
-10.000000 -40.000000 -7.590475E+00
-8.000000 40.000000 -1.597381E+01
-8.000000 38.000000 -1.204488E+01
-8.000000 36.000000 1.321402E+01
-8.000000 34.000000 4.386346E+01
-8.000000 32.000000 5.345944E+01
-8.000000 30.000000 4.951044E+01
-8.000000 28.000000 3.987174E+01
-8.000000 26.000000 4.652722E+01
-8.000000 24.000000 5.295485E+01
-8.000000 22.000000 4.073952E+01
-8.000000 20.000000 3.930964E+01
-8.000000 18.000000 4.249194E+01
-8.000000 16.000000 6.951104E+01
-8.000000 14.000000 1.198154E+02
-8.000000 12.000000 1.614427E+02
-8.000000 10.000000 1.689945E+02
-8.000000 8.000000 1.269976E+02
-8.000000 6.000000 5.888364E+01
-8.000000 4.000000 1.919518E-01
-8.000000 2.000000 -1.844552E+01
-8.000000 0.000000 -2.128683E+01
-8.000000 -2.000000 -2.797634E+01
-8.000000 -4.000000 -2.724958E+01
-8.000000 -6.000000 -1.838855E+01
-8.000000 -8.000000 -1.353539E+01
-8.000000 -10.000000 -1.421833E+01
-8.000000 -12.000000 -1.769762E+01
-8.000000 -14.000000 -2.149355E+01
-8.000000 -16.000000 -9.742855E+00
-8.000000 -18.000000 2.528551E+00
-8.000000 -20.000000 -1.794773E+00
-8.000000 -22.000000 -2.904978E+00
-8.000000 -24.000000 -1.719276E+00
-8.000000 -26.000000 -6.828079E-01
-8.000000 -28.000000 -6.082073E+00
-8.000000 -30.000000 -1.287640E+01
-8.000000 -32.000000 -6.038355E+00
-8.000000 -34.000000 1.726735E+01
-8.000000 -36.000000 2.597956E+01
-8.000000 -38.000000 1.678913E+01
-8.000000 -40.000000 6.686229E+00
-6.000000 40.000000 -1.379718E+01
-6.000000 38.000000 -1.583040E+01
-6.000000 36.000000 3.062088E+00
-6.000000 34.000000 2.810419E+01
-6.000000 32.000000 3.882934E+01
-6.000000 30.000000 3.490552E+01
-6.000000 28.000000 1.997769E+01
-6.000000 26.000000 2.040504E+01
-6.000000 24.000000 2.010313E+01
-6.000000 22.000000 1.533526E+01
-6.000000 20.000000 2.207092E+01
-6.000000 18.000000 4.070301E+01
-6.000000 16.000000 8.190957E+01
-6.000000 14.000000 1.302427E+02
-6.000000 12.000000 1.570882E+02
-6.000000 10.000000 1.624575E+02
-6.000000 8.000000 1.384145E+02
-6.000000 6.000000 8.837729E+01
-6.000000 4.000000 3.063103E+01
-6.000000 2.000000 -1.209713E+00
-6.000000 0.000000 -9.425678E+00
-6.000000 -2.000000 -1.437100E+01
-6.000000 -4.000000 -7.768013E+00
-6.000000 -6.000000 1.088634E+01
-6.000000 -8.000000 2.235602E+01
-6.000000 -10.000000 1.535691E+01
-6.000000 -12.000000 -5.136002E+00
-6.000000 -14.000000 -2.273832E+01
-6.000000 -16.000000 -2.414628E+01
-6.000000 -18.000000 -1.788502E+01
-6.000000 -20.000000 -1.826692E+01
-6.000000 -22.000000 -2.060151E+01
-6.000000 -24.000000 -1.871811E+01
-6.000000 -26.000000 -1.635302E+01
-6.000000 -28.000000 -2.129662E+01
-6.000000 -30.000000 -2.664579E+01
-6.000000 -32.000000 -2.238185E+01
-6.000000 -34.000000 -5.428745E+00
-6.000000 -36.000000 8.808117E+00
-6.000000 -38.000000 2.096410E+01
-6.000000 -40.000000 1.852394E+01
-4.000000 40.000000 -3.177232E+00
-4.000000 38.000000 -1.179283E+01
-4.000000 36.000000 -3.415518E-01
-4.000000 34.000000 1.417265E+01
-4.000000 32.000000 2.377125E+01
-4.000000 30.000000 1.969757E+01
-4.000000 28.000000 -3.304758E+00
-4.000000 26.000000 -1.537897E+01
-4.000000 24.000000 -2.472977E+01
-4.000000 22.000000 -2.458210E+01
-4.000000 20.000000 -1.461910E+01
-4.000000 18.000000 1.807543E+01
-4.000000 16.000000 6.731890E+01
-4.000000 14.000000 1.101544E+02
-4.000000 12.000000 1.347600E+02
-4.000000 10.000000 1.581331E+02
-4.000000 8.000000 1.656876E+02
-4.000000 6.000000 1.352569E+02
-4.000000 4.000000 6.537449E+01
-4.000000 2.000000 8.694244E+00
-4.000000 0.000000 -1.139719E+01
-4.000000 -2.000000 -1.362122E+01
-4.000000 -4.000000 -3.831917E+00
-4.000000 -6.000000 1.434125E+01
-4.000000 -8.000000 3.014988E+01
-4.000000 -10.000000 2.650923E+01
-4.000000 -12.000000 8.327089E+00
-4.000000 -14.000000 -4.686502E+00
-4.000000 -16.000000 -9.256495E+00
-4.000000 -18.000000 -7.444859E+00
-4.000000 -20.000000 -7.231333E+00
-4.000000 -22.000000 -1.613874E+01
-4.000000 -24.000000 -1.718890E+01
-4.000000 -26.000000 -1.189017E+01
-4.000000 -28.000000 -8.504272E+00
-4.000000 -30.000000 -1.414605E+01
-4.000000 -32.000000 -1.934297E+01
-4.000000 -34.000000 -9.111555E+00
-4.000000 -36.000000 3.344195E+00
-4.000000 -38.000000 2.061025E+01
-4.000000 -40.000000 1.884726E+01
-2.000000 40.000000 8.253116E+00
-2.000000 38.000000 -2.265024E+00
-2.000000 36.000000 5.169891E+00
-2.000000 34.000000 1.250136E+01
-2.000000 32.000000 1.672083E+01
-2.000000 30.000000 7.272934E+00
-2.000000 28.000000 -1.832130E+01
-2.000000 26.000000 -3.543726E+01
-2.000000 24.000000 -5.099896E+01
-2.000000 22.000000 -5.163604E+01
-2.000000 20.000000 -4.535628E+01
-2.000000 18.000000 -1.797659E+01
-2.000000 16.000000 1.828768E+01
-2.000000 14.000000 5.155443E+01
-2.000000 12.000000 9.560431E+01
-2.000000 10.000000 1.586178E+02
-2.000000 8.000000 1.997822E+02
-2.000000 6.000000 1.747437E+02
-2.000000 4.000000 7.650673E+01
-2.000000 2.000000 -1.249969E+00
-2.000000 0.000000 -2.560072E+01
-2.000000 -2.000000 -1.387093E+01
-2.000000 -4.000000 3.830200E+00
-2.000000 -6.000000 8.088989E+00
-2.000000 -8.000000 1.351983E+01
-2.000000 -10.000000 1.623464E+01
-2.000000 -12.000000 1.519922E+01
-2.000000 -14.000000 1.805503E+01
-2.000000 -16.000000 2.374666E+01
-2.000000 -18.000000 2.295584E+01
-2.000000 -20.000000 2.054922E+01
-2.000000 -22.000000 8.261363E+00
-2.000000 -24.000000 3.045946E+00
-2.000000 -26.000000 1.389183E+01
-2.000000 -28.000000 2.533860E+01
-2.000000 -30.000000 1.444191E+01
-2.000000 -32.000000 -3.827937E+00
-2.000000 -34.000000 -3.890114E-01
-2.000000 -36.000000 8.637799E+00
-2.000000 -38.000000 1.958877E+01
-2.000000 -40.000000 1.321228E+01
0.000000 40.000000 1.635681E+01
0.000000 38.000000 9.033006E+00
0.000000 36.000000 1.307118E+01
0.000000 34.000000 1.659637E+01
0.000000 32.000000 1.482130E+01
0.000000 30.000000 -2.509613E-01
0.000000 28.000000 -2.122737E+01
0.000000 26.000000 -3.157188E+01
0.000000 24.000000 -4.330655E+01
0.000000 22.000000 -4.836224E+01
0.000000 20.000000 -5.119321E+01
0.000000 18.000000 -4.415805E+01
0.000000 16.000000 -3.244990E+01
0.000000 14.000000 -5.573952E+00
0.000000 12.000000 6.796987E+01
0.000000 10.000000 1.666487E+02
0.000000 8.000000 2.167406E+02
0.000000 6.000000 1.793923E+02
0.000000 4.000000 6.062130E+01
0.000000 2.000000 -2.334854E+01
0.000000 0.000000 -4.309151E+01
0.000000 -2.000000 -1.527702E+01
0.000000 -4.000000 1.443003E+01
0.000000 -6.000000 1.358139E+01
0.000000 -8.000000 8.285505E+00
0.000000 -10.000000 1.065394E+01
0.000000 -12.000000 2.233679E+01
0.000000 -14.000000 3.622646E+01
0.000000 -16.000000 4.714021E+01
0.000000 -18.000000 4.428627E+01
0.000000 -20.000000 4.016569E+01
0.000000 -22.000000 3.149658E+01
0.000000 -24.000000 2.686389E+01
0.000000 -26.000000 4.162982E+01
0.000000 -28.000000 5.585951E+01
0.000000 -30.000000 3.969716E+01
0.000000 -32.000000 1.316389E+01
0.000000 -34.000000 1.273438E+01
0.000000 -36.000000 2.058715E+01
0.000000 -38.000000 2.351194E+01
0.000000 -40.000000 1.144310E+01
2.000000 40.000000 2.213768E+01
2.000000 38.000000 1.991241E+01
2.000000 36.000000 1.592238E+01
2.000000 34.000000 1.430739E+01
2.000000 32.000000 1.269043E+01
2.000000 30.000000 3.327002E+00
2.000000 28.000000 -1.195542E+01
2.000000 26.000000 -1.243343E+01
2.000000 24.000000 -1.157850E+01
2.000000 22.000000 -2.460983E+01
2.000000 20.000000 -3.696102E+01
2.000000 18.000000 -4.854441E+01
2.000000 16.000000 -6.252800E+01
2.000000 14.000000 -4.278873E+01
2.000000 12.000000 5.549833E+01
2.000000 10.000000 1.741805E+02
2.000000 8.000000 2.165535E+02
2.000000 6.000000 1.665872E+02
2.000000 4.000000 4.949278E+01
2.000000 2.000000 -2.586195E+01
2.000000 0.000000 -3.850081E+01
2.000000 -2.000000 -5.014065E+00
2.000000 -4.000000 2.856147E+01
2.000000 -6.000000 2.970096E+01
2.000000 -8.000000 2.005791E+01
2.000000 -10.000000 1.798350E+01
2.000000 -12.000000 3.296659E+01
2.000000 -14.000000 4.851421E+01
2.000000 -16.000000 5.403074E+01
2.000000 -18.000000 5.022464E+01
2.000000 -20.000000 4.421044E+01
2.000000 -22.000000 3.651909E+01
2.000000 -24.000000 3.928175E+01
2.000000 -26.000000 5.412034E+01
2.000000 -28.000000 5.974769E+01
2.000000 -30.000000 4.467891E+01
2.000000 -32.000000 2.261357E+01
2.000000 -34.000000 2.131243E+01
2.000000 -36.000000 2.844559E+01
2.000000 -38.000000 3.185432E+01
2.000000 -40.000000 2.049976E+01
4.000000 40.000000 2.838978E+01
4.000000 38.000000 2.790491E+01
4.000000 36.000000 1.547845E+01
4.000000 34.000000 8.150577E+00
4.000000 32.000000 8.384965E+00
4.000000 30.000000 9.296348E+00
4.000000 28.000000 2.334198E+00
4.000000 26.000000 9.540319E+00
4.000000 24.000000 1.818534E+01
4.000000 22.000000 5.172539E-01
4.000000 20.000000 -1.777419E+01
4.000000 18.000000 -4.105626E+01
4.000000 16.000000 -7.584388E+01
4.000000 14.000000 -6.333095E+01
4.000000 12.000000 5.318832E+01
4.000000 10.000000 1.796649E+02
4.000000 8.000000 2.128298E+02
4.000000 6.000000 1.674252E+02
4.000000 4.000000 7.675305E+01
4.000000 2.000000 1.652290E+01
4.000000 0.000000 1.060417E+01
4.000000 -2.000000 3.345574E+01
4.000000 -4.000000 5.071941E+01
4.000000 -6.000000 4.474582E+01
4.000000 -8.000000 2.944847E+01
4.000000 -10.000000 1.905123E+01
4.000000 -12.000000 2.959032E+01
4.000000 -14.000000 4.342335E+01
4.000000 -16.000000 4.335441E+01
4.000000 -18.000000 3.837329E+01
4.000000 -20.000000 3.155298E+01
4.000000 -22.000000 2.145135E+01
4.000000 -24.000000 3.144599E+01
4.000000 -26.000000 4.800120E+01
4.000000 -28.000000 4.729498E+01
4.000000 -30.000000 3.791688E+01
4.000000 -32.000000 2.429706E+01
4.000000 -34.000000 2.340359E+01
4.000000 -36.000000 3.058388E+01
4.000000 -38.000000 3.987834E+01
4.000000 -40.000000 3.621626E+01
6.000000 40.000000 3.635362E+01
6.000000 38.000000 3.240939E+01
6.000000 36.000000 1.647188E+01
6.000000 34.000000 4.704855E+00
6.000000 32.000000 1.013390E+00
6.000000 30.000000 5.725042E+00
6.000000 28.000000 8.957110E+00
6.000000 26.000000 1.977750E+01
6.000000 24.000000 2.665227E+01
6.000000 22.000000 1.504154E+01
6.000000 20.000000 3.417465E+00
6.000000 18.000000 -1.693493E+01
6.000000 16.000000 -4.705758E+01
6.000000 14.000000 -3.522824E+01
6.000000 12.000000 6.823737E+01
6.000000 10.000000 1.817596E+02
6.000000 8.000000 2.131619E+02
6.000000 6.000000 1.850482E+02
6.000000 4.000000 1.211965E+02
6.000000 2.000000 6.839898E+01
6.000000 0.000000 5.888055E+01
6.000000 -2.000000 6.722996E+01
6.000000 -4.000000 6.940663E+01
6.000000 -6.000000 5.421151E+01
6.000000 -8.000000 2.955131E+01
6.000000 -10.000000 1.129437E+01
6.000000 -12.000000 1.467581E+01
6.000000 -14.000000 2.268083E+01
6.000000 -16.000000 1.765521E+01
6.000000 -18.000000 9.571151E+00
6.000000 -20.000000 6.254265E+00
6.000000 -22.000000 -5.959148E-01
6.000000 -24.000000 1.052583E+01
6.000000 -26.000000 3.044887E+01
6.000000 -28.000000 3.492404E+01
6.000000 -30.000000 3.226358E+01
6.000000 -32.000000 2.269195E+01
6.000000 -34.000000 2.253988E+01
6.000000 -36.000000 3.163218E+01
6.000000 -38.000000 4.500560E+01
6.000000 -40.000000 5.165325E+01
8.000000 40.000000 4.172126E+01
8.000000 38.000000 3.636256E+01
8.000000 36.000000 2.100456E+01
8.000000 34.000000 7.545920E+00
8.000000 32.000000 -2.887253E+00
8.000000 30.000000 -2.594807E+00
8.000000 28.000000 4.546753E+00
8.000000 26.000000 1.887875E+01
8.000000 24.000000 2.612270E+01
8.000000 22.000000 2.460623E+01
8.000000 20.000000 3.058876E+01
8.000000 18.000000 2.449192E+01
8.000000 16.000000 8.835552E+00
8.000000 14.000000 2.379830E+01
8.000000 12.000000 8.872807E+01
8.000000 10.000000 1.745417E+02
8.000000 8.000000 2.169013E+02
8.000000 6.000000 2.104032E+02
8.000000 4.000000 1.555052E+02
8.000000 2.000000 9.320787E+01
8.000000 0.000000 6.262171E+01
8.000000 -2.000000 5.785115E+01
8.000000 -4.000000 5.870578E+01
8.000000 -6.000000 4.798781E+01
8.000000 -8.000000 2.477659E+01
8.000000 -10.000000 1.142535E+01
8.000000 -12.000000 4.121412E+00
8.000000 -14.000000 2.685757E-01
8.000000 -16.000000 -5.150661E+00
8.000000 -18.000000 -1.004560E+01
8.000000 -20.000000 -1.010155E+01
8.000000 -22.000000 -1.214438E+01
8.000000 -24.000000 -3.441626E+00
8.000000 -26.000000 1.550694E+01
8.000000 -28.000000 2.123879E+01
8.000000 -30.000000 2.011709E+01
8.000000 -32.000000 1.387515E+01
8.000000 -34.000000 1.714061E+01
8.000000 -36.000000 3.251610E+01
8.000000 -38.000000 5.069007E+01
8.000000 -40.000000 6.640640E+01
10.000000 40.000000 4.056363E+01
10.000000 38.000000 4.239952E+01
10.000000 36.000000 3.318727E+01
10.000000 34.000000 2.251332E+01
10.000000 32.000000 5.733177E+00
10.000000 30.000000 -4.947283E+00
10.000000 28.000000 -3.127480E+00
10.000000 26.000000 1.471186E+01
10.000000 24.000000 2.739711E+01
10.000000 22.000000 3.410773E+01
10.000000 20.000000 5.196032E+01
10.000000 18.000000 5.503444E+01
10.000000 16.000000 4.289533E+01
10.000000 14.000000 4.985869E+01
10.000000 12.000000 8.398232E+01
10.000000 10.000000 1.496552E+02
10.000000 8.000000 2.106703E+02
10.000000 6.000000 2.339262E+02
10.000000 4.000000 1.851016E+02
10.000000 2.000000 1.049604E+02
10.000000 0.000000 4.597939E+01
10.000000 -2.000000 1.987454E+01
10.000000 -4.000000 1.774732E+01
10.000000 -6.000000 1.997941E+01
10.000000 -8.000000 2.231448E+01
10.000000 -10.000000 2.574466E+01
10.000000 -12.000000 2.800100E+00
10.000000 -14.000000 -1.237977E+01
10.000000 -16.000000 -1.531532E+01
10.000000 -18.000000 -1.025932E+01
10.000000 -20.000000 -4.865546E+00
10.000000 -22.000000 -8.100536E+00
10.000000 -24.000000 -5.082310E+00
10.000000 -26.000000 8.119243E+00
10.000000 -28.000000 5.104469E+00
10.000000 -30.000000 -3.709168E-01
10.000000 -32.000000 -2.766444E+00
10.000000 -34.000000 7.786934E+00
10.000000 -36.000000 3.394727E+01
10.000000 -38.000000 5.921084E+01
10.000000 -40.000000 8.003627E+01
12.000000 40.000000 3.293205E+01
12.000000 38.000000 5.115903E+01
12.000000 36.000000 5.473361E+01
12.000000 34.000000 4.986790E+01
12.000000 32.000000 2.547927E+01
12.000000 30.000000 3.333178E+00
12.000000 28.000000 -5.269623E+00
12.000000 26.000000 8.255814E+00
12.000000 24.000000 2.728830E+01
12.000000 22.000000 3.913039E+01
12.000000 20.000000 5.233300E+01
12.000000 18.000000 5.005090E+01
12.000000 16.000000 3.827275E+01
12.000000 14.000000 3.052103E+01
12.000000 12.000000 4.249562E+01
12.000000 10.000000 9.673392E+01
12.000000 8.000000 1.826369E+02
12.000000 6.000000 2.428656E+02
12.000000 4.000000 2.097040E+02
12.000000 2.000000 1.225589E+02
12.000000 0.000000 4.496272E+01
12.000000 -2.000000 -3.856537E+00
12.000000 -4.000000 -1.429326E+01
12.000000 -6.000000 -6.541872E+00
12.000000 -8.000000 1.660931E+01
12.000000 -10.000000 3.239123E+01
12.000000 -12.000000 -1.593276E+00
12.000000 -14.000000 -1.886891E+01
12.000000 -16.000000 -1.102969E+01
12.000000 -18.000000 5.443863E+00
12.000000 -20.000000 1.114139E+01
12.000000 -22.000000 -5.884933E-01
12.000000 -24.000000 -7.628834E+00
12.000000 -26.000000 -1.973977E+00
12.000000 -28.000000 -1.172606E+01
12.000000 -30.000000 -1.976204E+01
12.000000 -32.000000 -1.848513E+01
12.000000 -34.000000 -1.558626E-01
12.000000 -36.000000 3.657487E+01
12.000000 -38.000000 6.856758E+01
12.000000 -40.000000 9.073886E+01
14.000000 40.000000 2.265696E+01
14.000000 38.000000 5.861476E+01
14.000000 36.000000 7.472254E+01
14.000000 34.000000 7.563091E+01
14.000000 32.000000 4.574082E+01
14.000000 30.000000 1.444253E+01
14.000000 28.000000 -3.750372E+00
14.000000 26.000000 2.935673E+00
14.000000 24.000000 2.186340E+01
14.000000 22.000000 3.069417E+01
14.000000 20.000000 3.547535E+01
14.000000 18.000000 2.818353E+01
14.000000 16.000000 1.532987E+01
14.000000 14.000000 -6.969620E+00
14.000000 12.000000 -9.669647E+00
14.000000 10.000000 3.831654E+01
14.000000 8.000000 1.392905E+02
14.000000 6.000000 2.209951E+02
14.000000 4.000000 2.164657E+02
14.000000 2.000000 1.483163E+02
14.000000 0.000000 6.945939E+01
14.000000 -2.000000 9.637051E+00
14.000000 -4.000000 -1.020908E+01
14.000000 -6.000000 -1.100235E+01
14.000000 -8.000000 2.252633E+00
14.000000 -10.000000 1.302628E+01
14.000000 -12.000000 -2.021959E+01
14.000000 -14.000000 -2.949932E+01
14.000000 -16.000000 -1.793424E+00
14.000000 -18.000000 2.260220E+01
14.000000 -20.000000 1.504492E+01
14.000000 -22.000000 -1.087711E+01
14.000000 -24.000000 -2.511671E+01
14.000000 -26.000000 -1.964160E+01
14.000000 -28.000000 -2.812286E+01
14.000000 -30.000000 -3.323410E+01
14.000000 -32.000000 -2.509699E+01
14.000000 -34.000000 -1.905229E+00
14.000000 -36.000000 4.037962E+01
14.000000 -38.000000 7.518722E+01
14.000000 -40.000000 9.978823E+01
16.000000 40.000000 1.434776E+01
16.000000 38.000000 5.969650E+01
16.000000 36.000000 8.035295E+01
16.000000 34.000000 8.357456E+01
16.000000 32.000000 5.355847E+01
16.000000 30.000000 1.767539E+01
16.000000 28.000000 -4.556029E+00
16.000000 26.000000 1.505470E-02
16.000000 24.000000 1.017052E+01
16.000000 22.000000 9.725505E+00
16.000000 20.000000 1.581244E+01
16.000000 18.000000 1.754766E+01
16.000000 16.000000 3.527418E+00
16.000000 14.000000 -2.535710E+01
16.000000 12.000000 -3.469254E+01
16.000000 10.000000 4.852539E+00
16.000000 8.000000 1.013401E+02
16.000000 6.000000 1.857357E+02
16.000000 4.000000 2.067426E+02
16.000000 2.000000 1.691676E+02
16.000000 0.000000 1.067040E+02
16.000000 -2.000000 4.780495E+01
16.000000 -4.000000 1.707287E+01
16.000000 -6.000000 -7.487650E-01
16.000000 -8.000000 -1.410388E+01
16.000000 -10.000000 -2.897746E+01
16.000000 -12.000000 -6.054001E+01
16.000000 -14.000000 -5.051947E+01
16.000000 -16.000000 -2.720583E+00
16.000000 -18.000000 1.906390E+01
16.000000 -20.000000 -5.925390E+00
16.000000 -22.000000 -4.315435E+01
16.000000 -24.000000 -5.429374E+01
16.000000 -26.000000 -3.822290E+01
16.000000 -28.000000 -3.740653E+01
16.000000 -30.000000 -3.548474E+01
16.000000 -32.000000 -1.783732E+01
16.000000 -34.000000 6.094060E+00
16.000000 -36.000000 4.689007E+01
16.000000 -38.000000 7.766577E+01
16.000000 -40.000000 1.070777E+02
18.000000 40.000000 1.159472E+01
18.000000 38.000000 5.668967E+01
18.000000 36.000000 7.361702E+01
18.000000 34.000000 7.241511E+01
18.000000 32.000000 3.940609E+01
18.000000 30.000000 4.185926E+00
18.000000 28.000000 -1.377413E+01
18.000000 26.000000 -5.641591E+00
18.000000 24.000000 -1.324283E+00
18.000000 22.000000 -9.873079E+00
18.000000 20.000000 1.053246E+00
18.000000 18.000000 1.653176E+01
18.000000 16.000000 7.499116E+00
18.000000 14.000000 -1.143740E+01
18.000000 12.000000 -1.760991E+01
18.000000 10.000000 1.076867E+01
18.000000 8.000000 8.269295E+01
18.000000 6.000000 1.514652E+02
18.000000 4.000000 1.829203E+02
18.000000 2.000000 1.711342E+02
18.000000 0.000000 1.302389E+02
18.000000 -2.000000 7.332661E+01
18.000000 -4.000000 1.979377E+01
18.000000 -6.000000 -1.503414E+01
18.000000 -8.000000 -4.350766E+01
18.000000 -10.000000 -8.031179E+01
18.000000 -12.000000 -1.026515E+02
18.000000 -14.000000 -6.350919E+01
18.000000 -16.000000 -1.066436E+00
18.000000 -18.000000 9.422329E+00
18.000000 -20.000000 -2.583099E+01
18.000000 -22.000000 -6.304855E+01
18.000000 -24.000000 -6.390212E+01
18.000000 -26.000000 -4.207531E+01
18.000000 -28.000000 -3.106117E+01
18.000000 -30.000000 -2.178058E+01
18.000000 -32.000000 -1.940998E+00
18.000000 -34.000000 1.690194E+01
18.000000 -36.000000 4.882663E+01
18.000000 -38.000000 7.422016E+01
18.000000 -40.000000 1.068352E+02
20.000000 40.000000 8.618498E+00
20.000000 38.000000 5.129753E+01
20.000000 36.000000 6.577071E+01
20.000000 34.000000 5.925595E+01
20.000000 32.000000 2.045324E+01
20.000000 30.000000 -1.194847E+01
20.000000 28.000000 -2.366015E+01
20.000000 26.000000 -9.775650E+00
20.000000 24.000000 -4.109368E+00
20.000000 22.000000 -1.958491E+01
20.000000 20.000000 -1.119146E+01
20.000000 18.000000 9.104642E+00
20.000000 16.000000 9.215329E+00
20.000000 14.000000 6.705031E+00
20.000000 12.000000 7.924809E+00
20.000000 10.000000 2.687687E+01
20.000000 8.000000 6.099495E+01
20.000000 6.000000 9.298793E+01
20.000000 4.000000 1.325090E+02
20.000000 2.000000 1.539482E+02
20.000000 0.000000 1.265163E+02
20.000000 -2.000000 6.657561E+01
20.000000 -4.000000 1.831796E+00
20.000000 -6.000000 -4.027225E+01
20.000000 -8.000000 -7.722007E+01
20.000000 -10.000000 -1.266509E+02
20.000000 -12.000000 -1.300201E+02
20.000000 -14.000000 -5.520545E+01
20.000000 -16.000000 2.744400E+01
20.000000 -18.000000 3.297445E+01
20.000000 -20.000000 -8.436450E+00
20.000000 -22.000000 -4.039469E+01
20.000000 -24.000000 -3.357092E+01
20.000000 -26.000000 -1.385801E+01
20.000000 -28.000000 -6.332688E+00
20.000000 -30.000000 -4.765253E-01
20.000000 -32.000000 1.042206E+01
20.000000 -34.000000 1.878725E+01
20.000000 -36.000000 3.609952E+01
20.000000 -38.000000 5.968648E+01
20.000000 -40.000000 9.531099E+01
22.000000 40.000000 -6.803300E+00
22.000000 38.000000 4.061346E+01
22.000000 36.000000 6.571996E+01
22.000000 34.000000 6.370643E+01
22.000000 32.000000 2.521806E+01
22.000000 30.000000 -6.541597E+00
22.000000 28.000000 -2.112708E+01
22.000000 26.000000 -1.088761E+01
22.000000 24.000000 -6.057886E+00
22.000000 22.000000 -2.345381E+01
22.000000 20.000000 -2.814723E+01
22.000000 18.000000 -1.562826E+01
22.000000 16.000000 -7.579355E+00
22.000000 14.000000 -1.652049E+00
22.000000 12.000000 4.655225E+00
22.000000 10.000000 2.155788E+01
22.000000 8.000000 2.945377E+01
22.000000 6.000000 3.020409E+01
22.000000 4.000000 7.654293E+01
22.000000 2.000000 1.202179E+02
22.000000 0.000000 9.349808E+01
22.000000 -2.000000 3.491901E+01
22.000000 -4.000000 -1.676042E+01
22.000000 -6.000000 -4.775831E+01
22.000000 -8.000000 -8.562491E+01
22.000000 -10.000000 -1.380588E+02
22.000000 -12.000000 -1.221732E+02
22.000000 -14.000000 -1.872088E+01
22.000000 -16.000000 8.292045E+01
22.000000 -18.000000 8.664614E+01
22.000000 -20.000000 3.781018E+01
22.000000 -22.000000 7.413899E+00
22.000000 -24.000000 1.325207E+01
22.000000 -26.000000 3.187289E+01
22.000000 -28.000000 2.438283E+01
22.000000 -30.000000 1.298209E+01
22.000000 -32.000000 1.076346E+01
22.000000 -34.000000 7.939249E+00
22.000000 -36.000000 1.200108E+01
22.000000 -38.000000 3.483061E+01
22.000000 -40.000000 7.502427E+01
24.000000 40.000000 -2.633017E+01
24.000000 38.000000 2.978480E+01
24.000000 36.000000 6.964004E+01
24.000000 34.000000 8.052012E+01
24.000000 32.000000 4.670817E+01
24.000000 30.000000 8.567595E+00
24.000000 28.000000 -1.644466E+01
24.000000 26.000000 -1.488075E+01
24.000000 24.000000 -1.566460E+01
24.000000 22.000000 -3.228988E+01
24.000000 20.000000 -4.356736E+01
24.000000 18.000000 -3.823520E+01
24.000000 16.000000 -3.275560E+01
24.000000 14.000000 -2.969201E+01
24.000000 12.000000 -2.365837E+01
24.000000 10.000000 -1.047308E+01
24.000000 8.000000 3.781082E+00
24.000000 6.000000 2.329293E+01
24.000000 4.000000 7.280197E+01
24.000000 2.000000 9.217321E+01
24.000000 0.000000 4.921101E+01
24.000000 -2.000000 1.842876E+00
24.000000 -4.000000 -1.967262E+01
24.000000 -6.000000 -2.753496E+01
24.000000 -8.000000 -5.588967E+01
24.000000 -10.000000 -9.934220E+01
24.000000 -12.000000 -7.295860E+01
24.000000 -14.000000 3.542666E+01
24.000000 -16.000000 1.310012E+02
24.000000 -18.000000 1.234169E+02
24.000000 -20.000000 6.576028E+01
24.000000 -22.000000 3.495513E+01
24.000000 -24.000000 3.963983E+01
24.000000 -26.000000 5.712091E+01
24.000000 -28.000000 3.852702E+01
24.000000 -30.000000 1.113082E+01
24.000000 -32.000000 -4.142867E+00
24.000000 -34.000000 -1.329171E+01
24.000000 -36.000000 -1.246853E+01
24.000000 -38.000000 1.067583E+01
24.000000 -40.000000 5.576663E+01
26.000000 40.000000 -3.771418E+01
26.000000 38.000000 2.338948E+01
26.000000 36.000000 6.902438E+01
26.000000 34.000000 9.304658E+01
26.000000 32.000000 6.403752E+01
26.000000 30.000000 1.264821E+01
26.000000 28.000000 -2.376193E+01
26.000000 26.000000 -2.704619E+01
26.000000 24.000000 -3.319487E+01
26.000000 22.000000 -4.305553E+01
26.000000 20.000000 -4.396155E+01
26.000000 18.000000 -3.674321E+01
26.000000 16.000000 -3.738298E+01
26.000000 14.000000 -4.212833E+01
26.000000 12.000000 -3.982196E+01
26.000000 10.000000 -3.223408E+01
26.000000 8.000000 -1.126613E+00
26.000000 6.000000 5.521081E+01
26.000000 4.000000 1.129514E+02
26.000000 2.000000 1.004390E+02
26.000000 0.000000 3.985497E+01
26.000000 -2.000000 3.900760E-01
26.000000 -4.000000 3.782908E+00
26.000000 -6.000000 1.375924E+01
26.000000 -8.000000 -8.824872E+00
26.000000 -10.000000 -4.328712E+01
26.000000 -12.000000 -2.203764E+01
26.000000 -14.000000 6.569926E+01
26.000000 -16.000000 1.339859E+02
26.000000 -18.000000 1.077021E+02
26.000000 -20.000000 4.346440E+01
26.000000 -22.000000 1.320632E+01
26.000000 -24.000000 2.513656E+01
26.000000 -26.000000 4.322229E+01
26.000000 -28.000000 2.664821E+01
26.000000 -30.000000 -4.238879E+00
26.000000 -32.000000 -3.069025E+01
26.000000 -34.000000 -3.924622E+01
26.000000 -36.000000 -2.863731E+01
26.000000 -38.000000 -3.452270E+00
26.000000 -40.000000 4.577492E+01
28.000000 40.000000 -5.038435E+01
28.000000 38.000000 1.212073E+01
28.000000 36.000000 6.259160E+01
28.000000 34.000000 9.653405E+01
28.000000 32.000000 7.207781E+01
28.000000 30.000000 1.371679E+01
28.000000 28.000000 -2.986670E+01
28.000000 26.000000 -3.743543E+01
28.000000 24.000000 -4.388434E+01
28.000000 22.000000 -3.923561E+01
28.000000 20.000000 -2.461843E+01
28.000000 18.000000 -8.731819E+00
28.000000 16.000000 -7.170588E+00
28.000000 14.000000 -1.411225E+01
28.000000 12.000000 -2.140497E+01
28.000000 10.000000 -2.510715E+01
28.000000 8.000000 9.485091E+00
28.000000 6.000000 8.838063E+01
28.000000 4.000000 1.508457E+02
28.000000 2.000000 1.235240E+02
28.000000 0.000000 6.625432E+01
28.000000 -2.000000 3.282127E+01
28.000000 -4.000000 4.053214E+01
28.000000 -6.000000 5.091624E+01
28.000000 -8.000000 2.076803E+01
28.000000 -10.000000 -2.162370E+01
28.000000 -12.000000 -2.065882E+01
28.000000 -14.000000 3.661752E+01
28.000000 -16.000000 7.727056E+01
28.000000 -18.000000 3.774036E+01
28.000000 -20.000000 -2.778206E+01
28.000000 -22.000000 -5.186322E+01
28.000000 -24.000000 -2.362439E+01
28.000000 -26.000000 5.951052E+00
28.000000 -28.000000 2.209574E+00
28.000000 -30.000000 -2.089412E+01
28.000000 -32.000000 -4.914687E+01
28.000000 -34.000000 -5.244680E+01
28.000000 -36.000000 -3.263073E+01
28.000000 -38.000000 -8.728937E+00
28.000000 -40.000000 4.123076E+01
30.000000 40.000000 -6.880155E+01
30.000000 38.000000 -9.906511E+00
30.000000 36.000000 4.723684E+01
30.000000 34.000000 8.926612E+01
30.000000 32.000000 7.185686E+01
30.000000 30.000000 1.882633E+01
30.000000 28.000000 -2.335515E+01
30.000000 26.000000 -3.476538E+01
30.000000 24.000000 -3.660278E+01
30.000000 22.000000 -1.533418E+01
30.000000 20.000000 1.332049E+01
30.000000 18.000000 3.911957E+01
30.000000 16.000000 4.810493E+01
30.000000 14.000000 4.532654E+01
30.000000 12.000000 2.863920E+01
30.000000 10.000000 1.407437E+01
30.000000 8.000000 3.532182E+01
30.000000 6.000000 9.792111E+01
30.000000 4.000000 1.370368E+02
30.000000 2.000000 1.044589E+02
30.000000 0.000000 6.271403E+01
30.000000 -2.000000 4.606301E+01
30.000000 -4.000000 5.738566E+01
30.000000 -6.000000 5.572928E+01
30.000000 -8.000000 8.000002E+00
30.000000 -10.000000 -5.202348E+01
30.000000 -12.000000 -6.758336E+01
30.000000 -14.000000 -3.505190E+01
30.000000 -16.000000 -1.402619E+01
30.000000 -18.000000 -5.153623E+01
30.000000 -20.000000 -1.080244E+02
30.000000 -22.000000 -1.220744E+02
30.000000 -24.000000 -7.703842E+01
30.000000 -26.000000 -2.913683E+01
30.000000 -28.000000 -1.682570E+01
30.000000 -30.000000 -2.769412E+01
30.000000 -32.000000 -5.048509E+01
30.000000 -34.000000 -4.837045E+01
30.000000 -36.000000 -2.677707E+01
30.000000 -38.000000 -6.806760E+00
30.000000 -40.000000 3.713968E+01
32.000000 40.000000 -8.285311E+01
32.000000 38.000000 -3.642579E+01
32.000000 36.000000 1.885259E+01
32.000000 34.000000 6.701137E+01
32.000000 32.000000 6.146260E+01
32.000000 30.000000 2.179482E+01
32.000000 28.000000 -6.379482E+00
32.000000 26.000000 -1.476962E+01
32.000000 24.000000 -8.896148E+00
32.000000 22.000000 1.936049E+01
32.000000 20.000000 4.931283E+01
32.000000 18.000000 7.322678E+01
32.000000 16.000000 8.377789E+01
32.000000 14.000000 8.520393E+01
32.000000 12.000000 7.051465E+01
32.000000 10.000000 5.763661E+01
32.000000 8.000000 6.056155E+01
32.000000 6.000000 8.370393E+01
32.000000 4.000000 7.855578E+01
32.000000 2.000000 3.716321E+01
32.000000 0.000000 8.214897E+00
32.000000 -2.000000 1.442756E+01
32.000000 -4.000000 3.628966E+01
32.000000 -6.000000 2.452968E+01
32.000000 -8.000000 -3.661957E+01
32.000000 -10.000000 -1.035778E+02
32.000000 -12.000000 -1.226834E+02
32.000000 -14.000000 -1.049208E+02
32.000000 -16.000000 -9.348102E+01
32.000000 -18.000000 -1.179396E+02
32.000000 -20.000000 -1.518015E+02
32.000000 -22.000000 -1.541906E+02
32.000000 -24.000000 -1.046723E+02
32.000000 -26.000000 -4.304298E+01
32.000000 -28.000000 -2.317446E+01
32.000000 -30.000000 -2.898815E+01
32.000000 -32.000000 -4.483896E+01
32.000000 -34.000000 -4.192691E+01
32.000000 -36.000000 -1.922461E+01
32.000000 -38.000000 3.712603E+00
32.000000 -40.000000 3.323134E+01
34.000000 40.000000 -8.820868E+01
34.000000 38.000000 -6.062379E+01
34.000000 36.000000 -1.578895E+01
34.000000 34.000000 3.281269E+01
34.000000 32.000000 3.681883E+01
34.000000 30.000000 1.358570E+01
34.000000 28.000000 7.743552E+00
34.000000 26.000000 1.269819E+01
34.000000 24.000000 2.997719E+01
34.000000 22.000000 5.161831E+01
34.000000 20.000000 6.412118E+01
34.000000 18.000000 7.099074E+01
34.000000 16.000000 7.110301E+01
34.000000 14.000000 6.844122E+01
34.000000 12.000000 6.181700E+01
34.000000 10.000000 5.945450E+01
34.000000 8.000000 5.602405E+01
34.000000 6.000000 4.741325E+01
34.000000 4.000000 1.168794E+01
34.000000 2.000000 -3.588938E+01
34.000000 0.000000 -6.703988E+01
34.000000 -2.000000 -5.017039E+01
34.000000 -4.000000 -1.065778E+01
34.000000 -6.000000 -1.643639E+01
34.000000 -8.000000 -7.973482E+01
34.000000 -10.000000 -1.398125E+02
34.000000 -12.000000 -1.490343E+02
34.000000 -14.000000 -1.307663E+02
34.000000 -16.000000 -1.158876E+02
34.000000 -18.000000 -1.244779E+02
34.000000 -20.000000 -1.366795E+02
34.000000 -22.000000 -1.321382E+02
34.000000 -24.000000 -9.447432E+01
34.000000 -26.000000 -3.698585E+01
34.000000 -28.000000 -2.214360E+01
34.000000 -30.000000 -3.040776E+01
34.000000 -32.000000 -4.066886E+01
34.000000 -34.000000 -3.831671E+01
34.000000 -36.000000 -1.599072E+01
34.000000 -38.000000 1.023616E+01
34.000000 -40.000000 2.117270E+01
36.000000 40.000000 -8.698882E+01
36.000000 38.000000 -7.890029E+01
36.000000 36.000000 -4.824628E+01
36.000000 34.000000 -7.666588E+00
36.000000 32.000000 -1.853373E+00
36.000000 30.000000 -9.467396E+00
36.000000 28.000000 5.350857E+00
36.000000 26.000000 2.914830E+01
36.000000 24.000000 5.969470E+01
36.000000 22.000000 6.699159E+01
36.000000 20.000000 5.403268E+01
36.000000 18.000000 3.739551E+01
36.000000 16.000000 2.262536E+01
36.000000 14.000000 1.476929E+01
36.000000 12.000000 1.697906E+01
36.000000 10.000000 2.250527E+01
36.000000 8.000000 2.243893E+01
36.000000 6.000000 -1.777287E-01
36.000000 4.000000 -4.027048E+01
36.000000 2.000000 -8.199864E+01
36.000000 0.000000 -1.188197E+02
36.000000 -2.000000 -1.037660E+02
36.000000 -4.000000 -4.882294E+01
36.000000 -6.000000 -3.694407E+01
36.000000 -8.000000 -9.143119E+01
36.000000 -10.000000 -1.382859E+02
36.000000 -12.000000 -1.363094E+02
36.000000 -14.000000 -1.121801E+02
36.000000 -16.000000 -8.821906E+01
36.000000 -18.000000 -8.106093E+01
36.000000 -20.000000 -7.873531E+01
36.000000 -22.000000 -7.729896E+01
36.000000 -24.000000 -6.415633E+01
36.000000 -26.000000 -3.087981E+01
36.000000 -28.000000 -2.199925E+01
36.000000 -30.000000 -3.101721E+01
36.000000 -32.000000 -3.864220E+01
36.000000 -34.000000 -3.368143E+01
36.000000 -36.000000 -1.699721E+01
36.000000 -38.000000 3.545399E-01
36.000000 -40.000000 -4.812231E+00
38.000000 40.000000 -8.271935E+01
38.000000 38.000000 -9.194414E+01
38.000000 36.000000 -7.826851E+01
38.000000 34.000000 -5.184192E+01
38.000000 32.000000 -3.948046E+01
38.000000 30.000000 -3.322819E+01
38.000000 28.000000 -1.225851E+01
38.000000 26.000000 1.616399E+01
38.000000 24.000000 4.989907E+01
38.000000 22.000000 4.924759E+01
38.000000 20.000000 2.059772E+01
38.000000 18.000000 -6.533511E+00
38.000000 16.000000 -1.660603E+01
38.000000 14.000000 -1.547587E+01
38.000000 12.000000 -6.455133E+00
38.000000 10.000000 -7.269985E+00
38.000000 8.000000 -1.484205E+01
38.000000 6.000000 -3.536883E+01
38.000000 4.000000 -5.335052E+01
38.000000 2.000000 -7.791149E+01
38.000000 0.000000 -1.171141E+02
38.000000 -2.000000 -1.185900E+02
38.000000 -4.000000 -6.146799E+01
38.000000 -6.000000 -2.645798E+01
38.000000 -8.000000 -6.171974E+01
38.000000 -10.000000 -1.032341E+02
38.000000 -12.000000 -1.093868E+02
38.000000 -14.000000 -8.795573E+01
38.000000 -16.000000 -5.764904E+01
38.000000 -18.000000 -3.640185E+01
38.000000 -20.000000 -2.574241E+01
38.000000 -22.000000 -3.199853E+01
38.000000 -24.000000 -4.277241E+01
38.000000 -26.000000 -3.347109E+01
38.000000 -28.000000 -2.847629E+01
38.000000 -30.000000 -3.694786E+01
38.000000 -32.000000 -4.339398E+01
38.000000 -34.000000 -3.432786E+01
38.000000 -36.000000 -2.325126E+01
38.000000 -38.000000 -1.840839E+01
38.000000 -40.000000 -3.205126E+01
40.000000 40.000000 -7.627382E+01
40.000000 38.000000 -1.041722E+02
40.000000 36.000000 -1.119781E+02
40.000000 34.000000 -9.982659E+01
40.000000 32.000000 -6.999134E+01
40.000000 30.000000 -4.932402E+01
40.000000 28.000000 -3.471260E+01
40.000000 26.000000 -1.825374E+01
40.000000 24.000000 7.232014E+00
40.000000 22.000000 1.358375E+01
40.000000 20.000000 -3.895861E+00
40.000000 18.000000 -1.804921E+01
40.000000 16.000000 -1.366553E+01
40.000000 14.000000 -2.980617E+00
40.000000 12.000000 3.500920E+00
40.000000 10.000000 -6.139828E+00
40.000000 8.000000 -1.837146E+01
40.000000 6.000000 -2.465602E+01
40.000000 4.000000 -1.623235E+01
40.000000 2.000000 -2.739170E+01
40.000000 0.000000 -6.696776E+01
40.000000 -2.000000 -9.564121E+01
40.000000 -4.000000 -6.639904E+01
40.000000 -6.000000 -2.466400E+01
40.000000 -8.000000 -3.557371E+01
40.000000 -10.000000 -6.882357E+01
40.000000 -12.000000 -8.935132E+01
40.000000 -14.000000 -8.115372E+01
40.000000 -16.000000 -5.754225E+01
40.000000 -18.000000 -3.327814E+01
40.000000 -20.000000 -2.021291E+01
40.000000 -22.000000 -2.909380E+01
40.000000 -24.000000 -4.615563E+01
40.000000 -26.000000 -4.247035E+01
40.000000 -28.000000 -3.814826E+01
40.000000 -30.000000 -4.548081E+01
40.000000 -32.000000 -5.017916E+01
40.000000 -34.000000 -3.774543E+01
40.000000 -36.000000 -3.027331E+01
40.000000 -38.000000 -3.529907E+01
40.000000 -40.000000 -5.027501E+01
42.000000 40.000000 -6.391247E+01
42.000000 38.000000 -1.143061E+02
42.000000 36.000000 -1.474665E+02
42.000000 34.000000 -1.426762E+02
42.000000 32.000000 -9.439890E+01
42.000000 30.000000 -5.748206E+01
42.000000 28.000000 -4.657210E+01
42.000000 26.000000 -4.439329E+01
42.000000 24.000000 -3.172587E+01
42.000000 22.000000 -1.356895E+01
42.000000 20.000000 -4.558390E+00
42.000000 18.000000 5.060827E+00
42.000000 16.000000 1.472591E+01
42.000000 14.000000 2.036621E+01
42.000000 12.000000 1.836335E+01
42.000000 10.000000 1.039435E+01
42.000000 8.000000 2.137733E+00
42.000000 6.000000 1.516236E+01
42.000000 4.000000 4.633206E+01
42.000000 2.000000 4.222618E+01
42.000000 0.000000 5.772026E+00
42.000000 -2.000000 -5.547240E+01
42.000000 -4.000000 -7.717296E+01
42.000000 -6.000000 -4.578605E+01
42.000000 -8.000000 -3.276854E+01
42.000000 -10.000000 -4.934084E+01
42.000000 -12.000000 -7.164302E+01
42.000000 -14.000000 -8.116930E+01
42.000000 -16.000000 -8.566511E+01
42.000000 -18.000000 -8.088795E+01
42.000000 -20.000000 -6.825723E+01
42.000000 -22.000000 -6.564817E+01
42.000000 -24.000000 -6.508642E+01
42.000000 -26.000000 -5.312428E+01
42.000000 -28.000000 -4.595567E+01
42.000000 -30.000000 -4.802028E+01
42.000000 -32.000000 -4.745643E+01
42.000000 -34.000000 -3.313465E+01
42.000000 -36.000000 -3.149342E+01
42.000000 -38.000000 -4.525036E+01
42.000000 -40.000000 -6.174679E+01
44.000000 40.000000 -5.224226E+01
44.000000 38.000000 -1.183094E+02
44.000000 36.000000 -1.673687E+02
44.000000 34.000000 -1.622526E+02
44.000000 32.000000 -1.006709E+02
44.000000 30.000000 -4.822840E+01
44.000000 28.000000 -3.341251E+01
44.000000 26.000000 -4.076576E+01
44.000000 24.000000 -4.166828E+01
44.000000 22.000000 -2.306173E+01
44.000000 20.000000 -1.247178E+00
44.000000 18.000000 2.111933E+01
44.000000 16.000000 3.255645E+01
44.000000 14.000000 3.169883E+01
44.000000 12.000000 2.195800E+01
44.000000 10.000000 1.324684E+01
44.000000 8.000000 7.438214E+00
44.000000 6.000000 2.817552E+01
44.000000 4.000000 6.427172E+01
44.000000 2.000000 6.810681E+01
44.000000 0.000000 3.968265E+01
44.000000 -2.000000 -2.303392E+01
44.000000 -4.000000 -5.759866E+01
44.000000 -6.000000 -4.118429E+01
44.000000 -8.000000 -2.818511E+01
44.000000 -10.000000 -3.449428E+01
44.000000 -12.000000 -5.288794E+01
44.000000 -14.000000 -8.089921E+01
44.000000 -16.000000 -1.173773E+02
44.000000 -18.000000 -1.381546E+02
44.000000 -20.000000 -1.269634E+02
44.000000 -22.000000 -1.032835E+02
44.000000 -24.000000 -7.719670E+01
44.000000 -26.000000 -5.384048E+01
44.000000 -28.000000 -4.607153E+01
44.000000 -30.000000 -4.793006E+01
44.000000 -32.000000 -4.220982E+01
44.000000 -34.000000 -2.444912E+01
44.000000 -36.000000 -2.683260E+01
44.000000 -38.000000 -4.697600E+01
44.000000 -40.000000 -6.944935E+01
46.000000 40.000000 -5.175815E+01
46.000000 38.000000 -1.156799E+02
46.000000 36.000000 -1.571965E+02
46.000000 34.000000 -1.479787E+02
46.000000 32.000000 -8.493892E+01
46.000000 30.000000 -2.492090E+01
46.000000 28.000000 1.034790E+00
46.000000 26.000000 -5.215660E+00
46.000000 24.000000 -1.868460E+01
46.000000 22.000000 -1.745722E+01
46.000000 20.000000 -5.044343E+00
46.000000 18.000000 1.377724E+01
46.000000 16.000000 2.665800E+01
46.000000 14.000000 2.571526E+01
46.000000 12.000000 1.216331E+01
46.000000 10.000000 -2.952510E+00
46.000000 8.000000 -8.887935E+00
46.000000 6.000000 7.053886E+00
46.000000 4.000000 2.844474E+01
46.000000 2.000000 3.386595E+01
46.000000 0.000000 1.661195E+01
46.000000 -2.000000 -2.211492E+01
46.000000 -4.000000 -3.448777E+01
46.000000 -6.000000 -1.648673E+01
46.000000 -8.000000 -1.156673E+01
46.000000 -10.000000 -1.716085E+01
46.000000 -12.000000 -4.019912E+01
46.000000 -14.000000 -8.337083E+01
46.000000 -16.000000 -1.367440E+02
46.000000 -18.000000 -1.697055E+02
46.000000 -20.000000 -1.533480E+02
46.000000 -22.000000 -1.119644E+02
46.000000 -24.000000 -7.269764E+01
46.000000 -26.000000 -3.837622E+01
46.000000 -28.000000 -3.505637E+01
46.000000 -30.000000 -4.917383E+01
46.000000 -32.000000 -4.291630E+01
46.000000 -34.000000 -1.829198E+01
46.000000 -36.000000 -1.870480E+01
46.000000 -38.000000 -4.026236E+01
46.000000 -40.000000 -7.315131E+01
48.000000 40.000000 -5.785287E+01
48.000000 38.000000 -1.044736E+02
48.000000 36.000000 -1.235328E+02
48.000000 34.000000 -1.121337E+02
48.000000 32.000000 -6.439803E+01
48.000000 30.000000 -7.294248E+00
48.000000 28.000000 3.618873E+01
48.000000 26.000000 4.200526E+01
48.000000 24.000000 2.150438E+01
48.000000 22.000000 -4.949949E+00
48.000000 20.000000 -1.139130E+01
48.000000 18.000000 -6.639357E-01
48.000000 16.000000 8.674333E+00
48.000000 14.000000 7.580851E+00
48.000000 12.000000 -7.497097E+00
48.000000 10.000000 -2.417321E+01
48.000000 8.000000 -2.493981E+01
48.000000 6.000000 -1.367441E+01
48.000000 4.000000 -1.183498E+01
48.000000 2.000000 -1.895819E+01
48.000000 0.000000 -3.702252E+01
48.000000 -2.000000 -5.256399E+01
48.000000 -4.000000 -3.731507E+01
48.000000 -6.000000 -8.250014E+00
48.000000 -8.000000 -3.803127E+00
48.000000 -10.000000 -8.777850E+00
48.000000 -12.000000 -3.897202E+01
48.000000 -14.000000 -8.333691E+01
48.000000 -16.000000 -1.352977E+02
48.000000 -18.000000 -1.638735E+02
48.000000 -20.000000 -1.389168E+02
48.000000 -22.000000 -9.600049E+01
48.000000 -24.000000 -6.144887E+01
48.000000 -26.000000 -2.940915E+01
48.000000 -28.000000 -3.346615E+01
48.000000 -30.000000 -5.444822E+01
48.000000 -32.000000 -4.801491E+01
48.000000 -34.000000 -1.695251E+01
48.000000 -36.000000 -1.094805E+01
48.000000 -38.000000 -2.748209E+01
48.000000 -40.000000 -6.589571E+01
50.000000 40.000000 -6.329839E+01
50.000000 38.000000 -8.727409E+01
50.000000 36.000000 -8.331245E+01
50.000000 34.000000 -7.462400E+01
50.000000 32.000000 -5.457199E+01
50.000000 30.000000 -1.038211E+01
50.000000 28.000000 4.908437E+01
50.000000 26.000000 7.274430E+01
50.000000 24.000000 5.454455E+01
50.000000 22.000000 5.023572E+00
50.000000 20.000000 -1.961608E+01
50.000000 18.000000 -1.545974E+01
50.000000 16.000000 -7.274585E+00
50.000000 14.000000 -5.713485E+00
50.000000 12.000000 -1.819917E+01
50.000000 10.000000 -2.976167E+01
50.000000 8.000000 -2.218170E+01
50.000000 6.000000 -1.302508E+01
50.000000 4.000000 -2.611992E+01
50.000000 2.000000 -4.590748E+01
50.000000 0.000000 -6.506641E+01
50.000000 -2.000000 -6.921058E+01
50.000000 -4.000000 -4.662418E+01
50.000000 -6.000000 -2.466008E+01
50.000000 -8.000000 -2.369048E+01
50.000000 -10.000000 -2.969233E+01
50.000000 -12.000000 -5.350320E+01
50.000000 -14.000000 -8.598149E+01
50.000000 -16.000000 -1.202142E+02
50.000000 -18.000000 -1.340545E+02
50.000000 -20.000000 -1.082031E+02
50.000000 -22.000000 -7.711250E+01
50.000000 -24.000000 -5.546441E+01
50.000000 -26.000000 -3.835615E+01
50.000000 -28.000000 -4.901511E+01
50.000000 -30.000000 -6.255715E+01
50.000000 -32.000000 -5.242016E+01
50.000000 -34.000000 -1.913045E+01
50.000000 -36.000000 -5.832048E+00
50.000000 -38.000000 -1.323222E+01
50.000000 -40.000000 -4.746037E+01
52.000000 40.000000 -6.605136E+01
52.000000 38.000000 -7.418170E+01
52.000000 36.000000 -5.872009E+01
52.000000 34.000000 -5.327423E+01
52.000000 32.000000 -5.510951E+01
52.000000 30.000000 -3.363559E+01
52.000000 28.000000 2.261394E+01
52.000000 26.000000 6.192266E+01
52.000000 24.000000 6.141728E+01
52.000000 22.000000 1.653872E+01
52.000000 20.000000 -1.682556E+01
52.000000 18.000000 -2.197119E+01
52.000000 16.000000 -1.015873E+01
52.000000 14.000000 9.160414E-01
52.000000 12.000000 -3.783725E+00
52.000000 10.000000 -9.469075E+00
52.000000 8.000000 -1.382750E+00
52.000000 6.000000 4.941935E+00
52.000000 4.000000 -1.590038E+01
52.000000 2.000000 -4.027261E+01
52.000000 0.000000 -5.377953E+01
52.000000 -2.000000 -5.349418E+01
52.000000 -4.000000 -4.174906E+01
52.000000 -6.000000 -4.496814E+01
52.000000 -8.000000 -5.652097E+01
52.000000 -10.000000 -6.703969E+01
52.000000 -12.000000 -7.396148E+01
52.000000 -14.000000 -8.931389E+01
52.000000 -16.000000 -1.038880E+02
52.000000 -18.000000 -1.058593E+02
52.000000 -20.000000 -8.489191E+01
52.000000 -22.000000 -6.841986E+01
52.000000 -24.000000 -5.845422E+01
52.000000 -26.000000 -5.002896E+01
52.000000 -28.000000 -5.858741E+01
52.000000 -30.000000 -6.275468E+01
52.000000 -32.000000 -5.069286E+01
52.000000 -34.000000 -2.128838E+01
52.000000 -36.000000 -2.223358E+00
52.000000 -38.000000 -4.089857E+00
52.000000 -40.000000 -3.013635E+01
54.000000 40.000000 -6.673461E+01
54.000000 38.000000 -7.144371E+01
54.000000 36.000000 -5.890260E+01
54.000000 34.000000 -5.634095E+01
54.000000 32.000000 -6.916254E+01
54.000000 30.000000 -7.059447E+01
54.000000 28.000000 -3.155067E+01
54.000000 26.000000 1.701471E+01
54.000000 24.000000 4.509645E+01
54.000000 22.000000 2.872195E+01
54.000000 20.000000 -2.463331E-01
54.000000 18.000000 -1.160349E+01
54.000000 16.000000 2.067589E+00
54.000000 14.000000 2.113980E+01
54.000000 12.000000 2.437296E+01
54.000000 10.000000 1.679607E+01
54.000000 8.000000 1.544779E+01
54.000000 6.000000 2.022721E+01
54.000000 4.000000 -3.207874E-01
54.000000 2.000000 -2.081605E+01
54.000000 0.000000 -2.998832E+01
54.000000 -2.000000 -3.419006E+01
54.000000 -4.000000 -3.343624E+01
54.000000 -6.000000 -4.714185E+01
54.000000 -8.000000 -6.341258E+01
54.000000 -10.000000 -7.435128E+01
54.000000 -12.000000 -7.285992E+01
54.000000 -14.000000 -7.726294E+01
54.000000 -16.000000 -8.000867E+01
54.000000 -18.000000 -7.802848E+01
54.000000 -20.000000 -6.733889E+01
54.000000 -22.000000 -6.389162E+01
54.000000 -24.000000 -6.225831E+01
54.000000 -26.000000 -5.196219E+01
54.000000 -28.000000 -5.406331E+01
54.000000 -30.000000 -5.493689E+01
54.000000 -32.000000 -4.574044E+01
54.000000 -34.000000 -2.534876E+01
54.000000 -36.000000 -5.657251E+00
54.000000 -38.000000 -3.949269E+00
54.000000 -40.000000 -1.898624E+01
56.000000 40.000000 -6.617271E+01
56.000000 38.000000 -7.513618E+01
56.000000 36.000000 -7.221309E+01
56.000000 34.000000 -7.606368E+01
56.000000 32.000000 -9.341775E+01
56.000000 30.000000 -1.059899E+02
56.000000 28.000000 -8.178822E+01
56.000000 26.000000 -3.199251E+01
56.000000 24.000000 9.512920E+00
56.000000 22.000000 2.166761E+01
56.000000 20.000000 7.062570E+00
56.000000 18.000000 -1.051768E+00
56.000000 16.000000 1.811761E+01
56.000000 14.000000 4.588728E+01
56.000000 12.000000 5.171604E+01
56.000000 10.000000 3.017652E+01
56.000000 8.000000 2.686751E+00
56.000000 6.000000 -6.599129E+00
56.000000 4.000000 -1.335538E+01
56.000000 2.000000 -1.131640E+01
56.000000 0.000000 -1.019678E+01
56.000000 -2.000000 -1.910469E+01
56.000000 -4.000000 -2.160052E+01
56.000000 -6.000000 -2.300827E+01
56.000000 -8.000000 -2.557941E+01
56.000000 -10.000000 -2.567283E+01
56.000000 -12.000000 -2.509573E+01
56.000000 -14.000000 -2.498340E+01
56.000000 -16.000000 -2.113229E+01
56.000000 -18.000000 -2.352291E+01
56.000000 -20.000000 -3.682014E+01
56.000000 -22.000000 -5.102404E+01
56.000000 -24.000000 -5.758626E+01
56.000000 -26.000000 -4.612725E+01
56.000000 -28.000000 -4.578992E+01
56.000000 -30.000000 -5.188629E+01
56.000000 -32.000000 -4.583983E+01
56.000000 -34.000000 -3.217294E+01
56.000000 -36.000000 -1.768650E+01
56.000000 -38.000000 -8.754889E+00
56.000000 -40.000000 -1.014727E+01
58.000000 40.000000 -6.553138E+01
58.000000 38.000000 -7.802374E+01
58.000000 36.000000 -8.430482E+01
58.000000 34.000000 -9.227112E+01
58.000000 32.000000 -1.088663E+02
58.000000 30.000000 -1.225289E+02
58.000000 28.000000 -1.062110E+02
58.000000 26.000000 -6.286123E+01
58.000000 24.000000 -2.099834E+01
58.000000 22.000000 6.569214E-01
58.000000 20.000000 8.333840E-01
58.000000 18.000000 1.006398E-01
58.000000 16.000000 2.477963E+01
58.000000 14.000000 5.705450E+01
58.000000 12.000000 6.254591E+01
58.000000 10.000000 3.136345E+01
58.000000 8.000000 -2.422809E+01
58.000000 6.000000 -6.043078E+01
58.000000 4.000000 -4.332841E+01
58.000000 2.000000 -1.324245E+01
58.000000 0.000000 -9.343963E-01
58.000000 -2.000000 -7.416676E+00
58.000000 -4.000000 -7.673610E+00
58.000000 -6.000000 6.769733E+00
58.000000 -8.000000 2.024723E+01
58.000000 -10.000000 3.203057E+01
58.000000 -12.000000 3.205019E+01
58.000000 -14.000000 3.769943E+01
58.000000 -16.000000 4.581603E+01
58.000000 -18.000000 3.552747E+01
58.000000 -20.000000 2.826757E-01
