-30.000000 -16.000000 2.444598E+00
-30.000000 -18.000000 -1.423924E+01
-30.000000 -20.000000 -2.219075E+01
-30.000000 -22.000000 -1.110020E+01
-30.000000 -24.000000 1.796922E+01
-30.000000 -26.000000 4.634322E+01
-30.000000 -28.000000 5.691003E+01
-30.000000 -30.000000 6.599798E+01
-30.000000 -32.000000 6.520122E+01
-30.000000 -34.000000 5.434147E+01
-30.000000 -36.000000 3.853501E+01
-30.000000 -38.000000 2.553321E+01
-30.000000 -40.000000 2.027272E+01
-28.000000 40.000000 2.609611E+01
-28.000000 38.000000 2.821853E+01
-28.000000 36.000000 2.736994E+01
-28.000000 34.000000 2.433150E+01
-28.000000 32.000000 1.874433E+01
-28.000000 30.000000 1.859970E+01
-28.000000 28.000000 2.538962E+01
-28.000000 26.000000 3.295669E+01
-28.000000 24.000000 2.921629E+01
-28.000000 22.000000 1.485706E+01
-28.000000 20.000000 6.991167E-01
-28.000000 18.000000 -8.036518E-02
-28.000000 16.000000 1.484887E+01
-28.000000 14.000000 3.463419E+01
-28.000000 12.000000 5.054390E+01
-28.000000 10.000000 5.874625E+01
-28.000000 8.000000 5.202149E+01
-28.000000 6.000000 3.699834E+01
-28.000000 4.000000 8.752858E+00
-28.000000 2.000000 -2.431144E+01
-28.000000 0.000000 -5.322629E+01
-28.000000 -2.000000 -6.454657E+01
-28.000000 -4.000000 -5.571661E+01
-28.000000 -6.000000 -3.158214E+01
-28.000000 -8.000000 -8.453247E+00
-28.000000 -10.000000 7.661045E+00
-28.000000 -12.000000 1.417327E+01
-28.000000 -14.000000 1.310773E+01
-28.000000 -16.000000 -1.974411E+00
-28.000000 -18.000000 -2.189024E+01
-28.000000 -20.000000 -3.343837E+01
-28.000000 -22.000000 -2.483621E+01
-28.000000 -24.000000 1.781883E+00
-28.000000 -26.000000 3.094646E+01
-28.000000 -28.000000 4.648755E+01
-28.000000 -30.000000 5.837515E+01
-28.000000 -32.000000 5.965477E+01
-28.000000 -34.000000 4.963834E+01
-28.000000 -36.000000 3.417568E+01
-28.000000 -38.000000 2.235096E+01
-28.000000 -40.000000 1.805145E+01
-26.000000 40.000000 2.383128E+01
-26.000000 38.000000 2.839280E+01
-26.000000 36.000000 2.884440E+01
-26.000000 34.000000 2.585893E+01
-26.000000 32.000000 1.853728E+01
-26.000000 30.000000 1.688098E+01
-26.000000 28.000000 2.424275E+01
-26.000000 26.000000 3.579408E+01
-26.000000 24.000000 3.683435E+01
-26.000000 22.000000 2.309680E+01
-26.000000 20.000000 9.405733E+00
-26.000000 18.000000 8.153056E+00
-26.000000 16.000000 1.983070E+01
-26.000000 14.000000 3.353041E+01
-26.000000 12.000000 4.285844E+01
-26.000000 10.000000 4.610390E+01
-26.000000 8.000000 4.104471E+01
-26.000000 6.000000 3.230206E+01
-26.000000 4.000000 1.432478E+01
-26.000000 2.000000 -1.391443E+01
-26.000000 0.000000 -4.122941E+01
-26.000000 -2.000000 -5.349087E+01
-26.000000 -4.000000 -4.786554E+01
-26.000000 -6.000000 -3.027493E+01
-26.000000 -8.000000 -1.231347E+01
-26.000000 -10.000000 1.374535E+00
-26.000000 -12.000000 8.637069E+00
-26.000000 -14.000000 7.762142E+00
-26.000000 -16.000000 -8.465107E+00
-26.000000 -18.000000 -3.184141E+01
-26.000000 -20.000000 -4.685586E+01
-26.000000 -22.000000 -4.115117E+01
-26.000000 -24.000000 -1.403438E+01
-26.000000 -26.000000 1.313689E+01
-26.000000 -28.000000 3.192480E+01
-26.000000 -30.000000 4.572106E+01
-26.000000 -32.000000 4.821970E+01
-26.000000 -34.000000 3.955254E+01
-26.000000 -36.000000 2.692272E+01
-26.000000 -38.000000 1.927520E+01
-26.000000 -40.000000 1.805558E+01
-24.000000 40.000000 1.967931E+01
-24.000000 38.000000 2.773271E+01
-24.000000 36.000000 3.065438E+01
-24.000000 34.000000 2.771594E+01
-24.000000 32.000000 1.926997E+01
-24.000000 30.000000 1.696502E+01
-24.000000 28.000000 2.580902E+01
-24.000000 26.000000 4.084951E+01
-24.000000 24.000000 4.557869E+01
-24.000000 22.000000 3.535396E+01
-24.000000 20.000000 2.503223E+01
-24.000000 18.000000 2.394540E+01
-24.000000 16.000000 3.112244E+01
-24.000000 14.000000 3.669847E+01
-24.000000 12.000000 3.584873E+01
-24.000000 10.000000 3.109761E+01
-24.000000 8.000000 2.505337E+01
-24.000000 6.000000 2.108779E+01
-24.000000 4.000000 1.449011E+01
-24.000000 2.000000 -3.712242E+00
-24.000000 0.000000 -2.332783E+01
-24.000000 -2.000000 -3.283780E+01
-24.000000 -4.000000 -3.088571E+01
-24.000000 -6.000000 -2.387784E+01
-24.000000 -8.000000 -1.619895E+01
-24.000000 -10.000000 -9.233916E+00
-24.000000 -12.000000 -3.422540E+00
-24.000000 -14.000000 -2.970004E+00
-24.000000 -16.000000 -1.649911E+01
-24.000000 -18.000000 -3.844194E+01
-24.000000 -20.000000 -5.362978E+01
-24.000000 -22.000000 -5.208810E+01
-24.000000 -24.000000 -3.346517E+01
-24.000000 -26.000000 -1.008178E+01
-24.000000 -28.000000 6.371959E+00
-24.000000 -30.000000 2.003262E+01
-24.000000 -32.000000 2.417453E+01
-24.000000 -34.000000 1.960812E+01
-24.000000 -36.000000 1.438742E+01
-24.000000 -38.000000 1.295512E+01
-24.000000 -40.000000 1.793436E+01
-22.000000 40.000000 1.597443E+01
-22.000000 38.000000 2.616228E+01
-22.000000 36.000000 2.948461E+01
-22.000000 34.000000 2.550016E+01
-22.000000 32.000000 1.736930E+01
-22.000000 30.000000 1.660861E+01
-22.000000 28.000000 2.727747E+01
-22.000000 26.000000 4.343761E+01
-22.000000 24.000000 4.945899E+01
-22.000000 22.000000 4.257053E+01
-22.000000 20.000000 3.522981E+01
-22.000000 18.000000 3.565330E+01
-22.000000 16.000000 4.151729E+01
-22.000000 14.000000 4.234995E+01
-22.000000 12.000000 3.413000E+01
-22.000000 10.000000 2.297472E+01
-22.000000 8.000000 1.387212E+01
-22.000000 6.000000 9.557868E+00
-22.000000 4.000000 6.352567E+00
-22.000000 2.000000 -4.082640E+00
-22.000000 0.000000 -1.413274E+01
-22.000000 -2.000000 -1.739701E+01
-22.000000 -4.000000 -1.621280E+01
-22.000000 -6.000000 -1.659474E+01
-22.000000 -8.000000 -1.774898E+01
-22.000000 -10.000000 -1.728105E+01
-22.000000 -12.000000 -1.394666E+01
-22.000000 -14.000000 -1.301105E+01
-22.000000 -16.000000 -2.191690E+01
-22.000000 -18.000000 -3.972656E+01
-22.000000 -20.000000 -5.376429E+01
-22.000000 -22.000000 -5.371186E+01
-22.000000 -24.000000 -4.163261E+01
-22.000000 -26.000000 -2.754942E+01
-22.000000 -28.000000 -1.738005E+01
-22.000000 -30.000000 -6.951411E+00
-22.000000 -32.000000 -2.938249E+00
-22.000000 -34.000000 -4.390662E+00
-22.000000 -36.000000 -2.984083E+00
-22.000000 -38.000000 3.815909E+00
-22.000000 -40.000000 1.563852E+01
-20.000000 40.000000 1.396706E+01
-20.000000 38.000000 2.368526E+01
-20.000000 36.000000 2.490248E+01
-20.000000 34.000000 1.925940E+01
-20.000000 32.000000 1.158889E+01
-20.000000 30.000000 1.294276E+01
-20.000000 28.000000 2.449319E+01
-20.000000 26.000000 3.979553E+01
-20.000000 24.000000 4.584077E+01
-20.000000 22.000000 4.071855E+01
-20.000000 20.000000 3.583600E+01
-20.000000 18.000000 3.836176E+01
-20.000000 16.000000 4.314238E+01
-20.000000 14.000000 4.024513E+01
-20.000000 12.000000 2.865903E+01
-20.000000 10.000000 1.666793E+01
-20.000000 8.000000 7.328170E+00
-20.000000 6.000000 2.303332E+00
-20.000000 4.000000 -2.537281E+00
-20.000000 2.000000 -8.441910E+00
-20.000000 0.000000 -1.029689E+01
-20.000000 -2.000000 -7.111156E+00
-20.000000 -4.000000 -5.067204E+00
-20.000000 -6.000000 -9.609012E+00
-20.000000 -8.000000 -1.657037E+01
-20.000000 -10.000000 -2.140395E+01
-20.000000 -12.000000 -2.069506E+01
-20.000000 -14.000000 -1.941938E+01
-20.000000 -16.000000 -2.439318E+01
-20.000000 -18.000000 -3.802327E+01
-20.000000 -20.000000 -4.926078E+01
-20.000000 -22.000000 -4.985176E+01
-20.000000 -24.000000 -4.273575E+01
-20.000000 -26.000000 -3.629620E+01
-20.000000 -28.000000 -3.246657E+01
-20.000000 -30.000000 -2.610456E+01
-20.000000 -32.000000 -2.337327E+01
-20.000000 -34.000000 -2.370903E+01
-20.000000 -36.000000 -1.851949E+01
-20.000000 -38.000000 -6.027609E+00
-20.000000 -40.000000 9.796080E+00
-18.000000 40.000000 1.020237E+01
-18.000000 38.000000 1.870926E+01
-18.000000 36.000000 1.891667E+01
-18.000000 34.000000 1.264630E+01
-18.000000 32.000000 5.065786E+00
-18.000000 30.000000 7.895158E+00
-18.000000 28.000000 2.026446E+01
-18.000000 26.000000 3.518095E+01
-18.000000 24.000000 4.018519E+01
-18.000000 22.000000 3.298172E+01
-18.000000 20.000000 2.646657E+01
-18.000000 18.000000 2.657373E+01
-18.000000 16.000000 2.712236E+01
-18.000000 14.000000 2.011391E+01
-18.000000 12.000000 9.548448E+00
-18.000000 10.000000 4.065995E+00
-18.000000 8.000000 1.703959E+00
-18.000000 6.000000 -3.031645E-01
-18.000000 4.000000 -6.937435E+00
-18.000000 2.000000 -1.263653E+01
-18.000000 0.000000 -1.145313E+01
-18.000000 -2.000000 -5.118572E+00
-18.000000 -4.000000 -1.153676E+00
-18.000000 -6.000000 -7.348791E+00
-18.000000 -8.000000 -1.633624E+01
-18.000000 -10.000000 -2.257405E+01
-18.000000 -12.000000 -2.120285E+01
-18.000000 -14.000000 -1.775890E+01
-18.000000 -16.000000 -2.087978E+01
-18.000000 -18.000000 -3.293300E+01
-18.000000 -20.000000 -4.303169E+01
-18.000000 -22.000000 -4.490398E+01
-18.000000 -24.000000 -4.115811E+01
-18.000000 -26.000000 -3.860502E+01
-18.000000 -28.000000 -3.758688E+01
-18.000000 -30.000000 -3.316032E+01
-18.000000 -32.000000 -3.172011E+01
-18.000000 -34.000000 -3.343052E+01
-18.000000 -36.000000 -2.876341E+01
-18.000000 -38.000000 -1.569035E+01
-18.000000 -40.000000 1.490097E-01
-16.000000 40.000000 3.853043E+00
-16.000000 38.000000 1.123749E+01
-16.000000 36.000000 1.141752E+01
-16.000000 34.000000 4.830639E+00
-16.000000 32.000000 -2.366847E+00
-16.000000 30.000000 2.053803E+00
-16.000000 28.000000 1.690844E+01
-16.000000 26.000000 3.299929E+01
-16.000000 24.000000 3.647235E+01
-16.000000 22.000000 2.467448E+01
-16.000000 20.000000 1.176994E+01
-16.000000 18.000000 3.901786E+00
-16.000000 16.000000 -3.220739E+00
-16.000000 14.000000 -1.500741E+01
-16.000000 12.000000 -2.205425E+01
-16.000000 10.000000 -1.583540E+01
-16.000000 8.000000 -4.206005E+00
-16.000000 6.000000 1.499080E+00
-16.000000 4.000000 -4.726364E+00
-16.000000 2.000000 -1.451210E+01
-16.000000 0.000000 -1.767284E+01
-16.000000 -2.000000 -1.346985E+01
-16.000000 -4.000000 -8.059032E+00
-16.000000 -6.000000 -1.192892E+01
-16.000000 -8.000000 -1.807539E+01
-16.000000 -10.000000 -2.096849E+01
-16.000000 -12.000000 -1.602018E+01
-16.000000 -14.000000 -1.020592E+01
-16.000000 -16.000000 -1.395690E+01
-16.000000 -18.000000 -2.717091E+01
-16.000000 -20.000000 -3.868621E+01
-16.000000 -22.000000 -4.230485E+01
-16.000000 -24.000000 -4.004180E+01
-16.000000 -26.000000 -3.680958E+01
-16.000000 -28.000000 -3.345239E+01
-16.000000 -30.000000 -2.825464E+01
-16.000000 -32.000000 -2.869669E+01
-16.000000 -34.000000 -3.438312E+01
-16.000000 -36.000000 -3.384914E+01
-16.000000 -38.000000 -2.405300E+01
-16.000000 -40.000000 -1.061067E+01
-14.000000 40.000000 -2.057668E+00
-14.000000 38.000000 3.615702E+00
-14.000000 36.000000 2.084210E+00
-14.000000 34.000000 -6.233037E+00
-14.000000 32.000000 -1.369989E+01
-14.000000 30.000000 -7.419548E+00
-14.000000 28.000000 1.168345E+01
-14.000000 26.000000 2.999777E+01
-14.000000 24.000000 3.181638E+01
-14.000000 22.000000 1.614808E+01
-14.000000 20.000000 -2.420820E+00
-14.000000 18.000000 -1.827116E+01
-14.000000 16.000000 -3.324955E+01
-14.000000 14.000000 -4.872534E+01
-14.000000 12.000000 -5.140926E+01
-14.000000 10.000000 -3.371237E+01
-14.000000 8.000000 -8.073745E+00
-14.000000 6.000000 6.283907E+00
-14.000000 4.000000 -9.024563E-01
-14.000000 2.000000 -1.730102E+01
-14.000000 0.000000 -2.806426E+01
-14.000000 -2.000000 -2.865008E+01
-14.000000 -4.000000 -2.356659E+01
-14.000000 -6.000000 -2.064704E+01
-14.000000 -8.000000 -1.992135E+01
-14.000000 -10.000000 -1.708045E+01
-14.000000 -12.000000 -9.360036E+00
-14.000000 -14.000000 -4.116556E+00
-14.000000 -16.000000 -1.047141E+01
-14.000000 -18.000000 -2.624229E+01
-14.000000 -20.000000 -3.954034E+01
-14.000000 -22.000000 -4.339213E+01
-14.000000 -24.000000 -3.982420E+01
-14.000000 -26.000000 -3.198240E+01
-14.000000 -28.000000 -2.290497E+01
-14.000000 -30.000000 -1.570393E+01
-14.000000 -32.000000 -1.917825E+01
-14.000000 -34.000000 -3.084858E+01
-14.000000 -36.000000 -3.587059E+01
-14.000000 -38.000000 -3.000544E+01
-14.000000 -40.000000 -1.912916E+01
-12.000000 40.000000 -8.337657E+00
-12.000000 38.000000 -4.726593E+00
-12.000000 36.000000 -9.101120E+00
-12.000000 34.000000 -1.996460E+01
-12.000000 32.000000 -2.793180E+01
-12.000000 30.000000 -1.865216E+01
-12.000000 28.000000 5.239652E+00
-12.000000 26.000000 2.608922E+01
-12.000000 24.000000 2.779857E+01
-12.000000 22.000000 1.017099E+01
-12.000000 20.000000 -1.007447E+01
-12.000000 18.000000 -2.955133E+01
-12.000000 16.000000 -4.913467E+01
-12.000000 14.000000 -6.810118E+01
-12.000000 12.000000 -7.163112E+01
-12.000000 10.000000 -5.142097E+01
-12.000000 8.000000 -1.749782E+01
-12.000000 6.000000 4.843925E+00
-12.000000 4.000000 -8.735638E-01
-12.000000 2.000000 -2.093601E+01
-12.000000 0.000000 -3.595035E+01
-12.000000 -2.000000 -3.943775E+01
-12.000000 -4.000000 -3.490491E+01
-12.000000 -6.000000 -2.661566E+01
-12.000000 -8.000000 -2.088044E+01
-12.000000 -10.000000 -1.466012E+01
-12.000000 -12.000000 -8.168568E+00
-12.000000 -14.000000 -6.672218E+00
-12.000000 -16.000000 -1.604996E+01
-12.000000 -18.000000 -3.265175E+01
-12.000000 -20.000000 -4.562826E+01
-12.000000 -22.000000 -4.720784E+01
-12.000000 -24.000000 -3.917443E+01
-12.000000 -26.000000 -2.499396E+01
-12.000000 -28.000000 -1.074917E+01
-12.000000 -30.000000 -2.005711E+00
-12.000000 -32.000000 -8.751734E+00
-12.000000 -34.000000 -2.603262E+01
-12.000000 -36.000000 -3.605081E+01
-12.000000 -38.000000 -3.365522E+01
-12.000000 -40.000000 -2.431471E+01
-10.000000 40.000000 -1.545475E+01
-10.000000 38.000000 -1.445055E+01
-10.000000 36.000000 -2.176497E+01
-10.000000 34.000000 -3.422632E+01
-10.000000 32.000000 -4.078763E+01
-10.000000 30.000000 -2.806308E+01
-10.000000 28.000000 -1.125253E+00
-10.000000 26.000000 2.126673E+01
-10.000000 24.000000 2.366884E+01
-10.000000 22.000000 6.093543E+00
-10.000000 20.000000 -1.234200E+01
-10.000000 18.000000 -2.947130E+01
-10.000000 16.000000 -4.783304E+01
-10.000000 14.000000 -6.970624E+01
-10.000000 12.000000 -8.265406E+01
-10.000000 10.000000 -7.233025E+01
-10.000000 8.000000 -3.861015E+01
-10.000000 6.000000 -9.299725E+00
-10.000000 4.000000 -4.575689E+00
-10.000000 2.000000 -1.977766E+01
-10.000000 0.000000 -3.267575E+01
-10.000000 -2.000000 -3.571119E+01
-10.000000 -4.000000 -3.111675E+01
-10.000000 -6.000000 -2.437743E+01
-10.000000 -8.000000 -2.147497E+01
-10.000000 -10.000000 -1.994312E+01
-10.000000 -12.000000 -1.708766E+01
-10.000000 -14.000000 -1.713271E+01
-10.000000 -16.000000 -2.728396E+01
-10.000000 -18.000000 -4.279366E+01
-10.000000 -20.000000 -5.321262E+01
-10.000000 -22.000000 -5.218390E+01
-10.000000 -24.000000 -3.942019E+01
-10.000000 -26.000000 -2.022281E+01
-10.000000 -28.000000 -2.745537E+00
-10.000000 -30.000000 7.226027E+00
-10.000000 -32.000000 -1.192670E+00
-10.000000 -34.000000 -2.118395E+01
-10.000000 -36.000000 -3.390957E+01
-10.000000 -38.000000 -3.429450E+01
-10.000000 -40.000000 -2.621703E+01
-8.000000 40.000000 -2.084616E+01
-8.000000 38.000000 -2.299990E+01
-8.000000 36.000000 -3.318947E+01
-8.000000 34.000000 -4.585141E+01
-8.000000 32.000000 -4.963582E+01
-8.000000 30.000000 -3.510504E+01
-8.000000 28.000000 -8.345689E+00
-8.000000 26.000000 1.310883E+01
-8.000000 24.000000 1.399707E+01
-8.000000 22.000000 -2.596215E+00
-8.000000 20.000000 -1.677046E+01
-8.000000 18.000000 -2.678822E+01
-8.000000 16.000000 -3.934192E+01
-8.000000 14.000000 -6.013789E+01
-8.000000 12.000000 -8.286037E+01
-8.000000 10.000000 -8.678985E+01
-8.000000 8.000000 -6.124384E+01
-8.000000 6.000000 -2.785890E+01
-8.000000 4.000000 -1.000269E+01
-8.000000 2.000000 -1.561072E+01
-8.000000 0.000000 -2.255681E+01
-8.000000 -2.000000 -2.293233E+01
-8.000000 -4.000000 -1.740281E+01
-8.000000 -6.000000 -1.432944E+01
-8.000000 -8.000000 -1.825811E+01
-8.000000 -10.000000 -2.606134E+01
-8.000000 -12.000000 -2.772809E+01
-8.000000 -14.000000 -2.797864E+01
-8.000000 -16.000000 -3.767195E+01
-8.000000 -18.000000 -5.212070E+01
-8.000000 -20.000000 -5.977947E+01
-8.000000 -22.000000 -5.667382E+01
-8.000000 -24.000000 -4.046558E+01
-8.000000 -26.000000 -1.934134E+01
-8.000000 -28.000000 -9.465618E-01
-8.000000 -30.000000 1.002747E+01
-8.000000 -32.000000 2.110925E+00
-8.000000 -34.000000 -1.795747E+01
-8.000000 -36.000000 -3.042403E+01
-8.000000 -38.000000 -3.154748E+01
-8.000000 -40.000000 -2.491463E+01
-6.000000 40.000000 -2.480751E+01
-6.000000 38.000000 -2.907808E+01
-6.000000 36.000000 -4.031014E+01
-6.000000 34.000000 -5.171109E+01
-6.000000 32.000000 -5.312970E+01
-6.000000 30.000000 -3.866271E+01
-6.000000 28.000000 -1.478143E+01
-6.000000 26.000000 3.293008E+00
-6.000000 24.000000 9.366398E-01
-6.000000 22.000000 -1.503099E+01
-6.000000 20.000000 -2.521125E+01
-6.000000 18.000000 -2.728013E+01
-6.000000 16.000000 -3.265818E+01
-6.000000 14.000000 -5.037477E+01
-6.000000 12.000000 -7.860298E+01
-6.000000 10.000000 -9.438599E+01
-6.000000 8.000000 -7.947766E+01
-6.000000 6.000000 -4.622366E+01
-6.000000 4.000000 -1.936964E+01
-6.000000 2.000000 -1.554155E+01
-6.000000 0.000000 -1.654254E+01
-6.000000 -2.000000 -1.293507E+01
-6.000000 -4.000000 -4.076933E+00
-6.000000 -6.000000 -1.648605E+00
-6.000000 -8.000000 -1.003170E+01
-6.000000 -10.000000 -2.295127E+01
-6.000000 -12.000000 -2.914438E+01
-6.000000 -14.000000 -3.281766E+01
-6.000000 -16.000000 -4.283645E+01
-6.000000 -18.000000 -5.533432E+01
-6.000000 -20.000000 -6.079036E+01
-6.000000 -22.000000 -5.576830E+01
-6.000000 -24.000000 -3.835566E+01
-6.000000 -26.000000 -1.845473E+01
-6.000000 -28.000000 -1.755842E+00
-6.000000 -30.000000 8.629095E+00
-6.000000 -32.000000 1.857463E+00
-6.000000 -34.000000 -1.697918E+01
-6.000000 -36.000000 -2.811665E+01
-6.000000 -38.000000 -2.838483E+01
-6.000000 -40.000000 -2.258379E+01
-4.000000 40.000000 -2.815098E+01
-4.000000 38.000000 -3.257481E+01
-4.000000 36.000000 -4.258459E+01
-4.000000 34.000000 -5.105254E+01
-4.000000 32.000000 -4.991034E+01
-4.000000 30.000000 -3.636730E+01
-4.000000 28.000000 -1.679789E+01
-4.000000 26.000000 -3.244170E+00
-4.000000 24.000000 -1.024025E+01
-4.000000 22.000000 -2.695623E+01
-4.000000 20.000000 -3.644089E+01
-4.000000 18.000000 -3.250704E+01
-4.000000 16.000000 -3.069957E+01
-4.000000 14.000000 -4.577368E+01
-4.000000 12.000000 -7.626340E+01
-4.000000 10.000000 -1.013539E+02
-4.000000 8.000000 -9.547538E+01
-4.000000 6.000000 -6.545341E+01
-4.000000 4.000000 -3.457834E+01
-4.000000 2.000000 -2.354166E+01
-4.000000 0.000000 -1.995983E+01
-4.000000 -2.000000 -1.265419E+01
-4.000000 -4.000000 1.184628E+00
-4.000000 -6.000000 7.425690E+00
-4.000000 -8.000000 -2.436066E-01
-4.000000 -10.000000 -1.209016E+01
-4.000000 -12.000000 -2.068984E+01
-4.000000 -14.000000 -2.730048E+01
-4.000000 -16.000000 -3.791500E+01
-4.000000 -18.000000 -4.868370E+01
-4.000000 -20.000000 -5.291627E+01
-4.000000 -22.000000 -4.778390E+01
-4.000000 -24.000000 -3.256858E+01
-4.000000 -26.000000 -1.577905E+01
-4.000000 -28.000000 -2.164951E+00
-4.000000 -30.000000 6.363146E+00
-4.000000 -32.000000 5.955219E-02
-4.000000 -34.000000 -1.690971E+01
-4.000000 -36.000000 -2.714622E+01
-4.000000 -38.000000 -2.697461E+01
-4.000000 -40.000000 -2.129828E+01
-2.000000 40.000000 -3.006649E+01
-2.000000 38.000000 -3.291744E+01
-2.000000 36.000000 -4.075435E+01
-2.000000 34.000000 -4.520296E+01
-2.000000 32.000000 -4.163213E+01
-2.000000 30.000000 -2.938154E+01
-2.000000 28.000000 -1.380237E+01
-2.000000 26.000000 -4.653399E+00
-2.000000 24.000000 -1.632070E+01
-2.000000 22.000000 -3.504616E+01
-2.000000 20.000000 -4.634767E+01
-2.000000 18.000000 -4.095312E+01
-2.000000 16.000000 -3.401019E+01
-2.000000 14.000000 -4.593991E+01
-2.000000 12.000000 -7.629272E+01
-2.000000 10.000000 -1.065017E+02
-2.000000 8.000000 -1.061531E+02
-2.000000 6.000000 -7.968232E+01
-2.000000 4.000000 -4.880499E+01
-2.000000 2.000000 -3.521643E+01
-2.000000 0.000000 -3.017681E+01
-2.000000 -2.000000 -2.285938E+01
-2.000000 -4.000000 -7.002375E+00
-2.000000 -6.000000 4.668701E+00
-2.000000 -8.000000 2.743935E+00
-2.000000 -10.000000 -4.039263E+00
-2.000000 -12.000000 -1.039487E+01
-2.000000 -14.000000 -1.453249E+01
-2.000000 -16.000000 -2.378030E+01
-2.000000 -18.000000 -3.383691E+01
-2.000000 -20.000000 -3.871533E+01
-2.000000 -22.000000 -3.679834E+01
-2.000000 -24.000000 -2.670979E+01
-2.000000 -26.000000 -1.368579E+01
-2.000000 -28.000000 -2.556524E+00
-2.000000 -30.000000 4.628572E+00
-2.000000 -32.000000 -8.907261E-01
-2.000000 -34.000000 -1.607464E+01
-2.000000 -36.000000 -2.593521E+01
-2.000000 -38.000000 -2.647435E+01
-2.000000 -40.000000 -2.111895E+01
0.000000 40.000000 -3.083910E+01
0.000000 38.000000 -3.079096E+01
0.000000 36.000000 -3.563746E+01
0.000000 34.000000 -3.625427E+01
0.000000 32.000000 -3.165549E+01
0.000000 30.000000 -2.092693E+01
0.000000 28.000000 -7.870767E+00
0.000000 26.000000 -1.992021E+00
0.000000 24.000000 -1.566712E+01
0.000000 22.000000 -3.649450E+01
0.000000 20.000000 -4.990903E+01
0.000000 18.000000 -4.704799E+01
0.000000 16.000000 -3.922906E+01
0.000000 14.000000 -4.833212E+01
0.000000 12.000000 -7.769651E+01
0.000000 10.000000 -1.075877E+02
0.000000 8.000000 -1.066987E+02
0.000000 6.000000 -8.288441E+01
0.000000 4.000000 -5.491054E+01
0.000000 2.000000 -4.284140E+01
0.000000 0.000000 -4.053347E+01
0.000000 -2.000000 -3.743583E+01
0.000000 -4.000000 -2.534003E+01
0.000000 -6.000000 -1.252197E+01
0.000000 -8.000000 -7.637018E+00
0.000000 -10.000000 -6.419950E+00
0.000000 -12.000000 -5.093927E+00
0.000000 -14.000000 -3.570776E+00
0.000000 -16.000000 -1.001530E+01
0.000000 -18.000000 -1.910219E+01
0.000000 -20.000000 -2.544746E+01
0.000000 -22.000000 -2.848495E+01
0.000000 -24.000000 -2.435581E+01
0.000000 -26.000000 -1.439540E+01
0.000000 -28.000000 -4.237843E+00
0.000000 -30.000000 3.212669E+00
0.000000 -32.000000 -5.272932E-01
0.000000 -34.000000 -1.413921E+01
0.000000 -36.000000 -2.377725E+01
0.000000 -38.000000 -2.572761E+01
0.000000 -40.000000 -2.111580E+01
2.000000 40.000000 -3.020460E+01
2.000000 38.000000 -2.668957E+01
2.000000 36.000000 -2.886176E+01
2.000000 34.000000 -2.830574E+01
2.000000 32.000000 -2.406797E+01
2.000000 30.000000 -1.424082E+01
2.000000 28.000000 -1.776978E+00
2.000000 26.000000 3.957695E+00
2.000000 24.000000 -9.132952E+00
2.000000 22.000000 -3.253043E+01
2.000000 20.000000 -4.865173E+01
2.000000 18.000000 -4.902306E+01
2.000000 16.000000 -4.197775E+01
2.000000 14.000000 -4.895806E+01
2.000000 12.000000 -7.436282E+01
2.000000 10.000000 -9.811183E+01
2.000000 8.000000 -9.291670E+01
2.000000 6.000000 -7.217330E+01
2.000000 4.000000 -5.294572E+01
2.000000 2.000000 -4.773104E+01
2.000000 0.000000 -5.109407E+01
2.000000 -2.000000 -5.246252E+01
2.000000 -4.000000 -4.562283E+01
2.000000 -6.000000 -3.437028E+01
2.000000 -8.000000 -2.501296E+01
2.000000 -10.000000 -1.669562E+01
2.000000 -12.000000 -7.366829E+00
2.000000 -14.000000 -2.145327E+00
2.000000 -16.000000 -6.229733E+00
2.000000 -18.000000 -1.383696E+01
2.000000 -20.000000 -2.093274E+01
2.000000 -22.000000 -2.692722E+01
2.000000 -24.000000 -2.681564E+01
2.000000 -26.000000 -1.880313E+01
2.000000 -28.000000 -7.922647E+00
2.000000 -30.000000 1.202169E+00
2.000000 -32.000000 2.355232E-01
2.000000 -34.000000 -1.139027E+01
2.000000 -36.000000 -2.069978E+01
2.000000 -38.000000 -2.438577E+01
2.000000 -40.000000 -2.043124E+01
4.000000 40.000000 -2.763275E+01
4.000000 38.000000 -2.129180E+01
4.000000 36.000000 -2.276452E+01
4.000000 34.000000 -2.410633E+01
4.000000 32.000000 -2.114998E+01
4.000000 30.000000 -1.111138E+01
4.000000 28.000000 2.572880E+00
4.000000 26.000000 1.028017E+01
4.000000 24.000000 -9.491787E-01
4.000000 22.000000 -2.612020E+01
4.000000 20.000000 -4.470658E+01
4.000000 18.000000 -4.773410E+01
4.000000 16.000000 -4.181793E+01
4.000000 14.000000 -4.648685E+01
4.000000 12.000000 -6.253464E+01
4.000000 10.000000 -7.400508E+01
4.000000 8.000000 -6.507433E+01
4.000000 6.000000 -4.988619E+01
4.000000 4.000000 -4.567326E+01
4.000000 2.000000 -5.340619E+01
4.000000 0.000000 -6.411571E+01
4.000000 -2.000000 -6.803504E+01
4.000000 -4.000000 -6.127680E+01
4.000000 -6.000000 -4.900503E+01
4.000000 -8.000000 -3.774313E+01
4.000000 -10.000000 -2.822253E+01
4.000000 -12.000000 -1.664114E+01
4.000000 -14.000000 -1.046243E+01
4.000000 -16.000000 -1.315110E+01
4.000000 -18.000000 -1.993234E+01
4.000000 -20.000000 -2.710666E+01
4.000000 -22.000000 -3.323743E+01
4.000000 -24.000000 -3.386426E+01
4.000000 -26.000000 -2.672718E+01
4.000000 -28.000000 -1.447283E+01
4.000000 -30.000000 -1.839075E+00
4.000000 -32.000000 1.481466E+00
4.000000 -34.000000 -8.542747E+00
4.000000 -36.000000 -1.840173E+01
4.000000 -38.000000 -2.336119E+01
4.000000 -40.000000 -1.871984E+01
6.000000 40.000000 -2.409241E+01
6.000000 38.000000 -1.655963E+01
6.000000 36.000000 -1.867920E+01
6.000000 34.000000 -2.274199E+01
6.000000 32.000000 -2.170738E+01
6.000000 30.000000 -1.135489E+01
6.000000 28.000000 4.075815E+00
6.000000 26.000000 1.345335E+01
6.000000 24.000000 4.036440E+00
6.000000 22.000000 -1.989889E+01
6.000000 20.000000 -3.825898E+01
6.000000 18.000000 -4.250835E+01
6.000000 16.000000 -3.828945E+01
6.000000 14.000000 -3.953335E+01
6.000000 12.000000 -4.493818E+01
6.000000 10.000000 -4.424461E+01
6.000000 8.000000 -3.512133E+01
6.000000 6.000000 -2.785547E+01
6.000000 4.000000 -3.873596E+01
6.000000 2.000000 -5.927496E+01
6.000000 0.000000 -7.478358E+01
6.000000 -2.000000 -7.733131E+01
6.000000 -4.000000 -6.614676E+01
6.000000 -6.000000 -5.142046E+01
6.000000 -8.000000 -4.072829E+01
6.000000 -10.000000 -3.463684E+01
6.000000 -12.000000 -2.785671E+01
6.000000 -14.000000 -2.385485E+01
6.000000 -16.000000 -2.605886E+01
6.000000 -18.000000 -3.342863E+01
6.000000 -20.000000 -4.121116E+01
6.000000 -22.000000 -4.605216E+01
6.000000 -24.000000 -4.454303E+01
6.000000 -26.000000 -3.571625E+01
6.000000 -28.000000 -2.118194E+01
6.000000 -30.000000 -4.229251E+00
6.000000 -32.000000 2.457621E+00
6.000000 -34.000000 -7.986854E+00
6.000000 -36.000000 -1.905122E+01
6.000000 -38.000000 -2.323398E+01
6.000000 -40.000000 -1.590736E+01
8.000000 40.000000 -2.099900E+01
8.000000 38.000000 -1.332912E+01
8.000000 36.000000 -1.604965E+01
8.000000 34.000000 -2.210630E+01
8.000000 32.000000 -2.382112E+01
8.000000 30.000000 -1.484474E+01
8.000000 28.000000 1.078114E+00
8.000000 26.000000 1.178850E+01
8.000000 24.000000 3.391474E+00
8.000000 22.000000 -1.647692E+01
8.000000 20.000000 -3.124433E+01
8.000000 18.000000 -3.368466E+01
8.000000 16.000000 -2.868915E+01
8.000000 14.000000 -2.533971E+01
8.000000 12.000000 -2.359004E+01
8.000000 10.000000 -1.758287E+01
8.000000 8.000000 -1.357976E+01
8.000000 6.000000 -1.591835E+01
8.000000 4.000000 -3.818154E+01
8.000000 2.000000 -6.647807E+01
8.000000 0.000000 -8.074245E+01
8.000000 -2.000000 -7.537774E+01
8.000000 -4.000000 -5.732039E+01
8.000000 -6.000000 -3.980003E+01
8.000000 -8.000000 -3.323431E+01
8.000000 -10.000000 -3.449463E+01
8.000000 -12.000000 -3.653840E+01
8.000000 -14.000000 -3.700304E+01
8.000000 -16.000000 -4.036747E+01
8.000000 -18.000000 -4.896085E+01
8.000000 -20.000000 -5.715981E+01
8.000000 -22.000000 -6.168831E+01
8.000000 -24.000000 -5.849250E+01
8.000000 -26.000000 -4.471169E+01
8.000000 -28.000000 -2.460508E+01
8.000000 -30.000000 -4.052296E+00
8.000000 -32.000000 3.034048E+00
8.000000 -34.000000 -9.690072E+00
8.000000 -36.000000 -2.174056E+01
8.000000 -38.000000 -2.331555E+01
8.000000 -40.000000 -1.277752E+01
10.000000 40.000000 -1.925248E+01
10.000000 38.000000 -1.133508E+01
10.000000 36.000000 -1.422571E+01
10.000000 34.000000 -2.171871E+01
10.000000 32.000000 -2.682903E+01
10.000000 30.000000 -2.017104E+01
10.000000 28.000000 -4.705649E+00
10.000000 26.000000 6.800594E+00
10.000000 24.000000 -8.988380E-02
10.000000 22.000000 -1.528755E+01
10.000000 20.000000 -2.452849E+01
10.000000 18.000000 -2.325817E+01
10.000000 16.000000 -1.556398E+01
10.000000 14.000000 -7.950197E+00
10.000000 12.000000 -3.609516E+00
10.000000 10.000000 1.829216E+00
10.000000 8.000000 -1.610195E+00
10.000000 6.000000 -1.352795E+01
10.000000 4.000000 -4.390590E+01
10.000000 2.000000 -7.618103E+01
10.000000 0.000000 -8.707912E+01
10.000000 -2.000000 -7.056373E+01
10.000000 -4.000000 -4.223619E+01
10.000000 -6.000000 -2.280400E+01
10.000000 -8.000000 -2.280180E+01
10.000000 -10.000000 -3.101339E+01
10.000000 -12.000000 -3.943055E+01
10.000000 -14.000000 -4.375706E+01
10.000000 -16.000000 -5.023137E+01
10.000000 -18.000000 -5.960608E+01
10.000000 -20.000000 -6.770935E+01
10.000000 -22.000000 -7.261135E+01
10.000000 -24.000000 -6.809684E+01
10.000000 -26.000000 -4.931665E+01
10.000000 -28.000000 -2.355183E+01
10.000000 -30.000000 -1.237463E+00
10.000000 -32.000000 4.287049E+00
10.000000 -34.000000 -1.131547E+01
10.000000 -36.000000 -2.458724E+01
10.000000 -38.000000 -2.404449E+01
10.000000 -40.000000 -1.135678E+01
12.000000 40.000000 -1.983991E+01
12.000000 38.000000 -1.100391E+01
12.000000 36.000000 -1.301425E+01
12.000000 34.000000 -2.095435E+01
12.000000 32.000000 -2.867421E+01
12.000000 30.000000 -2.344510E+01
12.000000 28.000000 -7.785918E+00
12.000000 26.000000 3.837236E+00
12.000000 24.000000 -2.432011E+00
12.000000 22.000000 -1.494828E+01
12.000000 20.000000 -1.998698E+01
12.000000 18.000000 -1.567249E+01
12.000000 16.000000 -5.884306E+00
12.000000 14.000000 2.505981E+00
12.000000 12.000000 5.297794E+00
12.000000 10.000000 7.373531E+00
12.000000 8.000000 -1.728081E+00
12.000000 6.000000 -1.935897E+01
12.000000 4.000000 -5.153086E+01
12.000000 2.000000 -8.326302E+01
12.000000 0.000000 -9.067554E+01
12.000000 -2.000000 -6.583148E+01
12.000000 -4.000000 -2.993563E+01
12.000000 -6.000000 -1.309830E+01
12.000000 -8.000000 -2.028510E+01
12.000000 -10.000000 -3.181394E+01
12.000000 -12.000000 -3.970515E+01
12.000000 -14.000000 -4.341383E+01
12.000000 -16.000000 -5.025162E+01
12.000000 -18.000000 -5.903450E+01
12.000000 -20.000000 -6.613479E+01
12.000000 -22.000000 -7.083715E+01
12.000000 -24.000000 -6.489503E+01
12.000000 -26.000000 -4.441986E+01
12.000000 -28.000000 -1.824470E+01
12.000000 -30.000000 2.630590E+00
12.000000 -32.000000 5.776460E+00
12.000000 -34.000000 -1.232864E+01
12.000000 -36.000000 -2.742443E+01
12.000000 -38.000000 -2.638828E+01
12.000000 -40.000000 -1.234922E+01
14.000000 40.000000 -2.295913E+01
14.000000 38.000000 -1.230424E+01
14.000000 36.000000 -1.179849E+01
14.000000 34.000000 -1.854574E+01
14.000000 32.000000 -2.714372E+01
14.000000 30.000000 -2.243812E+01
14.000000 28.000000 -6.734438E+00
14.000000 26.000000 4.966152E+00
14.000000 24.000000 -1.550465E+00
14.000000 22.000000 -1.492435E+01
14.000000 20.000000 -2.053902E+01
14.000000 18.000000 -1.545500E+01
14.000000 16.000000 -3.711145E+00
14.000000 14.000000 2.553829E+00
14.000000 12.000000 1.635769E+00
14.000000 10.000000 -4.561920E-01
14.000000 8.000000 -1.168846E+01
14.000000 6.000000 -3.005485E+01
14.000000 4.000000 -5.841062E+01
14.000000 2.000000 -8.561788E+01
14.000000 0.000000 -8.938562E+01
14.000000 -2.000000 -6.239948E+01
14.000000 -4.000000 -2.551103E+01
14.000000 -6.000000 -1.331228E+01
14.000000 -8.000000 -2.686263E+01
14.000000 -10.000000 -4.165566E+01
14.000000 -12.000000 -4.462569E+01
14.000000 -14.000000 -4.040056E+01
14.000000 -16.000000 -3.980775E+01
14.000000 -18.000000 -4.587092E+01
14.000000 -20.000000 -5.200288E+01
14.000000 -22.000000 -5.587132E+01
14.000000 -24.000000 -4.944322E+01
14.000000 -26.000000 -3.182209E+01
14.000000 -28.000000 -1.075228E+01
14.000000 -30.000000 5.500675E+00
14.000000 -32.000000 5.774181E+00
14.000000 -34.000000 -1.413098E+01
14.000000 -36.000000 -3.055864E+01
14.000000 -38.000000 -2.888141E+01
14.000000 -40.000000 -1.365370E+01
16.000000 40.000000 -2.837773E+01
16.000000 38.000000 -1.503796E+01
16.000000 36.000000 -1.013131E+01
16.000000 34.000000 -1.390822E+01
16.000000 32.000000 -2.219161E+01
16.000000 30.000000 -1.866015E+01
16.000000 28.000000 -3.814440E+00
16.000000 26.000000 7.652527E+00
16.000000 24.000000 7.332478E-01
16.000000 22.000000 -1.527307E+01
16.000000 20.000000 -2.461122E+01
16.000000 18.000000 -1.991514E+01
16.000000 16.000000 -5.490147E+00
16.000000 14.000000 1.005672E+00
16.000000 12.000000 -3.505131E+00
16.000000 10.000000 -1.131569E+01
16.000000 8.000000 -2.495233E+01
16.000000 6.000000 -4.354239E+01
16.000000 4.000000 -6.821439E+01
16.000000 2.000000 -8.997257E+01
16.000000 0.000000 -9.008401E+01
16.000000 -2.000000 -6.391187E+01
16.000000 -4.000000 -3.056790E+01
16.000000 -6.000000 -2.176820E+01
16.000000 -8.000000 -3.708441E+01
16.000000 -10.000000 -5.314288E+01
16.000000 -12.000000 -4.998338E+01
16.000000 -14.000000 -3.563713E+01
16.000000 -16.000000 -2.601784E+01
16.000000 -18.000000 -2.902470E+01
16.000000 -20.000000 -3.461620E+01
16.000000 -22.000000 -3.650865E+01
16.000000 -24.000000 -2.944624E+01
16.000000 -26.000000 -1.737071E+01
16.000000 -28.000000 -3.841237E+00
16.000000 -30.000000 6.101448E+00
16.000000 -32.000000 3.335228E+00
16.000000 -34.000000 -1.654204E+01
16.000000 -36.000000 -3.209740E+01
16.000000 -38.000000 -2.943557E+01
16.000000 -40.000000 -1.414820E+01
18.000000 40.000000 -3.645264E+01
18.000000 38.000000 -2.021495E+01
18.000000 36.000000 -9.785678E+00
18.000000 34.000000 -8.309871E+00
18.000000 32.000000 -1.425693E+01
18.000000 30.000000 -1.174288E+01
18.000000 28.000000 1.439960E+00
18.000000 26.000000 1.174632E+01
18.000000 24.000000 3.853806E+00
18.000000 22.000000 -1.489029E+01
18.000000 20.000000 -2.718696E+01
18.000000 18.000000 -2.272374E+01
18.000000 16.000000 -6.217594E+00
18.000000 14.000000 2.294624E+00
18.000000 12.000000 -4.412838E+00
18.000000 10.000000 -1.915752E+01
18.000000 8.000000 -3.885207E+01
18.000000 6.000000 -5.972856E+01
18.000000 4.000000 -8.192010E+01
18.000000 2.000000 -9.860120E+01
18.000000 0.000000 -9.570078E+01
18.000000 -2.000000 -7.116534E+01
18.000000 -4.000000 -4.337857E+01
18.000000 -6.000000 -3.598824E+01
18.000000 -8.000000 -4.677052E+01
18.000000 -10.000000 -5.758812E+01
18.000000 -12.000000 -4.784819E+01
18.000000 -14.000000 -2.724725E+01
18.000000 -16.000000 -1.511284E+01
18.000000 -18.000000 -1.758690E+01
18.000000 -20.000000 -2.324644E+01
18.000000 -22.000000 -2.366972E+01
18.000000 -24.000000 -1.617253E+01
18.000000 -26.000000 -8.092493E+00
18.000000 -28.000000 -2.422867E-01
18.000000 -30.000000 4.990188E+00
18.000000 -32.000000 -1.737280E-01
18.000000 -34.000000 -1.768329E+01
18.000000 -36.000000 -3.047384E+01
18.000000 -38.000000 -2.825102E+01
18.000000 -40.000000 -1.491924E+01
20.000000 40.000000 -4.685403E+01
20.000000 38.000000 -2.900412E+01
20.000000 36.000000 -1.341436E+01
20.000000 34.000000 -4.518023E+00
20.000000 32.000000 -4.552056E+00
20.000000 30.000000 -8.719044E-01
20.000000 28.000000 1.055053E+01
20.000000 26.000000 1.966488E+01
20.000000 24.000000 1.123104E+01
20.000000 22.000000 -1.063159E+01
20.000000 20.000000 -2.536961E+01
20.000000 18.000000 -2.228563E+01
20.000000 16.000000 -6.078400E+00
20.000000 14.000000 2.989254E+00
20.000000 12.000000 -4.750526E+00
20.000000 10.000000 -2.548797E+01
20.000000 8.000000 -5.196594E+01
20.000000 6.000000 -7.537011E+01
20.000000 4.000000 -9.348907E+01
20.000000 2.000000 -1.036275E+02
20.000000 0.000000 -9.887814E+01
20.000000 -2.000000 -7.907090E+01
20.000000 -4.000000 -5.813005E+01
20.000000 -6.000000 -5.052948E+01
20.000000 -8.000000 -5.384716E+01
20.000000 -10.000000 -5.567005E+01
20.000000 -12.000000 -3.999632E+01
20.000000 -14.000000 -1.795532E+01
20.000000 -16.000000 -8.497200E+00
20.000000 -18.000000 -1.411238E+01
20.000000 -20.000000 -2.287617E+01
20.000000 -22.000000 -2.427141E+01
20.000000 -24.000000 -1.706074E+01
20.000000 -26.000000 -9.361783E+00
20.000000 -28.000000 -2.486443E+00
20.000000 -30.000000 1.762403E+00
20.000000 -32.000000 -3.816989E+00
20.000000 -34.000000 -1.783766E+01
20.000000 -36.000000 -2.727288E+01
20.000000 -38.000000 -2.597925E+01
20.000000 -40.000000 -1.546117E+01
22.000000 40.000000 -5.790976E+01
22.000000 38.000000 -4.135526E+01
22.000000 36.000000 -2.252215E+01
22.000000 34.000000 -4.784069E+00
22.000000 32.000000 4.477300E+00
22.000000 30.000000 1.181696E+01
22.000000 28.000000 2.219961E+01
22.000000 26.000000 2.987909E+01
22.000000 24.000000 2.049325E+01
22.000000 22.000000 -3.629614E+00
22.000000 20.000000 -2.007652E+01
22.000000 18.000000 -1.981641E+01
22.000000 16.000000 -4.798100E+00
22.000000 14.000000 4.852976E+00
22.000000 12.000000 -2.984314E+00
22.000000 10.000000 -2.614402E+01
22.000000 8.000000 -5.593468E+01
22.000000 6.000000 -8.025232E+01
22.000000 4.000000 -9.420257E+01
22.000000 2.000000 -9.914722E+01
22.000000 0.000000 -9.412288E+01
22.000000 -2.000000 -8.158947E+01
22.000000 -4.000000 -6.849358E+01
22.000000 -6.000000 -6.140038E+01
22.000000 -8.000000 -5.862754E+01
22.000000 -10.000000 -5.316818E+01
22.000000 -12.000000 -3.322000E+01
22.000000 -14.000000 -1.235294E+01
22.000000 -16.000000 -7.869150E+00
22.000000 -18.000000 -2.026023E+01
22.000000 -20.000000 -3.493215E+01
22.000000 -22.000000 -3.896361E+01
22.000000 -24.000000 -3.190751E+01
22.000000 -26.000000 -2.160758E+01
22.000000 -28.000000 -1.228658E+01
22.000000 -30.000000 -6.673118E+00
22.000000 -32.000000 -9.727455E+00
22.000000 -34.000000 -1.917088E+01
22.000000 -36.000000 -2.433868E+01
22.000000 -38.000000 -2.251796E+01
22.000000 -40.000000 -1.375285E+01
24.000000 40.000000 -6.796844E+01
24.000000 38.000000 -5.482708E+01
24.000000 36.000000 -3.508206E+01
24.000000 34.000000 -9.485361E+00
24.000000 32.000000 8.959909E+00
24.000000 30.000000 2.079903E+01
24.000000 28.000000 3.094480E+01
24.000000 26.000000 3.633582E+01
24.000000 24.000000 2.582365E+01
24.000000 22.000000 2.450466E+00
24.000000 20.000000 -1.176846E+01
24.000000 18.000000 -1.097916E+01
24.000000 16.000000 4.030331E+00
24.000000 14.000000 1.483467E+01
24.000000 12.000000 7.212780E+00
24.000000 10.000000 -1.672894E+01
24.000000 8.000000 -4.792426E+01
24.000000 6.000000 -7.322346E+01
24.000000 4.000000 -8.584807E+01
24.000000 2.000000 -8.922646E+01
24.000000 0.000000 -8.459225E+01
24.000000 -2.000000 -7.606241E+01
24.000000 -4.000000 -6.781003E+01
24.000000 -6.000000 -6.346054E+01
24.000000 -8.000000 -6.014962E+01
24.000000 -10.000000 -5.175443E+01
24.000000 -12.000000 -3.022487E+01
24.000000 -14.000000 -1.251950E+01
24.000000 -16.000000 -1.543166E+01
24.000000 -18.000000 -3.671558E+01
24.000000 -20.000000 -5.728319E+01
24.000000 -22.000000 -6.335644E+01
24.000000 -24.000000 -5.504195E+01
24.000000 -26.000000 -4.051576E+01
24.000000 -28.000000 -2.754480E+01
24.000000 -30.000000 -1.947349E+01
24.000000 -32.000000 -1.930431E+01
24.000000 -34.000000 -2.341146E+01
24.000000 -36.000000 -2.287452E+01
24.000000 -38.000000 -1.855789E+01
24.000000 -40.000000 -9.394678E+00
26.000000 40.000000 -7.550380E+01
26.000000 38.000000 -6.514615E+01
26.000000 36.000000 -4.575086E+01
26.000000 34.000000 -1.662103E+01
26.000000 32.000000 6.473763E+00
26.000000 30.000000 2.114462E+01
26.000000 28.000000 3.084243E+01
26.000000 26.000000 3.342381E+01
26.000000 24.000000 2.310798E+01
26.000000 22.000000 3.886358E+00
26.000000 20.000000 -4.373466E+00
26.000000 18.000000 2.541716E+00
26.000000 16.000000 2.076059E+01
26.000000 14.000000 3.350059E+01
26.000000 12.000000 2.689902E+01
26.000000 10.000000 2.187618E+00
26.000000 8.000000 -3.095102E+01
26.000000 6.000000 -5.838101E+01
26.000000 4.000000 -7.381175E+01
26.000000 2.000000 -7.890070E+01
26.000000 0.000000 -7.386403E+01
26.000000 -2.000000 -6.376585E+01
26.000000 -4.000000 -5.532578E+01
26.000000 -6.000000 -5.438587E+01
26.000000 -8.000000 -5.554741E+01
26.000000 -10.000000 -4.949409E+01
26.000000 -12.000000 -3.057049E+01
26.000000 -14.000000 -1.798714E+01
26.000000 -16.000000 -2.939495E+01
26.000000 -18.000000 -5.908401E+01
26.000000 -20.000000 -8.367045E+01
26.000000 -22.000000 -8.981869E+01
26.000000 -24.000000 -7.810853E+01
26.000000 -26.000000 -5.931256E+01
26.000000 -28.000000 -4.323262E+01
26.000000 -30.000000 -3.232858E+01
26.000000 -32.000000 -3.038552E+01
26.000000 -34.000000 -3.022110E+01
26.000000 -36.000000 -2.354716E+01
26.000000 -38.000000 -1.487533E+01
26.000000 -40.000000 -3.204277E+00
28.000000 40.000000 -7.889409E+01
28.000000 38.000000 -6.996254E+01
28.000000 36.000000 -5.132751E+01
28.000000 34.000000 -2.340612E+01
28.000000 32.000000 -1.095225E+00
28.000000 30.000000 1.229096E+01
28.000000 28.000000 1.937241E+01
28.000000 26.000000 1.989133E+01
28.000000 24.000000 9.518002E+00
28.000000 22.000000 -4.246702E+00
28.000000 20.000000 -4.521559E+00
28.000000 18.000000 1.203374E+01
28.000000 16.000000 3.673663E+01
28.000000 14.000000 5.432775E+01
28.000000 12.000000 5.022772E+01
28.000000 10.000000 2.575021E+01
28.000000 8.000000 -8.440884E+00
28.000000 6.000000 -3.806237E+01
28.000000 4.000000 -5.888923E+01
28.000000 2.000000 -6.782920E+01
28.000000 0.000000 -6.256111E+01
28.000000 -2.000000 -4.826634E+01
28.000000 -4.000000 -3.681054E+01
28.000000 -6.000000 -3.894898E+01
28.000000 -8.000000 -4.668419E+01
28.000000 -10.000000 -4.638744E+01
28.000000 -12.000000 -3.376828E+01
28.000000 -14.000000 -2.737909E+01
28.000000 -16.000000 -4.542865E+01
28.000000 -18.000000 -7.987247E+01
28.000000 -20.000000 -1.057836E+02
28.000000 -22.000000 -1.103724E+02
28.000000 -24.000000 -9.477635E+01
28.000000 -26.000000 -7.260621E+01
28.000000 -28.000000 -5.369689E+01
28.000000 -30.000000 -3.947409E+01
28.000000 -32.000000 -3.578337E+01
28.000000 -34.000000 -3.384192E+01
28.000000 -36.000000 -2.416200E+01
28.000000 -38.000000 -1.208334E+01
28.000000 -40.000000 1.797540E+00
30.000000 40.000000 -7.746655E+01
30.000000 38.000000 -6.975612E+01
30.000000 36.000000 -5.256038E+01
30.000000 34.000000 -2.824608E+01
30.000000 32.000000 -9.363405E+00
30.000000 30.000000 -9.406204E-01
30.000000 28.000000 9.959354E-01
30.000000 26.000000 -6.747532E-02
30.000000 24.000000 -1.272667E+01
30.000000 22.000000 -2.363853E+01
30.000000 20.000000 -1.823178E+01
30.000000 18.000000 6.497784E+00
30.000000 16.000000 3.962778E+01
30.000000 14.000000 6.636126E+01
30.000000 12.000000 7.007015E+01
30.000000 10.000000 5.021974E+01
30.000000 8.000000 1.579740E+01
30.000000 6.000000 -1.641296E+01
30.000000 4.000000 -4.306209E+01
30.000000 2.000000 -5.591507E+01
30.000000 0.000000 -5.013313E+01
30.000000 -2.000000 -3.267946E+01
30.000000 -4.000000 -1.852895E+01
30.000000 -6.000000 -2.237225E+01
30.000000 -8.000000 -3.660325E+01
30.000000 -10.000000 -4.370418E+01
30.000000 -12.000000 -3.943075E+01
30.000000 -14.000000 -3.962183E+01
30.000000 -16.000000 -6.022911E+01
30.000000 -18.000000 -9.422006E+01
30.000000 -20.000000 -1.181001E+02
30.000000 -22.000000 -1.199065E+02
30.000000 -24.000000 -1.007369E+02
30.000000 -26.000000 -7.510301E+01
30.000000 -28.000000 -5.317875E+01
30.000000 -30.000000 -3.529494E+01
30.000000 -32.000000 -2.942013E+01
30.000000 -34.000000 -2.894239E+01
30.000000 -36.000000 -2.181339E+01
30.000000 -38.000000 -1.082905E+01
30.000000 -40.000000 1.882121E+00
32.000000 40.000000 -7.185332E+01
32.000000 38.000000 -6.490059E+01
32.000000 36.000000 -5.012790E+01
32.000000 34.000000 -3.071134E+01
32.000000 32.000000 -1.628100E+01
32.000000 30.000000 -1.293239E+01
32.000000 28.000000 -1.648077E+01
32.000000 26.000000 -2.135051E+01
32.000000 24.000000 -3.829681E+01
32.000000 22.000000 -5.041735E+01
32.000000 20.000000 -4.575330E+01
32.000000 18.000000 -1.800882E+01
32.000000 16.000000 2.416862E+01
32.000000 14.000000 6.336689E+01
32.000000 12.000000 8.070624E+01
32.000000 10.000000 7.104056E+01
32.000000 8.000000 3.860890E+01
32.000000 6.000000 3.739599E+00
32.000000 4.000000 -2.833402E+01
32.000000 2.000000 -4.434802E+01
32.000000 0.000000 -3.983566E+01
32.000000 -2.000000 -2.262470E+01
32.000000 -4.000000 -6.356905E+00
32.000000 -6.000000 -8.203026E+00
32.000000 -8.000000 -2.566606E+01
32.000000 -10.000000 -4.044669E+01
32.000000 -12.000000 -4.566728E+01
32.000000 -14.000000 -5.175598E+01
32.000000 -16.000000 -7.039235E+01
32.000000 -18.000000 -1.000881E+02
32.000000 -20.000000 -1.198502E+02
32.000000 -22.000000 -1.169691E+02
32.000000 -24.000000 -9.349005E+01
32.000000 -26.000000 -6.377975E+01
32.000000 -28.000000 -3.978032E+01
32.000000 -30.000000 -1.988183E+01
32.000000 -32.000000 -1.346637E+01
32.000000 -34.000000 -1.715937E+01
32.000000 -36.000000 -1.666357E+01
32.000000 -38.000000 -1.095252E+01
32.000000 -40.000000 -2.612035E+00
34.000000 40.000000 -6.425403E+01
34.000000 38.000000 -5.661948E+01
34.000000 36.000000 -4.351203E+01
34.000000 34.000000 -2.909752E+01
34.000000 32.000000 -2.045385E+01
34.000000 30.000000 -2.178150E+01
34.000000 28.000000 -2.856332E+01
34.000000 26.000000 -3.713109E+01
34.000000 24.000000 -5.842721E+01
34.000000 22.000000 -7.612652E+01
34.000000 20.000000 -7.991480E+01
34.000000 18.000000 -5.614786E+01
34.000000 16.000000 -7.845781E+00
34.000000 14.000000 4.493144E+01
34.000000 12.000000 8.020065E+01
34.000000 10.000000 8.541944E+01
34.000000 8.000000 5.652770E+01
34.000000 6.000000 1.914540E+01
34.000000 4.000000 -1.827131E+01
34.000000 2.000000 -3.710671E+01
34.000000 0.000000 -3.492600E+01
34.000000 -2.000000 -2.027744E+01
34.000000 -4.000000 -4.256784E+00
34.000000 -6.000000 -1.993841E+00
34.000000 -8.000000 -1.649303E+01
34.000000 -10.000000 -3.418902E+01
34.000000 -12.000000 -4.671252E+01
34.000000 -14.000000 -5.649402E+01
34.000000 -16.000000 -7.228292E+01
34.000000 -18.000000 -9.596011E+01
34.000000 -20.000000 -1.100574E+02
34.000000 -22.000000 -1.020738E+02
34.000000 -24.000000 -7.518620E+01
34.000000 -26.000000 -4.323161E+01
34.000000 -28.000000 -1.882466E+01
34.000000 -30.000000 2.811384E-01
34.000000 -32.000000 4.798498E+00
34.000000 -34.000000 -4.096273E+00
34.000000 -36.000000 -1.146099E+01
34.000000 -38.000000 -1.194214E+01
34.000000 -40.000000 -8.209509E+00
36.000000 40.000000 -5.716991E+01
36.000000 38.000000 -4.806828E+01
36.000000 36.000000 -3.448138E+01
36.000000 34.000000 -2.244706E+01
36.000000 32.000000 -1.862041E+01
36.000000 30.000000 -2.485801E+01
36.000000 28.000000 -3.319580E+01
36.000000 26.000000 -4.199104E+01
36.000000 24.000000 -6.458367E+01
36.000000 22.000000 -8.959228E+01
36.000000 20.000000 -1.065450E+02
36.000000 18.000000 -9.502447E+01
36.000000 16.000000 -4.876305E+01
36.000000 14.000000 1.361156E+01
36.000000 12.000000 6.568158E+01
36.000000 10.000000 8.605062E+01
36.000000 8.000000 6.346263E+01
36.000000 6.000000 2.632966E+01
36.000000 4.000000 -1.389984E+01
36.000000 2.000000 -3.444281E+01
36.000000 0.000000 -3.377943E+01
36.000000 -2.000000 -2.133968E+01
36.000000 -4.000000 -7.492729E+00
36.000000 -6.000000 -5.124026E+00
36.000000 -8.000000 -1.592094E+01
36.000000 -10.000000 -3.002457E+01
36.000000 -12.000000 -4.211191E+01
36.000000 -14.000000 -5.133404E+01
36.000000 -16.000000 -6.414082E+01
36.000000 -18.000000 -8.064493E+01
36.000000 -20.000000 -8.749562E+01
36.000000 -22.000000 -7.674564E+01
36.000000 -24.000000 -5.044552E+01
36.000000 -26.000000 -2.046202E+01
36.000000 -28.000000 1.914508E+00
36.000000 -30.000000 1.741206E+01
36.000000 -32.000000 1.811945E+01
36.000000 -34.000000 4.856795E+00
36.000000 -36.000000 -8.890639E+00
36.000000 -38.000000 -1.346225E+01
36.000000 -40.000000 -1.219168E+01
38.000000 40.000000 -5.163297E+01
38.000000 38.000000 -4.192297E+01
38.000000 36.000000 -2.704018E+01
38.000000 34.000000 -1.370992E+01
38.000000 32.000000 -1.127086E+01
38.000000 30.000000 -1.994569E+01
38.000000 28.000000 -2.919759E+01
38.000000 26.000000 -3.636818E+01
38.000000 24.000000 -5.687408E+01
38.000000 22.000000 -8.692451E+01
38.000000 20.000000 -1.141065E+02
38.000000 18.000000 -1.148792E+02
38.000000 16.000000 -7.534550E+01
38.000000 14.000000 -1.364248E+01
38.000000 12.000000 4.359638E+01
38.000000 10.000000 7.134677E+01
38.000000 8.000000 5.548199E+01
38.000000 6.000000 2.184068E+01
38.000000 4.000000 -1.524085E+01
38.000000 2.000000 -3.445929E+01
38.000000 0.000000 -3.502327E+01
38.000000 -2.000000 -2.437239E+01
38.000000 -4.000000 -1.319475E+01
38.000000 -6.000000 -1.406465E+01
38.000000 -8.000000 -2.322293E+01
38.000000 -10.000000 -3.144602E+01
38.000000 -12.000000 -3.586452E+01
38.000000 -14.000000 -3.938319E+01
38.000000 -16.000000 -4.767375E+01
38.000000 -18.000000 -5.781608E+01
38.000000 -20.000000 -5.857570E+01
38.000000 -22.000000 -4.826731E+01
38.000000 -24.000000 -2.712233E+01
38.000000 -26.000000 -3.063250E+00
38.000000 -28.000000 1.477816E+01
38.000000 -30.000000 2.579865E+01
38.000000 -32.000000 2.259504E+01
