-18.000000 0.000000 -9.264391E+00
-18.000000 -2.000000 -9.801006E-02
-18.000000 -4.000000 1.815775E+01
-18.000000 -6.000000 2.858820E+01
-18.000000 -8.000000 3.591849E+01
-18.000000 -10.000000 3.689257E+01
-18.000000 -12.000000 1.888479E+01
-18.000000 -14.000000 2.059564E+00
-18.000000 -16.000000 3.508075E+00
-18.000000 -18.000000 1.373847E+01
-18.000000 -20.000000 9.643541E+00
-18.000000 -22.000000 2.395252E+00
-18.000000 -24.000000 7.681226E+00
-18.000000 -26.000000 1.328724E+01
-18.000000 -28.000000 -4.411168E-01
-18.000000 -30.000000 -2.586304E+01
-18.000000 -32.000000 -4.000225E+01
-18.000000 -34.000000 -3.810432E+01
-18.000000 -36.000000 -3.565485E+01
-18.000000 -38.000000 -3.382810E+01
-18.000000 -40.000000 -3.463621E+01
-16.000000 40.000000 -3.213149E+01
-16.000000 38.000000 -4.552631E+01
-16.000000 36.000000 -5.996438E+01
-16.000000 34.000000 -5.845687E+01
-16.000000 32.000000 -4.659829E+01
-16.000000 30.000000 -2.880250E+01
-16.000000 28.000000 -8.231270E+00
-16.000000 26.000000 -1.553173E+01
-16.000000 24.000000 -3.185170E+01
-16.000000 22.000000 -3.685662E+01
-16.000000 20.000000 -2.767904E+01
-16.000000 18.000000 -2.260258E+01
-16.000000 16.000000 -4.578397E+01
-16.000000 14.000000 -7.992420E+01
-16.000000 12.000000 -1.032768E+02
-16.000000 10.000000 -8.921652E+01
-16.000000 8.000000 -3.369414E+01
-16.000000 6.000000 1.610647E+01
-16.000000 4.000000 1.878902E+01
-16.000000 2.000000 -8.362405E+00
-16.000000 0.000000 -2.457838E+01
-16.000000 -2.000000 -2.176124E+01
-16.000000 -4.000000 -7.317075E+00
-16.000000 -6.000000 8.845849E+00
-16.000000 -8.000000 2.202879E+01
-16.000000 -10.000000 2.481830E+01
-16.000000 -12.000000 8.848741E+00
-16.000000 -14.000000 -1.270543E+01
-16.000000 -16.000000 -1.602005E+01
-16.000000 -18.000000 -7.401656E+00
-16.000000 -20.000000 -1.019659E+01
-16.000000 -22.000000 -1.257063E+01
-16.000000 -24.000000 -3.337762E+00
-16.000000 -26.000000 3.604534E+00
-16.000000 -28.000000 -5.536949E+00
-16.000000 -30.000000 -2.306516E+01
-16.000000 -32.000000 -3.269293E+01
-16.000000 -34.000000 -3.507327E+01
-16.000000 -36.000000 -4.040262E+01
-16.000000 -38.000000 -4.253425E+01
-16.000000 -40.000000 -4.290296E+01
-14.000000 40.000000 -3.256069E+01
-14.000000 38.000000 -4.327463E+01
-14.000000 36.000000 -6.046685E+01
-14.000000 34.000000 -5.828290E+01
-14.000000 32.000000 -3.753244E+01
-14.000000 30.000000 -9.117455E+00
-14.000000 28.000000 2.173969E+01
-14.000000 26.000000 2.801812E+01
-14.000000 24.000000 2.019160E+01
-14.000000 22.000000 1.373804E+01
-14.000000 20.000000 2.333539E+01
-14.000000 18.000000 2.233410E+01
-14.000000 16.000000 -1.782445E+01
-14.000000 14.000000 -7.877988E+01
-14.000000 12.000000 -1.309187E+02
-14.000000 10.000000 -1.411739E+02
-14.000000 8.000000 -8.684338E+01
-14.000000 6.000000 -2.830030E+01
-14.000000 4.000000 -8.547314E+00
-14.000000 2.000000 -2.446783E+01
-14.000000 0.000000 -3.695680E+01
-14.000000 -2.000000 -3.508872E+01
-14.000000 -4.000000 -2.187759E+01
-14.000000 -6.000000 -3.272707E+00
-14.000000 -8.000000 9.783039E+00
-14.000000 -10.000000 1.033646E+01
-14.000000 -12.000000 -7.700079E+00
-14.000000 -14.000000 -3.081904E+01
-14.000000 -16.000000 -3.460360E+01
-14.000000 -18.000000 -2.779301E+01
-14.000000 -20.000000 -2.748076E+01
-14.000000 -22.000000 -2.220312E+01
-14.000000 -24.000000 -5.900759E+00
-14.000000 -26.000000 5.205783E+00
-14.000000 -28.000000 1.922064E-01
-14.000000 -30.000000 -1.104668E+01
-14.000000 -32.000000 -1.801850E+01
-14.000000 -34.000000 -2.622342E+01
-14.000000 -36.000000 -4.056726E+01
-14.000000 -38.000000 -4.651552E+01
-14.000000 -40.000000 -4.819908E+01
-12.000000 40.000000 -3.066648E+01
-12.000000 38.000000 -3.725600E+01
-12.000000 36.000000 -4.992502E+01
-12.000000 34.000000 -4.852092E+01
-12.000000 32.000000 -2.820184E+01
-12.000000 30.000000 3.699978E+00
-12.000000 28.000000 3.742949E+01
-12.000000 26.000000 4.496601E+01
-12.000000 24.000000 3.626851E+01
-12.000000 22.000000 3.221299E+01
-12.000000 20.000000 4.946133E+01
-12.000000 18.000000 4.996335E+01
-12.000000 16.000000 2.566841E+00
-12.000000 14.000000 -7.362538E+01
-12.000000 12.000000 -1.432580E+02
-12.000000 10.000000 -1.708993E+02
-12.000000 8.000000 -1.279725E+02
-12.000000 6.000000 -7.173586E+01
-12.000000 4.000000 -4.097427E+01
-12.000000 2.000000 -4.376743E+01
-12.000000 0.000000 -4.755957E+01
-12.000000 -2.000000 -4.110530E+01
-12.000000 -4.000000 -2.532764E+01
-12.000000 -6.000000 -7.268583E+00
-12.000000 -8.000000 2.053606E+00
-12.000000 -10.000000 -1.598993E+00
-12.000000 -12.000000 -2.195496E+01
-12.000000 -14.000000 -4.279316E+01
-12.000000 -16.000000 -4.429416E+01
-12.000000 -18.000000 -3.713766E+01
-12.000000 -20.000000 -3.383710E+01
-12.000000 -22.000000 -2.421218E+01
-12.000000 -24.000000 -4.445504E+00
-12.000000 -26.000000 8.997014E+00
-12.000000 -28.000000 8.967388E+00
-12.000000 -30.000000 3.407726E+00
-12.000000 -32.000000 -2.968207E+00
-12.000000 -34.000000 -1.429421E+01
-12.000000 -36.000000 -3.377106E+01
-12.000000 -38.000000 -4.549480E+01
-12.000000 -40.000000 -5.106487E+01
-10.000000 40.000000 -2.628448E+01
-10.000000 38.000000 -2.824180E+01
-10.000000 36.000000 -3.531137E+01
-10.000000 34.000000 -3.717571E+01
-10.000000 32.000000 -2.456653E+01
-10.000000 30.000000 3.989567E+00
-10.000000 28.000000 3.866988E+01
-10.000000 26.000000 4.327509E+01
-10.000000 24.000000 2.560527E+01
-10.000000 22.000000 1.888208E+01
-10.000000 20.000000 3.943365E+01
-10.000000 18.000000 4.498189E+01
-10.000000 16.000000 2.071472E+00
-10.000000 14.000000 -7.013958E+01
-10.000000 12.000000 -1.381942E+02
-10.000000 10.000000 -1.705073E+02
-10.000000 8.000000 -1.411425E+02
-10.000000 6.000000 -9.367895E+01
-10.000000 4.000000 -6.154344E+01
-10.000000 2.000000 -5.738574E+01
-10.000000 0.000000 -5.538093E+01
-10.000000 -2.000000 -4.395092E+01
-10.000000 -4.000000 -2.529061E+01
-10.000000 -6.000000 -5.465872E+00
-10.000000 -8.000000 3.653879E+00
-10.000000 -10.000000 -1.830515E+00
-10.000000 -12.000000 -2.169456E+01
-10.000000 -14.000000 -3.897553E+01
-10.000000 -16.000000 -4.141715E+01
-10.000000 -18.000000 -3.482497E+01
-10.000000 -20.000000 -3.063313E+01
-10.000000 -22.000000 -2.306106E+01
-10.000000 -24.000000 -5.820364E+00
-10.000000 -26.000000 8.243053E+00
-10.000000 -28.000000 1.333236E+01
-10.000000 -30.000000 1.219768E+01
-10.000000 -32.000000 6.179827E+00
-10.000000 -34.000000 -4.657495E+00
-10.000000 -36.000000 -2.381939E+01
-10.000000 -38.000000 -3.973579E+01
-10.000000 -40.000000 -4.978308E+01
-8.000000 40.000000 -2.033750E+01
-8.000000 38.000000 -2.126698E+01
-8.000000 36.000000 -2.731314E+01
-8.000000 34.000000 -3.255571E+01
-8.000000 32.000000 -2.611660E+01
-8.000000 30.000000 -2.682831E+00
-8.000000 28.000000 3.177449E+01
-8.000000 26.000000 3.602165E+01
-8.000000 24.000000 1.052362E+01
-8.000000 22.000000 -6.270397E+00
-8.000000 20.000000 6.284912E+00
-8.000000 18.000000 1.284409E+01
-8.000000 16.000000 -1.936142E+01
-8.000000 14.000000 -7.274961E+01
-8.000000 12.000000 -1.262532E+02
-8.000000 10.000000 -1.562589E+02
-8.000000 8.000000 -1.339331E+02
-8.000000 6.000000 -9.054341E+01
-8.000000 4.000000 -5.974538E+01
-8.000000 2.000000 -5.367762E+01
-8.000000 0.000000 -5.127356E+01
-8.000000 -2.000000 -4.049512E+01
-8.000000 -4.000000 -2.058999E+01
-8.000000 -6.000000 3.074612E+00
-8.000000 -8.000000 1.727728E+01
-8.000000 -10.000000 1.554197E+01
-8.000000 -12.000000 -4.932462E+00
-8.000000 -14.000000 -2.389551E+01
-8.000000 -16.000000 -2.964716E+01
-8.000000 -18.000000 -2.627951E+01
-8.000000 -20.000000 -2.537114E+01
-8.000000 -22.000000 -2.327077E+01
-8.000000 -24.000000 -1.176671E+01
-8.000000 -26.000000 2.791880E+00
-8.000000 -28.000000 9.299301E+00
-8.000000 -30.000000 1.012976E+01
-8.000000 -32.000000 6.981924E+00
-8.000000 -34.000000 -1.259563E+00
-8.000000 -36.000000 -1.713912E+01
-8.000000 -38.000000 -3.080701E+01
-8.000000 -40.000000 -4.244506E+01
-6.000000 40.000000 -1.709969E+01
-6.000000 38.000000 -2.121870E+01
-6.000000 36.000000 -2.606612E+01
-6.000000 34.000000 -2.905127E+01
-6.000000 32.000000 -2.426441E+01
-6.000000 30.000000 -8.233295E+00
-6.000000 28.000000 1.776993E+01
-6.000000 26.000000 2.017426E+01
-6.000000 24.000000 -6.585121E+00
-6.000000 22.000000 -2.601145E+01
-6.000000 20.000000 -1.973106E+01
-6.000000 18.000000 -1.569031E+01
-6.000000 16.000000 -4.031387E+01
-6.000000 14.000000 -7.793405E+01
-6.000000 12.000000 -1.185509E+02
-6.000000 10.000000 -1.428484E+02
-6.000000 8.000000 -1.189630E+02
-6.000000 6.000000 -7.531552E+01
-6.000000 4.000000 -4.631975E+01
-6.000000 2.000000 -3.999927E+01
-6.000000 0.000000 -3.809005E+01
-6.000000 -2.000000 -2.834521E+01
-6.000000 -4.000000 -6.917105E+00
-6.000000 -6.000000 1.782185E+01
-6.000000 -8.000000 3.539687E+01
-6.000000 -10.000000 3.935633E+01
-6.000000 -12.000000 1.668986E+01
-6.000000 -14.000000 -6.770654E+00
-6.000000 -16.000000 -1.427374E+01
-6.000000 -18.000000 -1.263117E+01
-6.000000 -20.000000 -1.643327E+01
-6.000000 -22.000000 -2.150179E+01
-6.000000 -24.000000 -1.761791E+01
-6.000000 -26.000000 -6.511542E+00
-6.000000 -28.000000 -3.348112E+00
-6.000000 -30.000000 -3.753374E+00
-6.000000 -32.000000 -1.918724E+00
-6.000000 -34.000000 -2.362682E+00
-6.000000 -36.000000 -1.130936E+01
-6.000000 -38.000000 -2.111398E+01
-6.000000 -40.000000 -3.271762E+01
-4.000000 40.000000 -1.715794E+01
-4.000000 38.000000 -2.650885E+01
-4.000000 36.000000 -2.873755E+01
-4.000000 34.000000 -2.526298E+01
-4.000000 32.000000 -2.029318E+01
-4.000000 30.000000 -1.259580E+01
-4.000000 28.000000 3.422138E+00
-4.000000 26.000000 3.375885E+00
-4.000000 24.000000 -1.776465E+01
-4.000000 22.000000 -3.176021E+01
-4.000000 20.000000 -2.612622E+01
-4.000000 18.000000 -2.435824E+01
-4.000000 16.000000 -4.683928E+01
-4.000000 14.000000 -7.777969E+01
-4.000000 12.000000 -1.109564E+02
-4.000000 10.000000 -1.291595E+02
-4.000000 8.000000 -1.044504E+02
-4.000000 6.000000 -6.214436E+01
-4.000000 4.000000 -3.498286E+01
-4.000000 2.000000 -2.899730E+01
-4.000000 0.000000 -2.801567E+01
-4.000000 -2.000000 -2.036583E+01
-4.000000 -4.000000 6.496468E-01
-4.000000 -6.000000 2.791263E+01
-4.000000 -8.000000 4.714232E+01
-4.000000 -10.000000 5.459220E+01
-4.000000 -12.000000 3.090711E+01
-4.000000 -14.000000 6.449381E+00
-4.000000 -16.000000 3.341675E-01
-4.000000 -18.000000 1.949636E+00
-4.000000 -20.000000 -3.605976E+00
-4.000000 -22.000000 -1.398124E+01
-4.000000 -24.000000 -1.813724E+01
-4.000000 -26.000000 -1.495621E+01
-4.000000 -28.000000 -1.808129E+01
-4.000000 -30.000000 -2.379007E+01
-4.000000 -32.000000 -1.833986E+01
-4.000000 -34.000000 -5.824917E+00
-4.000000 -36.000000 -3.672499E+00
-4.000000 -38.000000 -1.117576E+01
-4.000000 -40.000000 -2.343057E+01
-2.000000 40.000000 -1.724932E+01
-2.000000 38.000000 -3.036072E+01
-2.000000 36.000000 -3.030449E+01
-2.000000 34.000000 -2.083491E+01
-2.000000 32.000000 -1.529560E+01
-2.000000 30.000000 -1.438210E+01
-2.000000 28.000000 -4.722675E+00
-2.000000 26.000000 -7.355312E+00
-2.000000 24.000000 -2.270525E+01
-2.000000 22.000000 -2.967552E+01
-2.000000 20.000000 -2.346294E+01
-2.000000 18.000000 -2.275582E+01
-2.000000 16.000000 -4.393206E+01
-2.000000 14.000000 -6.957046E+01
-2.000000 12.000000 -9.643401E+01
-2.000000 10.000000 -1.128787E+02
-2.000000 8.000000 -9.238013E+01
-2.000000 6.000000 -5.061528E+01
-2.000000 4.000000 -2.249155E+01
-2.000000 2.000000 -1.795702E+01
-2.000000 0.000000 -2.073870E+01
-2.000000 -2.000000 -2.031124E+01
-2.000000 -4.000000 -7.071226E+00
-2.000000 -6.000000 1.849118E+01
-2.000000 -8.000000 3.994401E+01
-2.000000 -10.000000 4.979911E+01
-2.000000 -12.000000 2.880862E+01
-2.000000 -14.000000 7.127741E+00
-2.000000 -16.000000 5.537653E+00
-2.000000 -18.000000 9.646563E+00
-2.000000 -20.000000 5.947811E+00
-2.000000 -22.000000 -4.531664E+00
-2.000000 -24.000000 -1.068094E+01
-2.000000 -26.000000 -1.297061E+01
-2.000000 -28.000000 -2.351171E+01
-2.000000 -30.000000 -3.811547E+01
-2.000000 -32.000000 -3.526003E+01
-2.000000 -34.000000 -1.158221E+01
-2.000000 -36.000000 4.466566E+00
-2.000000 -38.000000 3.323917E-01
-2.000000 -40.000000 -1.416346E+01
0.000000 40.000000 -1.913257E+01
0.000000 38.000000 -3.231306E+01
0.000000 36.000000 -2.821179E+01
0.000000 34.000000 -1.435938E+01
0.000000 32.000000 -7.262197E+00
0.000000 30.000000 -8.305372E+00
0.000000 28.000000 -3.432396E+00
0.000000 26.000000 -8.554703E+00
0.000000 24.000000 -2.002890E+01
0.000000 22.000000 -2.041412E+01
0.000000 20.000000 -1.268768E+01
0.000000 18.000000 -1.450095E+01
0.000000 16.000000 -3.399702E+01
0.000000 14.000000 -5.491841E+01
0.000000 12.000000 -8.037422E+01
0.000000 10.000000 -1.032439E+02
0.000000 8.000000 -9.144197E+01
0.000000 6.000000 -5.171372E+01
0.000000 4.000000 -1.931689E+01
0.000000 2.000000 -1.372844E+01
0.000000 0.000000 -2.097423E+01
0.000000 -2.000000 -2.814516E+01
0.000000 -4.000000 -2.342158E+01
0.000000 -6.000000 -3.616890E+00
0.000000 -8.000000 2.001974E+01
0.000000 -10.000000 3.111148E+01
0.000000 -12.000000 1.313125E+01
0.000000 -14.000000 -4.951767E+00
0.000000 -16.000000 2.968159E-01
0.000000 -18.000000 9.699768E+00
0.000000 -20.000000 9.408314E+00
0.000000 -22.000000 3.474934E+00
0.000000 -24.000000 2.725220E+00
0.000000 -26.000000 7.380543E-01
0.000000 -28.000000 -1.622310E+01
0.000000 -30.000000 -3.910415E+01
0.000000 -32.000000 -4.219053E+01
0.000000 -34.000000 -1.444869E+01
0.000000 -36.000000 1.049371E+01
0.000000 -38.000000 9.005014E+00
0.000000 -40.000000 -7.813499E+00
2.000000 40.000000 -2.432467E+01
2.000000 38.000000 -3.400602E+01
2.000000 36.000000 -2.408549E+01
2.000000 34.000000 -6.388481E+00
2.000000 32.000000 2.132229E+00
2.000000 30.000000 3.230492E+00
2.000000 28.000000 7.958393E+00
2.000000 26.000000 3.034237E+00
2.000000 24.000000 -8.382618E+00
2.000000 22.000000 -8.437279E+00
2.000000 20.000000 6.839752E-03
2.000000 18.000000 -2.835655E+00
2.000000 16.000000 -1.925604E+01
2.000000 14.000000 -3.926187E+01
2.000000 12.000000 -6.887745E+01
2.000000 10.000000 -1.002039E+02
2.000000 8.000000 -9.643339E+01
2.000000 6.000000 -6.294751E+01
2.000000 4.000000 -2.955663E+01
2.000000 2.000000 -2.156554E+01
2.000000 0.000000 -3.092119E+01
2.000000 -2.000000 -4.047329E+01
2.000000 -4.000000 -3.758824E+01
2.000000 -6.000000 -2.002377E+01
2.000000 -8.000000 2.392492E+00
2.000000 -10.000000 1.134525E+01
2.000000 -12.000000 -4.050249E+00
2.000000 -14.000000 -1.805185E+01
2.000000 -16.000000 -8.477010E+00
2.000000 -18.000000 3.719471E+00
2.000000 -20.000000 4.847048E+00
2.000000 -22.000000 2.803974E+00
2.000000 -24.000000 9.380186E+00
2.000000 -26.000000 1.529381E+01
2.000000 -28.000000 -2.060432E+00
2.000000 -30.000000 -2.763022E+01
2.000000 -32.000000 -3.237490E+01
2.000000 -34.000000 -6.569138E+00
2.000000 -36.000000 1.495948E+01
2.000000 -38.000000 1.005755E+01
2.000000 -40.000000 -8.141275E+00
4.000000 40.000000 -2.646637E+01
4.000000 38.000000 -3.306777E+01
4.000000 36.000000 -1.990505E+01
4.000000 34.000000 4.064083E-01
4.000000 32.000000 8.881748E+00
4.000000 30.000000 1.125965E+01
4.000000 28.000000 2.051974E+01
4.000000 26.000000 1.784042E+01
4.000000 24.000000 2.807930E+00
4.000000 22.000000 -4.142744E+00
4.000000 20.000000 2.525833E+00
4.000000 18.000000 2.411816E+00
4.000000 16.000000 -9.222006E+00
4.000000 14.000000 -2.746191E+01
4.000000 12.000000 -5.903105E+01
4.000000 10.000000 -9.282224E+01
4.000000 8.000000 -9.332121E+01
4.000000 6.000000 -6.860334E+01
4.000000 4.000000 -3.824252E+01
4.000000 2.000000 -2.631434E+01
4.000000 0.000000 -3.211365E+01
4.000000 -2.000000 -3.935292E+01
4.000000 -4.000000 -3.696034E+01
4.000000 -6.000000 -2.205540E+01
4.000000 -8.000000 -6.441147E+00
4.000000 -10.000000 -3.109720E+00
4.000000 -12.000000 -1.670786E+01
4.000000 -14.000000 -2.735493E+01
4.000000 -16.000000 -1.863732E+01
4.000000 -18.000000 -8.988675E+00
4.000000 -20.000000 -9.858920E+00
4.000000 -22.000000 -9.917570E+00
4.000000 -24.000000 4.025291E+00
4.000000 -26.000000 2.081236E+01
4.000000 -28.000000 8.836229E+00
4.000000 -30.000000 -1.331702E+01
4.000000 -32.000000 -1.554447E+01
4.000000 -34.000000 7.550444E+00
4.000000 -36.000000 2.112524E+01
4.000000 -38.000000 9.843918E+00
4.000000 -40.000000 -1.179200E+01
6.000000 40.000000 -2.177827E+01
6.000000 38.000000 -2.980848E+01
6.000000 36.000000 -1.781580E+01
6.000000 34.000000 2.126677E+00
6.000000 32.000000 9.168819E+00
6.000000 30.000000 1.098006E+01
6.000000 28.000000 2.380994E+01
6.000000 26.000000 2.445871E+01
6.000000 24.000000 8.104826E+00
6.000000 22.000000 -3.033077E+00
6.000000 20.000000 2.033136E+00
6.000000 18.000000 6.382494E+00
6.000000 16.000000 -7.557468E-01
6.000000 14.000000 -1.615761E+01
6.000000 12.000000 -4.700831E+01
6.000000 10.000000 -8.059295E+01
6.000000 8.000000 -8.609394E+01
6.000000 6.000000 -7.187733E+01
6.000000 4.000000 -4.511820E+01
6.000000 2.000000 -2.515973E+01
6.000000 0.000000 -1.965073E+01
6.000000 -2.000000 -2.049722E+01
6.000000 -4.000000 -2.000304E+01
6.000000 -6.000000 -1.104812E+01
6.000000 -8.000000 -4.045959E+00
6.000000 -10.000000 -6.334430E+00
6.000000 -12.000000 -2.164654E+01
6.000000 -14.000000 -3.275347E+01
6.000000 -16.000000 -2.701385E+01
6.000000 -18.000000 -2.170651E+01
6.000000 -20.000000 -2.603238E+01
6.000000 -22.000000 -2.477330E+01
6.000000 -24.000000 -5.537115E+00
6.000000 -26.000000 1.566985E+01
6.000000 -28.000000 8.472782E+00
6.000000 -30.000000 -6.157480E+00
6.000000 -32.000000 -3.631233E+00
6.000000 -34.000000 1.711468E+01
6.000000 -36.000000 2.462008E+01
6.000000 -38.000000 1.045570E+01
6.000000 -40.000000 -1.473889E+01
8.000000 40.000000 -1.425737E+01
8.000000 38.000000 -2.426447E+01
8.000000 36.000000 -1.507630E+01
8.000000 34.000000 9.986744E-01
8.000000 32.000000 5.359661E+00
8.000000 30.000000 5.937889E+00
8.000000 28.000000 1.687829E+01
8.000000 26.000000 1.946515E+01
8.000000 24.000000 7.659393E+00
8.000000 22.000000 1.138649E-01
8.000000 20.000000 5.794081E+00
8.000000 18.000000 1.304246E+01
8.000000 16.000000 8.023979E+00
8.000000 14.000000 -5.520306E+00
8.000000 12.000000 -3.487943E+01
8.000000 10.000000 -6.918819E+01
8.000000 8.000000 -8.311233E+01
8.000000 6.000000 -8.045169E+01
8.000000 4.000000 -5.842380E+01
8.000000 2.000000 -2.837788E+01
8.000000 0.000000 -3.767517E+00
8.000000 -2.000000 1.021445E+01
8.000000 -4.000000 1.516043E+01
8.000000 -6.000000 1.680465E+01
8.000000 -8.000000 1.211603E+01
8.000000 -10.000000 2.174091E+00
8.000000 -12.000000 -1.750744E+01
8.000000 -14.000000 -3.120400E+01
8.000000 -16.000000 -3.030108E+01
8.000000 -18.000000 -2.930886E+01
8.000000 -20.000000 -3.616851E+01
8.000000 -22.000000 -3.544434E+01
8.000000 -24.000000 -1.580216E+01
8.000000 -26.000000 4.450382E+00
8.000000 -28.000000 4.680424E-01
8.000000 -30.000000 -7.434549E+00
8.000000 -32.000000 -5.468369E-03
8.000000 -34.000000 1.931239E+01
8.000000 -36.000000 2.162309E+01
8.000000 -38.000000 5.898636E+00
8.000000 -40.000000 -1.940169E+01
10.000000 40.000000 -7.506044E+00
10.000000 38.000000 -1.536085E+01
10.000000 36.000000 -8.505829E+00
10.000000 34.000000 1.449760E+00
10.000000 32.000000 2.823891E+00
10.000000 30.000000 2.564447E+00
10.000000 28.000000 8.235970E+00
10.000000 26.000000 9.228895E+00
10.000000 24.000000 2.136095E+00
10.000000 22.000000 1.431435E+00
10.000000 20.000000 1.050979E+01
10.000000 18.000000 1.884983E+01
10.000000 16.000000 1.281413E+01
10.000000 14.000000 -2.654039E+00
10.000000 12.000000 -2.959510E+01
10.000000 10.000000 -6.160141E+01
10.000000 8.000000 -8.232540E+01
10.000000 6.000000 -9.014536E+01
10.000000 4.000000 -7.843559E+01
10.000000 2.000000 -4.383878E+01
10.000000 0.000000 2.454878E+00
10.000000 -2.000000 4.080618E+01
10.000000 -4.000000 5.980616E+01
10.000000 -6.000000 5.574869E+01
10.000000 -8.000000 3.874792E+01
10.000000 -10.000000 1.684212E+01
10.000000 -12.000000 -8.435504E+00
10.000000 -14.000000 -2.432931E+01
10.000000 -16.000000 -2.887715E+01
10.000000 -18.000000 -3.117360E+01
10.000000 -20.000000 -3.739439E+01
10.000000 -22.000000 -3.788072E+01
10.000000 -24.000000 -2.215260E+01
10.000000 -26.000000 -4.547220E+00
10.000000 -28.000000 -8.062381E+00
10.000000 -30.000000 -1.491001E+01
10.000000 -32.000000 -6.542948E+00
10.000000 -34.000000 1.234286E+01
10.000000 -36.000000 1.183322E+01
10.000000 -38.000000 -5.085449E+00
10.000000 -40.000000 -2.667116E+01
12.000000 40.000000 -3.166923E+00
12.000000 38.000000 -6.745506E+00
12.000000 36.000000 -4.931126E-01
12.000000 34.000000 5.542446E+00
12.000000 32.000000 5.404325E+00
12.000000 30.000000 6.599974E+00
12.000000 28.000000 1.274717E+01
12.000000 26.000000 1.088748E+01
12.000000 24.000000 3.310184E-01
12.000000 22.000000 -3.391485E-01
12.000000 20.000000 8.197260E+00
12.000000 18.000000 1.559848E+01
12.000000 16.000000 5.498579E+00
12.000000 14.000000 -1.661220E+01
12.000000 12.000000 -4.108563E+01
12.000000 10.000000 -6.594246E+01
12.000000 8.000000 -8.564286E+01
12.000000 6.000000 -9.977168E+01
12.000000 4.000000 -9.907195E+01
12.000000 2.000000 -6.695976E+01
12.000000 0.000000 -5.270586E+00
12.000000 -2.000000 5.930159E+01
12.000000 -4.000000 9.933389E+01
12.000000 -6.000000 9.777498E+01
12.000000 -8.000000 7.079908E+01
12.000000 -10.000000 3.772992E+01
12.000000 -12.000000 6.414783E+00
12.000000 -14.000000 -1.536460E+01
12.000000 -16.000000 -2.561240E+01
12.000000 -18.000000 -3.036630E+01
12.000000 -20.000000 -3.355284E+01
12.000000 -22.000000 -3.169191E+01
12.000000 -24.000000 -1.811200E+01
12.000000 -26.000000 -6.253591E+00
12.000000 -28.000000 -1.480434E+01
12.000000 -30.000000 -2.415398E+01
12.000000 -32.000000 -2.089781E+01
12.000000 -34.000000 -5.388332E+00
12.000000 -36.000000 -6.000360E+00
12.000000 -38.000000 -1.963117E+01
12.000000 -40.000000 -3.432112E+01
14.000000 40.000000 -3.388439E+00
14.000000 38.000000 -3.151205E+00
14.000000 36.000000 4.572518E+00
14.000000 34.000000 1.226031E+01
14.000000 32.000000 1.390373E+01
14.000000 30.000000 1.950758E+01
14.000000 28.000000 3.074311E+01
14.000000 26.000000 2.671414E+01
14.000000 24.000000 1.069608E+01
14.000000 22.000000 3.785239E+00
14.000000 20.000000 7.144388E+00
14.000000 18.000000 1.067769E+01
14.000000 16.000000 -6.105396E+00
14.000000 14.000000 -3.583472E+01
14.000000 12.000000 -6.435561E+01
14.000000 10.000000 -8.866583E+01
14.000000 8.000000 -1.033547E+02
14.000000 6.000000 -1.170663E+02
14.000000 4.000000 -1.193918E+02
14.000000 2.000000 -8.977787E+01
14.000000 0.000000 -2.168565E+01
14.000000 -2.000000 5.913472E+01
14.000000 -4.000000 1.191333E+02
14.000000 -6.000000 1.287098E+02
14.000000 -8.000000 9.981898E+01
14.000000 -10.000000 6.446541E+01
14.000000 -12.000000 2.928750E+01
14.000000 -14.000000 -1.349487E+00
14.000000 -16.000000 -1.930818E+01
14.000000 -18.000000 -2.655467E+01
14.000000 -20.000000 -2.835177E+01
14.000000 -22.000000 -2.417458E+01
14.000000 -24.000000 -1.196591E+01
14.000000 -26.000000 -6.138176E+00
14.000000 -28.000000 -1.795503E+01
14.000000 -30.000000 -2.898859E+01
14.000000 -32.000000 -3.279560E+01
14.000000 -34.000000 -2.413471E+01
14.000000 -36.000000 -2.579434E+01
14.000000 -38.000000 -3.458997E+01
14.000000 -40.000000 -4.429250E+01
16.000000 40.000000 -7.726524E+00
16.000000 38.000000 -6.020014E+00
16.000000 36.000000 2.701004E+00
16.000000 34.000000 1.470164E+01
16.000000 32.000000 2.247651E+01
16.000000 30.000000 3.528335E+01
16.000000 28.000000 5.031051E+01
16.000000 26.000000 4.500219E+01
16.000000 24.000000 3.099944E+01
16.000000 22.000000 2.091833E+01
16.000000 20.000000 2.213052E+01
16.000000 18.000000 2.125473E+01
16.000000 16.000000 -2.376070E+00
16.000000 14.000000 -3.850633E+01
16.000000 12.000000 -7.868029E+01
16.000000 10.000000 -1.163319E+02
16.000000 8.000000 -1.325172E+02
16.000000 6.000000 -1.433958E+02
16.000000 4.000000 -1.409141E+02
16.000000 2.000000 -1.096245E+02
16.000000 0.000000 -4.200283E+01
16.000000 -2.000000 4.040016E+01
16.000000 -4.000000 1.086878E+02
16.000000 -6.000000 1.300913E+02
16.000000 -8.000000 1.128970E+02
16.000000 -10.000000 8.691133E+01
16.000000 -12.000000 5.564869E+01
16.000000 -14.000000 2.215271E+01
16.000000 -16.000000 -1.373462E+00
16.000000 -18.000000 -1.363120E+01
16.000000 -20.000000 -2.289906E+01
16.000000 -22.000000 -2.296853E+01
16.000000 -24.000000 -1.465075E+01
16.000000 -26.000000 -1.006103E+01
16.000000 -28.000000 -1.773227E+01
16.000000 -30.000000 -2.838800E+01
16.000000 -32.000000 -3.706308E+01
16.000000 -34.000000 -3.432146E+01
16.000000 -36.000000 -3.926870E+01
16.000000 -38.000000 -4.728005E+01
16.000000 -40.000000 -5.707562E+01
18.000000 40.000000 -1.221813E+01
18.000000 38.000000 -1.264630E+01
18.000000 36.000000 -4.939879E+00
18.000000 34.000000 8.129217E+00
18.000000 32.000000 2.078863E+01
18.000000 30.000000 4.060920E+01
18.000000 28.000000 6.002315E+01
18.000000 26.000000 5.895832E+01
18.000000 24.000000 5.303760E+01
18.000000 22.000000 4.465754E+01
18.000000 20.000000 4.751856E+01
18.000000 18.000000 4.205588E+01
18.000000 16.000000 1.225605E+01
18.000000 14.000000 -2.845973E+01
18.000000 12.000000 -7.808336E+01
18.000000 10.000000 -1.289559E+02
18.000000 8.000000 -1.515306E+02
18.000000 6.000000 -1.623659E+02
18.000000 4.000000 -1.565872E+02
18.000000 2.000000 -1.272209E+02
18.000000 0.000000 -6.925150E+01
18.000000 -2.000000 4.535538E+00
18.000000 -4.000000 7.378651E+01
18.000000 -6.000000 1.103242E+02
18.000000 -8.000000 1.159219E+02
18.000000 -10.000000 1.077595E+02
18.000000 -12.000000 8.782671E+01
18.000000 -14.000000 5.836362E+01
18.000000 -16.000000 3.107808E+01
18.000000 -18.000000 7.043417E+00
18.000000 -20.000000 -1.829592E+01
18.000000 -22.000000 -2.870667E+01
18.000000 -24.000000 -2.429548E+01
18.000000 -26.000000 -1.761728E+01
18.000000 -28.000000 -2.074429E+01
18.000000 -30.000000 -2.885158E+01
18.000000 -32.000000 -3.740108E+01
18.000000 -34.000000 -3.666024E+01
18.000000 -36.000000 -4.509582E+01
18.000000 -38.000000 -5.668803E+01
18.000000 -40.000000 -6.881558E+01
20.000000 40.000000 -1.323011E+01
20.000000 38.000000 -1.728233E+01
20.000000 36.000000 -1.019168E+01
20.000000 34.000000 -4.838943E-02
20.000000 32.000000 9.876681E+00
20.000000 30.000000 2.907067E+01
20.000000 28.000000 5.060872E+01
20.000000 26.000000 5.648494E+01
20.000000 24.000000 5.668997E+01
20.000000 22.000000 5.086913E+01
20.000000 20.000000 5.389052E+01
20.000000 18.000000 4.524066E+01
20.000000 16.000000 1.535123E+01
20.000000 14.000000 -2.170931E+01
20.000000 12.000000 -6.822068E+01
20.000000 10.000000 -1.193407E+02
20.000000 8.000000 -1.479713E+02
20.000000 6.000000 -1.622099E+02
20.000000 4.000000 -1.601975E+02
20.000000 2.000000 -1.386701E+02
20.000000 0.000000 -9.550077E+01
20.000000 -2.000000 -2.969904E+01
20.000000 -4.000000 4.264201E+01
20.000000 -6.000000 9.674549E+01
20.000000 -8.000000 1.278962E+02
20.000000 -10.000000 1.417799E+02
20.000000 -12.000000 1.330325E+02
20.000000 -14.000000 1.062165E+02
20.000000 -16.000000 6.819816E+01
20.000000 -18.000000 2.443864E+01
20.000000 -20.000000 -1.914814E+01
20.000000 -22.000000 -4.065996E+01
20.000000 -24.000000 -3.759636E+01
20.000000 -26.000000 -2.725136E+01
20.000000 -28.000000 -2.829902E+01
20.000000 -30.000000 -3.346642E+01
20.000000 -32.000000 -3.649243E+01
20.000000 -34.000000 -3.428757E+01
20.000000 -36.000000 -4.605321E+01
20.000000 -38.000000 -6.257799E+01
20.000000 -40.000000 -7.655969E+01
22.000000 40.000000 -7.212283E+00
22.000000 38.000000 -1.543457E+01
22.000000 36.000000 -1.001010E+01
22.000000 34.000000 -5.266443E+00
22.000000 32.000000 -2.044610E+00
22.000000 30.000000 9.037120E+00
22.000000 28.000000 2.564624E+01
22.000000 26.000000 3.039312E+01
22.000000 24.000000 2.780953E+01
22.000000 22.000000 2.385904E+01
22.000000 20.000000 2.754237E+01
22.000000 18.000000 2.234514E+01
22.000000 16.000000 2.657948E-01
22.000000 14.000000 -2.563212E+01
22.000000 12.000000 -6.223011E+01
22.000000 10.000000 -1.087106E+02
22.000000 8.000000 -1.391224E+02
22.000000 6.000000 -1.533951E+02
22.000000 4.000000 -1.538350E+02
22.000000 2.000000 -1.365195E+02
22.000000 0.000000 -9.812307E+01
22.000000 -2.000000 -3.090000E+01
22.000000 -4.000000 4.819378E+01
22.000000 -6.000000 1.150576E+02
22.000000 -8.000000 1.602831E+02
22.000000 -10.000000 1.858717E+02
22.000000 -12.000000 1.784783E+02
22.000000 -14.000000 1.461031E+02
22.000000 -16.000000 8.983481E+01
22.000000 -18.000000 2.664784E+01
22.000000 -20.000000 -2.701581E+01
22.000000 -22.000000 -5.282368E+01
22.000000 -24.000000 -4.772677E+01
22.000000 -26.000000 -3.489348E+01
22.000000 -28.000000 -3.538739E+01
22.000000 -30.000000 -3.960826E+01
22.000000 -32.000000 -3.706937E+01
22.000000 -34.000000 -3.221472E+01
22.000000 -36.000000 -4.590044E+01
22.000000 -38.000000 -6.364665E+01
22.000000 -40.000000 -7.752363E+01
24.000000 40.000000 3.080766E+00
24.000000 38.000000 -9.489620E+00
24.000000 36.000000 -8.358746E+00
24.000000 34.000000 -7.731779E+00
24.000000 32.000000 -8.029823E+00
24.000000 30.000000 -4.698467E+00
24.000000 28.000000 2.183439E+00
24.000000 26.000000 -4.269596E+00
24.000000 24.000000 -1.836054E+01
24.000000 22.000000 -2.085589E+01
24.000000 20.000000 -1.411346E+01
24.000000 18.000000 -1.088197E+01
24.000000 16.000000 -2.277596E+01
24.000000 14.000000 -3.661899E+01
24.000000 12.000000 -6.417721E+01
24.000000 10.000000 -1.067956E+02
24.000000 8.000000 -1.328201E+02
24.000000 6.000000 -1.415767E+02
24.000000 4.000000 -1.420407E+02
24.000000 2.000000 -1.255667E+02
24.000000 0.000000 -8.115816E+01
24.000000 -2.000000 -4.683738E+00
24.000000 -4.000000 8.417694E+01
24.000000 -6.000000 1.531752E+02
24.000000 -8.000000 1.952196E+02
24.000000 -10.000000 2.171625E+02
24.000000 -12.000000 2.001603E+02
24.000000 -14.000000 1.546029E+02
24.000000 -16.000000 8.407254E+01
24.000000 -18.000000 1.567204E+01
24.000000 -20.000000 -3.334106E+01
24.000000 -22.000000 -5.290446E+01
24.000000 -24.000000 -4.352297E+01
24.000000 -26.000000 -3.325981E+01
24.000000 -28.000000 -3.727494E+01
24.000000 -30.000000 -4.312822E+01
24.000000 -32.000000 -3.887776E+01
24.000000 -34.000000 -3.130267E+01
24.000000 -36.000000 -4.324981E+01
24.000000 -38.000000 -6.011834E+01
24.000000 -40.000000 -7.402543E+01
26.000000 40.000000 6.943548E+00
26.000000 38.000000 -7.753242E+00
26.000000 36.000000 -7.405890E+00
26.000000 34.000000 -3.546030E+00
26.000000 32.000000 -1.749592E-01
26.000000 30.000000 1.803280E+00
26.000000 28.000000 1.230621E+00
26.000000 26.000000 -1.711679E+01
26.000000 24.000000 -5.049075E+01
26.000000 22.000000 -5.841598E+01
26.000000 20.000000 -4.969844E+01
26.000000 18.000000 -3.791053E+01
26.000000 16.000000 -3.853726E+01
26.000000 14.000000 -4.064298E+01
26.000000 12.000000 -5.962551E+01
26.000000 10.000000 -9.904325E+01
26.000000 8.000000 -1.224752E+02
26.000000 6.000000 -1.297670E+02
26.000000 4.000000 -1.342574E+02
26.000000 2.000000 -1.201056E+02
26.000000 0.000000 -6.875006E+01
26.000000 -2.000000 1.818632E+01
26.000000 -4.000000 1.145305E+02
26.000000 -6.000000 1.798884E+02
26.000000 -8.000000 2.098846E+02
26.000000 -10.000000 2.179161E+02
26.000000 -12.000000 1.872610E+02
26.000000 -14.000000 1.307876E+02
26.000000 -16.000000 5.950273E+01
26.000000 -18.000000 1.059642E+00
26.000000 -20.000000 -3.483649E+01
26.000000 -22.000000 -4.483085E+01
26.000000 -24.000000 -3.137801E+01
26.000000 -26.000000 -2.292522E+01
26.000000 -28.000000 -3.141234E+01
26.000000 -30.000000 -3.857234E+01
26.000000 -32.000000 -3.522181E+01
26.000000 -34.000000 -2.686272E+01
26.000000 -36.000000 -3.625729E+01
26.000000 -38.000000 -5.411399E+01
26.000000 -40.000000 -7.044971E+01
28.000000 40.000000 2.923441E+00
28.000000 38.000000 -1.165701E+01
28.000000 36.000000 -7.097275E+00
28.000000 34.000000 5.229418E+00
28.000000 32.000000 1.719136E+01
28.000000 30.000000 2.678393E+01
28.000000 28.000000 2.676144E+01
28.000000 26.000000 5.417042E-01
28.000000 24.000000 -4.725586E+01
28.000000 22.000000 -6.411271E+01
28.000000 20.000000 -5.699033E+01
28.000000 18.000000 -3.952807E+01
28.000000 16.000000 -3.274065E+01
28.000000 14.000000 -3.058589E+01
28.000000 12.000000 -4.837629E+01
28.000000 10.000000 -8.837343E+01
28.000000 8.000000 -1.105959E+02
28.000000 6.000000 -1.192844E+02
28.000000 4.000000 -1.298956E+02
28.000000 2.000000 -1.207538E+02
28.000000 0.000000 -6.848141E+01
28.000000 -2.000000 2.152949E+01
28.000000 -4.000000 1.149245E+02
28.000000 -6.000000 1.748851E+02
28.000000 -8.000000 1.959129E+02
28.000000 -10.000000 1.925930E+02
28.000000 -12.000000 1.561737E+02
28.000000 -14.000000 9.484097E+01
28.000000 -16.000000 2.987361E+01
28.000000 -18.000000 -1.592187E+01
28.000000 -20.000000 -4.022233E+01
28.000000 -22.000000 -4.088241E+01
28.000000 -24.000000 -2.204087E+01
28.000000 -26.000000 -1.034918E+01
28.000000 -28.000000 -1.881742E+01
28.000000 -30.000000 -2.596693E+01
28.000000 -32.000000 -2.523251E+01
28.000000 -34.000000 -1.968410E+01
28.000000 -36.000000 -2.882707E+01
28.000000 -38.000000 -4.657454E+01
28.000000 -40.000000 -6.506650E+01
30.000000 40.000000 1.372852E-01
30.000000 38.000000 -1.492608E+01
30.000000 36.000000 -8.039986E+00
30.000000 34.000000 1.177270E+01
30.000000 32.000000 3.276466E+01
30.000000 30.000000 5.372090E+01
30.000000 28.000000 6.102374E+01
30.000000 26.000000 3.638510E+01
30.000000 24.000000 -8.739046E+00
30.000000 22.000000 -3.170333E+01
30.000000 20.000000 -3.052699E+01
30.000000 18.000000 -1.413443E+01
30.000000 16.000000 -7.456263E+00
30.000000 14.000000 -1.103555E+01
30.000000 12.000000 -3.689390E+01
30.000000 10.000000 -7.865217E+01
30.000000 8.000000 -9.936753E+01
30.000000 6.000000 -1.103448E+02
30.000000 4.000000 -1.276685E+02
30.000000 2.000000 -1.240167E+02
30.000000 0.000000 -7.708480E+01
30.000000 -2.000000 7.897813E+00
30.000000 -4.000000 9.376898E+01
30.000000 -6.000000 1.489078E+02
30.000000 -8.000000 1.700143E+02
30.000000 -10.000000 1.668102E+02
30.000000 -12.000000 1.299211E+02
30.000000 -14.000000 6.514013E+01
30.000000 -16.000000 2.331751E+00
30.000000 -18.000000 -3.803343E+01
30.000000 -20.000000 -5.636194E+01
30.000000 -22.000000 -4.861064E+01
30.000000 -24.000000 -2.069800E+01
30.000000 -26.000000 -9.079258E-01
30.000000 -28.000000 -4.692214E+00
30.000000 -30.000000 -1.097923E+01
30.000000 -32.000000 -1.314935E+01
30.000000 -34.000000 -1.066243E+01
30.000000 -36.000000 -2.114760E+01
30.000000 -38.000000 -3.818026E+01
30.000000 -40.000000 -5.871823E+01
32.000000 40.000000 5.456076E+00
32.000000 38.000000 -1.201349E+01
32.000000 36.000000 -8.505123E+00
32.000000 34.000000 1.249350E+01
32.000000 32.000000 3.794282E+01
32.000000 30.000000 6.760592E+01
32.000000 28.000000 8.696410E+01
32.000000 26.000000 7.562343E+01
32.000000 24.000000 4.742240E+01
32.000000 22.000000 2.178214E+01
32.000000 20.000000 1.554908E+01
32.000000 18.000000 2.211513E+01
32.000000 16.000000 1.823944E+01
32.000000 14.000000 1.118198E+00
32.000000 12.000000 -3.349151E+01
32.000000 10.000000 -7.149690E+01
32.000000 8.000000 -8.672384E+01
32.000000 6.000000 -9.469600E+01
32.000000 4.000000 -1.124823E+02
32.000000 2.000000 -1.143533E+02
32.000000 0.000000 -7.828892E+01
32.000000 -2.000000 -6.542587E+00
32.000000 -4.000000 6.940386E+01
32.000000 -6.000000 1.221723E+02
32.000000 -8.000000 1.502432E+02
32.000000 -10.000000 1.558080E+02
32.000000 -12.000000 1.188194E+02
32.000000 -14.000000 5.218155E+01
32.000000 -16.000000 -1.389723E+01
32.000000 -18.000000 -5.810407E+01
32.000000 -20.000000 -7.778098E+01
32.000000 -22.000000 -6.677433E+01
32.000000 -24.000000 -3.099190E+01
32.000000 -26.000000 -2.023285E+00
32.000000 -28.000000 1.719799E+00
32.000000 -30.000000 -1.436085E+00
32.000000 -32.000000 -4.010143E+00
32.000000 -34.000000 -1.614733E+00
32.000000 -36.000000 -1.187971E+01
32.000000 -38.000000 -3.016620E+01
32.000000 -40.000000 -5.378583E+01
34.000000 40.000000 2.124720E+01
34.000000 38.000000 1.014545E+00
34.000000 36.000000 -4.180405E+00
34.000000 34.000000 6.654881E+00
34.000000 32.000000 2.842081E+01
34.000000 30.000000 6.276388E+01
34.000000 28.000000 9.501662E+01
34.000000 26.000000 9.953175E+01
34.000000 24.000000 9.004677E+01
34.000000 22.000000 6.816640E+01
34.000000 20.000000 5.927389E+01
34.000000 18.000000 5.366762E+01
34.000000 16.000000 3.374494E+01
34.000000 14.000000 5.508614E-01
34.000000 12.000000 -3.914857E+01
34.000000 10.000000 -6.676157E+01
34.000000 8.000000 -6.433043E+01
34.000000 6.000000 -5.671408E+01
34.000000 4.000000 -6.533970E+01
34.000000 2.000000 -7.235607E+01
34.000000 0.000000 -5.157215E+01
34.000000 -2.000000 -2.029474E+00
34.000000 -4.000000 5.488169E+01
34.000000 -6.000000 1.031063E+02
34.000000 -8.000000 1.360228E+02
34.000000 -10.000000 1.466841E+02
34.000000 -12.000000 1.130688E+02
34.000000 -14.000000 5.205665E+01
34.000000 -16.000000 -1.230051E+01
34.000000 -18.000000 -6.403223E+01
34.000000 -20.000000 -9.209688E+01
34.000000 -22.000000 -8.421083E+01
34.000000 -24.000000 -4.757532E+01
34.000000 -26.000000 -1.436614E+01
34.000000 -28.000000 -5.378155E+00
34.000000 -30.000000 -4.551647E+00
34.000000 -32.000000 -3.615091E+00
34.000000 -34.000000 1.705964E+00
34.000000 -36.000000 -4.458750E+00
34.000000 -38.000000 -2.271776E+01
34.000000 -40.000000 -4.825871E+01
36.000000 40.000000 4.535482E+01
36.000000 38.000000 2.293976E+01
36.000000 36.000000 5.965376E+00
36.000000 34.000000 -2.853462E+00
36.000000 32.000000 7.615870E+00
36.000000 30.000000 4.128192E+01
36.000000 28.000000 8.378124E+01
36.000000 26.000000 1.030175E+02
36.000000 24.000000 1.077016E+02
36.000000 22.000000 9.525097E+01
36.000000 20.000000 8.908739E+01
36.000000 18.000000 7.479673E+01
36.000000 16.000000 3.942141E+01
36.000000 14.000000 -9.224297E+00
36.000000 12.000000 -5.038799E+01
36.000000 10.000000 -6.160326E+01
36.000000 8.000000 -3.136077E+01
36.000000 6.000000 -5.072594E-02
36.000000 4.000000 2.184441E+00
36.000000 2.000000 -1.212177E+01
36.000000 0.000000 -9.462801E+00
36.000000 -2.000000 1.687268E+01
36.000000 -4.000000 5.577034E+01
36.000000 -6.000000 9.672917E+01
36.000000 -8.000000 1.268403E+02
36.000000 -10.000000 1.355727E+02
36.000000 -12.000000 1.051916E+02
36.000000 -14.000000 5.320232E+01
36.000000 -16.000000 3.060799E-01
36.000000 -18.000000 -5.004882E+01
36.000000 -20.000000 -8.405435E+01
36.000000 -22.000000 -8.329611E+01
36.000000 -24.000000 -5.520486E+01
36.000000 -26.000000 -2.978613E+01
36.000000 -28.000000 -2.338885E+01
36.000000 -30.000000 -2.004017E+01
36.000000 -32.000000 -1.467946E+01
36.000000 -34.000000 -4.871846E+00
36.000000 -36.000000 -3.800898E+00
36.000000 -38.000000 -1.677805E+01
36.000000 -40.000000 -3.940756E+01
38.000000 40.000000 6.968857E+01
38.000000 38.000000 4.745263E+01
38.000000 36.000000 2.143270E+01
38.000000 34.000000 -7.469780E+00
38.000000 32.000000 -1.278513E+01
38.000000 30.000000 1.389582E+01
38.000000 28.000000 6.030805E+01
38.000000 26.000000 8.859974E+01
38.000000 24.000000 9.993458E+01
38.000000 22.000000 9.692194E+01
38.000000 20.000000 9.702562E+01
38.000000 18.000000 8.119505E+01
38.000000 16.000000 3.925258E+01
38.000000 14.000000 -1.347645E+01
38.000000 12.000000 -4.985748E+01
38.000000 10.000000 -4.673055E+01
38.000000 8.000000 6.486231E+00
38.000000 6.000000 6.035937E+01
38.000000 4.000000 6.740622E+01
38.000000 2.000000 4.391981E+01
38.000000 0.000000 2.685272E+01
38.000000 -2.000000 2.948718E+01
38.000000 -4.000000 5.352112E+01
38.000000 -6.000000 8.755156E+01
38.000000 -8.000000 1.156501E+02
38.000000 -10.000000 1.259426E+02
38.000000 -12.000000 9.879854E+01
38.000000 -14.000000 5.584769E+01
38.000000 -16.000000 1.811815E+01
38.000000 -18.000000 -2.050404E+01
38.000000 -20.000000 -5.136658E+01
38.000000 -22.000000 -5.827537E+01
38.000000 -24.000000 -4.718288E+01
38.000000 -26.000000 -3.907960E+01
38.000000 -28.000000 -3.942967E+01
38.000000 -30.000000 -3.680747E+01
38.000000 -32.000000 -2.888679E+01
38.000000 -34.000000 -1.432294E+01
38.000000 -36.000000 -8.841239E+00
38.000000 -38.000000 -1.514398E+01
38.000000 -40.000000 -3.034446E+01
40.000000 40.000000 8.647585E+01
40.000000 38.000000 6.898928E+01
40.000000 36.000000 4.126016E+01
40.000000 34.000000 1.292458E-01
40.000000 32.000000 -1.999288E+01
40.000000 30.000000 -6.123451E+00
40.000000 28.000000 3.305314E+01
40.000000 26.000000 5.753903E+01
40.000000 24.000000 6.508162E+01
40.000000 22.000000 6.897927E+01
40.000000 20.000000 7.807425E+01
40.000000 18.000000 7.013635E+01
40.000000 16.000000 3.561054E+01
40.000000 14.000000 -4.210033E+00
40.000000 12.000000 -2.377715E+01
40.000000 10.000000 -7.463188E+00
40.000000 8.000000 5.197044E+01
40.000000 6.000000 1.132149E+02
40.000000 4.000000 1.139462E+02
40.000000 2.000000 8.028790E+01
40.000000 0.000000 4.560153E+01
40.000000 -2.000000 2.512246E+01
40.000000 -4.000000 3.110726E+01
40.000000 -6.000000 5.880754E+01
40.000000 -8.000000 9.330539E+01
40.000000 -10.000000 1.122179E+02
40.000000 -12.000000 9.263445E+01
40.000000 -14.000000 6.086482E+01
40.000000 -16.000000 3.838007E+01
40.000000 -18.000000 1.624210E+01
40.000000 -20.000000 -3.898743E+00
40.000000 -22.000000 -1.646769E+01
40.000000 -24.000000 -2.571692E+01
40.000000 -26.000000 -3.572270E+01
40.000000 -28.000000 -4.425775E+01
40.000000 -30.000000 -4.488360E+01
40.000000 -32.000000 -3.419814E+01
40.000000 -34.000000 -1.531425E+01
40.000000 -36.000000 -1.056574E+01
40.000000 -38.000000 -1.622201E+01
40.000000 -40.000000 -2.591252E+01
42.000000 40.000000 9.296297E+01
42.000000 38.000000 8.137765E+01
42.000000 36.000000 6.115874E+01
42.000000 34.000000 2.281706E+01
42.000000 32.000000 -5.128284E+00
42.000000 30.000000 -8.209347E+00
42.000000 28.000000 1.003969E+01
42.000000 26.000000 1.707012E+01
42.000000 24.000000 8.570511E+00
42.000000 22.000000 1.445675E+01
42.000000 20.000000 3.087250E+01
42.000000 18.000000 3.740498E+01
42.000000 16.000000 2.445408E+01
42.000000 14.000000 1.567562E+01
42.000000 12.000000 2.456918E+01
42.000000 10.000000 5.238401E+01
42.000000 8.000000 9.739633E+01
42.000000 6.000000 1.405687E+02
42.000000 4.000000 1.295162E+02
42.000000 2.000000 8.442360E+01
42.000000 0.000000 3.966072E+01
42.000000 -2.000000 9.559643E+00
42.000000 -4.000000 5.205671E+00
42.000000 -6.000000 3.095869E+01
42.000000 -8.000000 7.130470E+01
42.000000 -10.000000 9.502052E+01
42.000000 -12.000000 8.110787E+01
42.000000 -14.000000 5.892551E+01
42.000000 -16.000000 5.227847E+01
42.000000 -18.000000 5.094733E+01
42.000000 -20.000000 4.694331E+01
42.000000 -22.000000 3.401225E+01
42.000000 -24.000000 8.232304E+00
42.000000 -26.000000 -1.812745E+01
42.000000 -28.000000 -3.750588E+01
42.000000 -30.000000 -4.205193E+01
42.000000 -32.000000 -3.033998E+01
42.000000 -34.000000 -1.002677E+01
42.000000 -36.000000 -5.428745E+00
42.000000 -38.000000 -1.238180E+01
42.000000 -40.000000 -2.361357E+01
44.000000 40.000000 8.889238E+01
44.000000 38.000000 8.116675E+01
44.000000 36.000000 7.567632E+01
44.000000 34.000000 5.318258E+01
44.000000 32.000000 2.560250E+01
44.000000 30.000000 7.712456E+00
44.000000 28.000000 4.885712E-01
44.000000 26.000000 -1.380016E+01
44.000000 24.000000 -4.377934E+01
44.000000 22.000000 -4.386492E+01
44.000000 20.000000 -2.691988E+01
44.000000 18.000000 -5.225685E+00
44.000000 16.000000 8.616745E+00
44.000000 14.000000 3.182455E+01
44.000000 12.000000 6.481961E+01
44.000000 10.000000 9.722438E+01
44.000000 8.000000 1.194363E+02
44.000000 6.000000 1.354847E+02
44.000000 4.000000 1.121804E+02
44.000000 2.000000 6.106879E+01
44.000000 0.000000 1.541466E+01
44.000000 -2.000000 -8.903694E+00
44.000000 -4.000000 -6.535204E+00
44.000000 -6.000000 2.382823E+01
44.000000 -8.000000 6.075366E+01
44.000000 -10.000000 8.026973E+01
44.000000 -12.000000 6.524824E+01
44.000000 -14.000000 4.872463E+01
44.000000 -16.000000 5.773162E+01
44.000000 -18.000000 7.660902E+01
44.000000 -20.000000 8.375755E+01
44.000000 -22.000000 7.154821E+01
44.000000 -24.000000 4.122603E+01
44.000000 -26.000000 8.000528E+00
44.000000 -28.000000 -1.717337E+01
44.000000 -30.000000 -2.523000E+01
44.000000 -32.000000 -1.591838E+01
44.000000 -34.000000 1.170969E+00
44.000000 -36.000000 4.989360E+00
44.000000 -38.000000 -3.497892E+00
44.000000 -40.000000 -2.207268E+01
46.000000 40.000000 7.771613E+01
46.000000 38.000000 7.068339E+01
46.000000 36.000000 7.844979E+01
46.000000 34.000000 7.469836E+01
46.000000 32.000000 5.476974E+01
46.000000 30.000000 3.274689E+01
46.000000 28.000000 1.158494E+01
46.000000 26.000000 -1.616582E+01
46.000000 24.000000 -6.233625E+01
46.000000 22.000000 -7.307520E+01
46.000000 20.000000 -5.946476E+01
46.000000 18.000000 -3.202298E+01
46.000000 16.000000 -3.847294E+00
46.000000 14.000000 3.329267E+01
46.000000 12.000000 7.168341E+01
46.000000 10.000000 9.613391E+01
46.000000 8.000000 1.013849E+02
46.000000 6.000000 1.002023E+02
46.000000 4.000000 7.176793E+01
46.000000 2.000000 2.640058E+01
46.000000 0.000000 -1.233532E+01
46.000000 -2.000000 -2.566427E+01
46.000000 -4.000000 -1.216952E+01
46.000000 -6.000000 1.662367E+01
46.000000 -8.000000 4.379596E+01
46.000000 -10.000000 5.742185E+01
46.000000 -12.000000 4.809884E+01
46.000000 -14.000000 4.224613E+01
46.000000 -16.000000 6.377884E+01
46.000000 -18.000000 9.219114E+01
46.000000 -20.000000 1.004902E+02
46.000000 -22.000000 8.861028E+01
46.000000 -24.000000 6.376263E+01
46.000000 -26.000000 3.453139E+01
46.000000 -28.000000 1.228599E+01
46.000000 -30.000000 1.236578E+00
46.000000 -32.000000 6.583799E+00
46.000000 -34.000000 2.068490E+01
46.000000 -36.000000 1.975416E+01
46.000000 -38.000000 5.050351E+00
46.000000 -40.000000 -2.234407E+01
48.000000 40.000000 6.674949E+01
48.000000 38.000000 5.345053E+01
48.000000 36.000000 6.463525E+01
48.000000 34.000000 7.716698E+01
48.000000 32.000000 7.262131E+01
48.000000 30.000000 5.790810E+01
48.000000 28.000000 3.828709E+01
48.000000 26.000000 1.031231E+01
48.000000 24.000000 -3.774191E+01
48.000000 22.000000 -5.770802E+01
48.000000 20.000000 -5.064409E+01
48.000000 18.000000 -3.171344E+01
48.000000 16.000000 -9.813778E+00
48.000000 14.000000 1.953189E+01
48.000000 12.000000 4.459663E+01
48.000000 10.000000 5.173610E+01
48.000000 8.000000 5.162825E+01
48.000000 6.000000 4.617240E+01
48.000000 4.000000 2.043294E+01
48.000000 2.000000 -1.155124E+01
48.000000 0.000000 -3.698184E+01
48.000000 -2.000000 -3.703918E+01
48.000000 -4.000000 -1.454281E+01
48.000000 -6.000000 4.826065E+00
48.000000 -8.000000 1.798760E+01
48.000000 -10.000000 2.610648E+01
48.000000 -12.000000 2.786416E+01
48.000000 -14.000000 3.474972E+01
48.000000 -16.000000 6.611101E+01
48.000000 -18.000000 9.753705E+01
48.000000 -20.000000 1.037542E+02
48.000000 -22.000000 9.386072E+01
48.000000 -24.000000 7.735275E+01
48.000000 -26.000000 5.724894E+01
48.000000 -28.000000 3.869165E+01
48.000000 -30.000000 2.434551E+01
48.000000 -32.000000 2.529907E+01
48.000000 -34.000000 3.895436E+01
48.000000 -36.000000 3.389493E+01
48.000000 -38.000000 1.184335E+01
48.000000 -40.000000 -2.163933E+01
50.000000 40.000000 5.981219E+01
50.000000 38.000000 3.662496E+01
50.000000 36.000000 4.366379E+01
50.000000 34.000000 6.594181E+01
50.000000 32.000000 7.684100E+01
50.000000 30.000000 7.478888E+01
50.000000 28.000000 6.715089E+01
50.000000 26.000000 4.835924E+01
50.000000 24.000000 6.636887E+00
50.000000 22.000000 -2.081445E+01
50.000000 20.000000 -2.089876E+01
50.000000 18.000000 -1.355046E+01
50.000000 16.000000 -7.512127E+00
50.000000 14.000000 3.041798E+00
50.000000 12.000000 8.236601E+00
50.000000 10.000000 -1.255404E+00
50.000000 8.000000 -1.458897E+00
50.000000 6.000000 -4.079746E+00
50.000000 4.000000 -2.165109E+01
50.000000 2.000000 -4.176670E+01
50.000000 0.000000 -5.257269E+01
50.000000 -2.000000 -4.070358E+01
50.000000 -4.000000 -1.510690E+01
50.000000 -6.000000 -4.240435E+00
50.000000 -8.000000 -4.430616E+00
50.000000 -10.000000 -2.339865E+00
50.000000 -12.000000 7.235819E+00
50.000000 -14.000000 2.570541E+01
50.000000 -16.000000 6.260814E+01
50.000000 -18.000000 9.129082E+01
50.000000 -20.000000 9.484813E+01
50.000000 -22.000000 8.688898E+01
50.000000 -24.000000 7.776916E+01
50.000000 -26.000000 6.990312E+01
50.000000 -28.000000 5.405478E+01
50.000000 -30.000000 3.772384E+01
50.000000 -32.000000 3.579109E+01
50.000000 -34.000000 4.895505E+01
50.000000 -36.000000 4.226073E+01
50.000000 -38.000000 1.560226E+01
50.000000 -40.000000 -2.092440E+01
52.000000 40.000000 5.711582E+01
52.000000 38.000000 2.912846E+01
52.000000 36.000000 3.115024E+01
