-18.000000 -38.000000 -7.655124E+00
-18.000000 -40.000000 -1.389744E+01
-16.000000 40.000000 1.255514E+01
-16.000000 38.000000 4.856203E+00
-16.000000 36.000000 -1.288334E+00
-16.000000 34.000000 -2.738225E+00
-16.000000 32.000000 -6.426230E+00
-16.000000 30.000000 -1.392002E+01
-16.000000 28.000000 -1.112864E+01
-16.000000 26.000000 -2.215087E+00
-16.000000 24.000000 1.051625E+01
-16.000000 22.000000 5.858567E+00
-16.000000 20.000000 -1.901677E+01
-16.000000 18.000000 -4.677921E+01
-16.000000 16.000000 -4.973527E+01
-16.000000 14.000000 -3.015201E+01
-16.000000 12.000000 -9.150032E+00
-16.000000 10.000000 -5.733565E+00
-16.000000 8.000000 -1.328798E+01
-16.000000 6.000000 -1.844985E+01
-16.000000 4.000000 -1.737256E+01
-16.000000 2.000000 -2.023392E+01
-16.000000 0.000000 -2.921900E+01
-16.000000 -2.000000 -3.503083E+01
-16.000000 -4.000000 -3.204679E+01
-16.000000 -6.000000 -2.776737E+01
-16.000000 -8.000000 -2.554088E+01
-16.000000 -10.000000 -2.534750E+01
-16.000000 -12.000000 -2.822003E+01
-16.000000 -14.000000 -2.557903E+01
-16.000000 -16.000000 -1.792487E+01
-16.000000 -18.000000 -9.960578E+00
-16.000000 -20.000000 -7.425509E+00
-16.000000 -22.000000 -6.566646E+00
-16.000000 -24.000000 -2.091660E+00
-16.000000 -26.000000 2.785766E+00
-16.000000 -28.000000 1.889532E+00
-16.000000 -30.000000 4.551622E+00
-16.000000 -32.000000 9.727267E+00
-16.000000 -34.000000 1.292650E+01
-16.000000 -36.000000 6.429072E+00
-16.000000 -38.000000 -4.892223E+00
-16.000000 -40.000000 -1.509111E+01
-14.000000 40.000000 1.000433E+01
-14.000000 38.000000 2.628908E+00
-14.000000 36.000000 -1.753305E+00
-14.000000 34.000000 -2.237284E+00
-14.000000 32.000000 -4.111416E+00
-14.000000 30.000000 -1.079338E+01
-14.000000 28.000000 -9.296734E+00
-14.000000 26.000000 -1.618545E+00
-14.000000 24.000000 1.024107E+01
-14.000000 22.000000 6.326504E+00
-14.000000 20.000000 -1.417811E+01
-14.000000 18.000000 -3.927223E+01
-14.000000 16.000000 -4.603557E+01
-14.000000 14.000000 -3.171831E+01
-14.000000 12.000000 -1.397009E+01
-14.000000 10.000000 -1.118218E+01
-14.000000 8.000000 -1.983192E+01
-14.000000 6.000000 -3.025512E+01
-14.000000 4.000000 -3.504557E+01
-14.000000 2.000000 -3.910501E+01
-14.000000 0.000000 -4.584752E+01
-14.000000 -2.000000 -4.807061E+01
-14.000000 -4.000000 -4.169243E+01
-14.000000 -6.000000 -3.105085E+01
-14.000000 -8.000000 -2.332385E+01
-14.000000 -10.000000 -1.854393E+01
-14.000000 -12.000000 -1.625770E+01
-14.000000 -14.000000 -1.039148E+01
-14.000000 -16.000000 -4.017523E+00
-14.000000 -18.000000 4.837866E-01
-14.000000 -20.000000 1.605082E-01
-14.000000 -22.000000 1.867095E+00
-14.000000 -24.000000 8.542535E+00
-14.000000 -26.000000 1.343458E+01
-14.000000 -28.000000 1.149892E+01
-14.000000 -30.000000 1.374030E+01
-14.000000 -32.000000 1.779274E+01
-14.000000 -34.000000 1.924753E+01
-14.000000 -36.000000 1.035501E+01
-14.000000 -38.000000 -3.467191E+00
-14.000000 -40.000000 -1.649598E+01
-12.000000 40.000000 7.636935E+00
-12.000000 38.000000 -2.560368E-01
-12.000000 36.000000 -3.302008E+00
-12.000000 34.000000 -1.927246E+00
-12.000000 32.000000 -2.231138E+00
-12.000000 30.000000 -9.479246E+00
-12.000000 28.000000 -9.444575E+00
-12.000000 26.000000 -3.230581E+00
-12.000000 24.000000 7.950779E+00
-12.000000 22.000000 5.064892E+00
-12.000000 20.000000 -1.100468E+01
-12.000000 18.000000 -3.339998E+01
-12.000000 16.000000 -4.293914E+01
-12.000000 14.000000 -3.063511E+01
-12.000000 12.000000 -1.219205E+01
-12.000000 10.000000 -6.739446E+00
-12.000000 8.000000 -1.358965E+01
-12.000000 6.000000 -2.642760E+01
-12.000000 4.000000 -3.748366E+01
-12.000000 2.000000 -4.496706E+01
-12.000000 0.000000 -5.106385E+01
-12.000000 -2.000000 -4.933260E+01
-12.000000 -4.000000 -4.061111E+01
-12.000000 -6.000000 -2.916526E+01
-12.000000 -8.000000 -1.999481E+01
-12.000000 -10.000000 -1.280796E+01
-12.000000 -12.000000 -6.611382E+00
-12.000000 -14.000000 -1.316643E-02
-12.000000 -16.000000 4.955035E+00
-12.000000 -18.000000 6.101261E+00
-12.000000 -20.000000 3.812099E+00
-12.000000 -22.000000 4.737174E+00
-12.000000 -24.000000 1.052161E+01
-12.000000 -26.000000 1.409065E+01
-12.000000 -28.000000 1.217723E+01
-12.000000 -30.000000 1.395489E+01
-12.000000 -32.000000 1.776873E+01
-12.000000 -34.000000 1.917682E+01
-12.000000 -36.000000 1.091476E+01
-12.000000 -38.000000 -2.776406E+00
-12.000000 -40.000000 -1.688071E+01
-10.000000 40.000000 6.282413E+00
-10.000000 38.000000 -2.892323E+00
-10.000000 36.000000 -6.223030E+00
-10.000000 34.000000 -4.222467E+00
-10.000000 32.000000 -3.506413E+00
-10.000000 30.000000 -9.332612E+00
-10.000000 28.000000 -8.828004E+00
-10.000000 26.000000 -3.307443E+00
-10.000000 24.000000 6.130478E+00
-10.000000 22.000000 3.187728E+00
-10.000000 20.000000 -1.269689E+01
-10.000000 18.000000 -3.612758E+01
-10.000000 16.000000 -4.682166E+01
-10.000000 14.000000 -3.430777E+01
-10.000000 12.000000 -1.034835E+01
-10.000000 10.000000 6.193907E+00
-10.000000 8.000000 8.822165E+00
-10.000000 6.000000 1.833534E-02
-10.000000 4.000000 -1.730165E+01
-10.000000 2.000000 -3.350790E+01
-10.000000 0.000000 -4.318200E+01
-10.000000 -2.000000 -3.932445E+01
-10.000000 -4.000000 -2.939273E+01
-10.000000 -6.000000 -2.255581E+01
-10.000000 -8.000000 -1.523771E+01
-10.000000 -10.000000 -7.354719E+00
-10.000000 -12.000000 -6.957989E-01
-10.000000 -14.000000 4.610387E+00
-10.000000 -16.000000 7.916309E+00
-10.000000 -18.000000 5.685454E+00
-10.000000 -20.000000 3.545475E-01
-10.000000 -22.000000 -1.450478E+00
-10.000000 -24.000000 2.035499E+00
-10.000000 -26.000000 5.691940E+00
-10.000000 -28.000000 4.611124E+00
-10.000000 -30.000000 6.119418E+00
-10.000000 -32.000000 1.105162E+01
-10.000000 -34.000000 1.429522E+01
-10.000000 -36.000000 8.882253E+00
-10.000000 -38.000000 -3.650661E+00
-10.000000 -40.000000 -1.828048E+01
-8.000000 40.000000 6.350472E+00
-8.000000 38.000000 -4.240040E+00
-8.000000 36.000000 -9.878981E+00
-8.000000 34.000000 -8.817032E+00
-8.000000 32.000000 -7.117749E+00
-8.000000 30.000000 -1.066766E+01
-8.000000 28.000000 -8.175542E+00
-8.000000 26.000000 -2.255192E+00
-8.000000 24.000000 5.374562E+00
-8.000000 22.000000 1.267720E+00
-8.000000 20.000000 -1.662557E+01
-8.000000 18.000000 -4.205296E+01
-8.000000 16.000000 -5.359011E+01
-8.000000 14.000000 -4.141727E+01
-8.000000 12.000000 -1.170713E+01
-8.000000 10.000000 2.012739E+01
-8.000000 8.000000 3.742077E+01
-8.000000 6.000000 3.660692E+01
-8.000000 4.000000 1.633777E+01
-8.000000 2.000000 -7.213917E+00
-8.000000 0.000000 -2.174031E+01
-8.000000 -2.000000 -2.283382E+01
-8.000000 -4.000000 -1.684471E+01
-8.000000 -6.000000 -1.277930E+01
-8.000000 -8.000000 -8.395049E+00
-8.000000 -10.000000 -2.177125E+00
-8.000000 -12.000000 2.802124E+00
-8.000000 -14.000000 5.849377E+00
-8.000000 -16.000000 4.948518E+00
-8.000000 -18.000000 -2.769013E+00
-8.000000 -20.000000 -1.277680E+01
-8.000000 -22.000000 -1.748196E+01
-8.000000 -24.000000 -1.448093E+01
-8.000000 -26.000000 -8.699074E+00
-8.000000 -28.000000 -6.855229E+00
-8.000000 -30.000000 -3.294659E+00
-8.000000 -32.000000 3.302507E+00
-8.000000 -34.000000 7.706025E+00
-8.000000 -36.000000 3.793430E+00
-8.000000 -38.000000 -8.452959E+00
-8.000000 -40.000000 -2.281963E+01
-6.000000 40.000000 6.657334E+00
-6.000000 38.000000 -4.537125E+00
-6.000000 36.000000 -1.240701E+01
-6.000000 34.000000 -1.223245E+01
-6.000000 32.000000 -9.996403E+00
-6.000000 30.000000 -1.311004E+01
-6.000000 28.000000 -9.240105E+00
-6.000000 26.000000 -2.704137E+00
-6.000000 24.000000 4.985634E+00
-6.000000 22.000000 2.130257E+00
-6.000000 20.000000 -1.521290E+01
-6.000000 18.000000 -4.277194E+01
-6.000000 16.000000 -5.591919E+01
-6.000000 14.000000 -4.256716E+01
-6.000000 12.000000 -8.505925E+00
-6.000000 10.000000 3.146282E+01
-6.000000 8.000000 5.696393E+01
-6.000000 6.000000 6.136624E+01
-6.000000 4.000000 4.037922E+01
-6.000000 2.000000 1.254930E+01
-6.000000 0.000000 -4.772198E+00
-6.000000 -2.000000 -8.657235E+00
-6.000000 -4.000000 -4.883572E+00
-6.000000 -6.000000 -3.145522E+00
-6.000000 -8.000000 -1.596233E+00
-6.000000 -10.000000 2.357773E+00
-6.000000 -12.000000 3.694900E+00
-6.000000 -14.000000 2.965166E+00
-6.000000 -16.000000 -2.416387E+00
-6.000000 -18.000000 -1.431577E+01
-6.000000 -20.000000 -2.840290E+01
-6.000000 -22.000000 -3.616328E+01
-6.000000 -24.000000 -3.242280E+01
-6.000000 -26.000000 -2.327381E+01
-6.000000 -28.000000 -1.710111E+01
-6.000000 -30.000000 -1.017330E+01
-6.000000 -32.000000 -2.353151E+00
-6.000000 -34.000000 1.033882E+00
-6.000000 -36.000000 -4.546446E+00
-6.000000 -38.000000 -1.766067E+01
-6.000000 -40.000000 -3.086353E+01
-4.000000 40.000000 5.577239E+00
-4.000000 38.000000 -4.107506E+00
-4.000000 36.000000 -1.160792E+01
-4.000000 34.000000 -1.268446E+01
-4.000000 32.000000 -1.120437E+01
-4.000000 30.000000 -1.485675E+01
-4.000000 28.000000 -1.203758E+01
-4.000000 26.000000 -5.457664E+00
-4.000000 24.000000 4.529954E+00
-4.000000 22.000000 6.960701E+00
-4.000000 20.000000 -5.514704E+00
-4.000000 18.000000 -3.093730E+01
-4.000000 16.000000 -4.386738E+01
-4.000000 14.000000 -3.079872E+01
-4.000000 12.000000 1.755294E+00
-4.000000 10.000000 3.798883E+01
-4.000000 8.000000 5.805589E+01
-4.000000 6.000000 5.794012E+01
-4.000000 4.000000 3.512375E+01
-4.000000 2.000000 8.110495E+00
-4.000000 0.000000 -6.385645E+00
-4.000000 -2.000000 -6.544420E+00
-4.000000 -4.000000 -1.859031E-01
-4.000000 -6.000000 1.049987E+00
-4.000000 -8.000000 1.323376E+00
-4.000000 -10.000000 3.623762E+00
-4.000000 -12.000000 1.138452E+00
-4.000000 -14.000000 -2.564294E+00
-4.000000 -16.000000 -9.283136E+00
-4.000000 -18.000000 -2.155711E+01
-4.000000 -20.000000 -3.735553E+01
-4.000000 -22.000000 -4.746382E+01
-4.000000 -24.000000 -4.297498E+01
-4.000000 -26.000000 -3.081734E+01
-4.000000 -28.000000 -2.281770E+01
-4.000000 -30.000000 -1.423418E+01
-4.000000 -32.000000 -5.948673E+00
-4.000000 -34.000000 -5.478126E+00
-4.000000 -36.000000 -1.491217E+01
-4.000000 -38.000000 -2.986182E+01
-4.000000 -40.000000 -4.211348E+01
-2.000000 40.000000 3.296674E+00
-2.000000 38.000000 -4.242430E+00
-2.000000 36.000000 -1.034424E+01
-2.000000 34.000000 -1.096217E+01
-2.000000 32.000000 -9.226411E+00
-2.000000 30.000000 -1.464138E+01
-2.000000 28.000000 -1.511530E+01
-2.000000 26.000000 -8.329159E+00
-2.000000 24.000000 5.296160E+00
-2.000000 22.000000 1.426211E+01
-2.000000 20.000000 9.086079E+00
-2.000000 18.000000 -9.805049E+00
-2.000000 16.000000 -2.161895E+01
-2.000000 14.000000 -1.242712E+01
-2.000000 12.000000 1.266770E+01
-2.000000 10.000000 3.937340E+01
-2.000000 8.000000 4.632299E+01
-2.000000 6.000000 3.195854E+01
-2.000000 4.000000 3.494908E+00
-2.000000 2.000000 -1.728695E+01
-2.000000 0.000000 -2.391318E+01
-2.000000 -2.000000 -1.929997E+01
-2.000000 -4.000000 -9.849723E+00
-2.000000 -6.000000 -3.247146E+00
-2.000000 -8.000000 -1.647681E+00
-2.000000 -10.000000 -2.168020E+00
-2.000000 -12.000000 -6.528500E+00
-2.000000 -14.000000 -9.841555E+00
-2.000000 -16.000000 -1.374219E+01
-2.000000 -18.000000 -2.227939E+01
-2.000000 -20.000000 -3.545632E+01
-2.000000 -22.000000 -4.505772E+01
-2.000000 -24.000000 -4.181442E+01
-2.000000 -26.000000 -3.087646E+01
-2.000000 -28.000000 -2.335216E+01
-2.000000 -30.000000 -1.444328E+01
-2.000000 -32.000000 -7.921369E+00
-2.000000 -34.000000 -1.197333E+01
-2.000000 -36.000000 -2.656146E+01
-2.000000 -38.000000 -4.342288E+01
-2.000000 -40.000000 -5.524345E+01
0.000000 40.000000 -3.410130E-01
0.000000 38.000000 -6.395138E+00
0.000000 36.000000 -1.131333E+01
0.000000 34.000000 -8.832520E+00
0.000000 32.000000 -4.570445E+00
0.000000 30.000000 -1.123791E+01
0.000000 28.000000 -1.481325E+01
0.000000 26.000000 -9.268216E+00
0.000000 24.000000 6.063731E+00
0.000000 22.000000 2.084943E+01
0.000000 20.000000 2.211692E+01
0.000000 18.000000 6.591887E+00
0.000000 16.000000 -6.431231E+00
0.000000 14.000000 -1.076379E+00
0.000000 12.000000 1.701317E+01
0.000000 10.000000 3.458065E+01
0.000000 8.000000 3.151805E+01
0.000000 6.000000 6.787082E+00
0.000000 4.000000 -2.407894E+01
0.000000 2.000000 -4.102596E+01
0.000000 0.000000 -4.420840E+01
0.000000 -2.000000 -3.587560E+01
0.000000 -4.000000 -2.343144E+01
0.000000 -6.000000 -1.272131E+01
0.000000 -8.000000 -1.024293E+01
0.000000 -10.000000 -1.479888E+01
0.000000 -12.000000 -2.260738E+01
0.000000 -14.000000 -2.370380E+01
0.000000 -16.000000 -1.987455E+01
0.000000 -18.000000 -1.949576E+01
0.000000 -20.000000 -2.609777E+01
0.000000 -22.000000 -3.392089E+01
0.000000 -24.000000 -3.447029E+01
0.000000 -26.000000 -2.846546E+01
0.000000 -28.000000 -2.210558E+01
0.000000 -30.000000 -1.218362E+01
0.000000 -32.000000 -8.690641E+00
0.000000 -34.000000 -1.794322E+01
0.000000 -36.000000 -3.767805E+01
0.000000 -38.000000 -5.609087E+01
0.000000 -40.000000 -6.808352E+01
2.000000 40.000000 -6.492079E+00
2.000000 38.000000 -1.193206E+01
2.000000 36.000000 -1.396697E+01
2.000000 34.000000 -7.254530E+00
2.000000 32.000000 9.752178E-02
2.000000 30.000000 -5.024673E+00
2.000000 28.000000 -9.309128E+00
2.000000 26.000000 -6.915860E+00
2.000000 24.000000 6.845390E+00
2.000000 22.000000 2.326334E+01
2.000000 20.000000 2.617241E+01
2.000000 18.000000 1.052097E+01
2.000000 16.000000 -5.542240E+00
2.000000 14.000000 -5.123951E+00
2.000000 12.000000 8.759585E+00
2.000000 10.000000 2.257099E+01
2.000000 8.000000 1.892959E+01
2.000000 6.000000 -2.804400E+00
2.000000 4.000000 -2.715528E+01
2.000000 2.000000 -4.207175E+01
2.000000 0.000000 -4.719192E+01
2.000000 -2.000000 -4.120284E+01
2.000000 -4.000000 -3.106423E+01
2.000000 -6.000000 -2.173072E+01
2.000000 -8.000000 -2.012151E+01
2.000000 -10.000000 -2.943621E+01
2.000000 -12.000000 -4.265213E+01
2.000000 -14.000000 -4.117600E+01
2.000000 -16.000000 -2.788021E+01
2.000000 -18.000000 -1.764945E+01
2.000000 -20.000000 -1.823828E+01
2.000000 -22.000000 -2.566668E+01
2.000000 -24.000000 -3.043369E+01
2.000000 -26.000000 -2.890270E+01
2.000000 -28.000000 -2.529110E+01
2.000000 -30.000000 -1.357087E+01
2.000000 -32.000000 -1.074072E+01
2.000000 -34.000000 -2.346407E+01
2.000000 -36.000000 -4.589424E+01
2.000000 -38.000000 -6.574377E+01
2.000000 -40.000000 -7.791949E+01
4.000000 40.000000 -1.433445E+01
4.000000 38.000000 -2.092516E+01
4.000000 36.000000 -1.977892E+01
4.000000 34.000000 -7.090700E+00
4.000000 32.000000 4.085021E+00
4.000000 30.000000 5.838585E-02
4.000000 28.000000 -3.871169E+00
4.000000 26.000000 -3.015787E+00
4.000000 24.000000 9.408293E+00
4.000000 22.000000 2.377027E+01
4.000000 20.000000 2.455350E+01
4.000000 18.000000 6.362204E+00
4.000000 16.000000 -1.518080E+01
4.000000 14.000000 -2.056578E+01
4.000000 12.000000 -7.995318E+00
4.000000 10.000000 8.046900E+00
4.000000 8.000000 1.159880E+01
4.000000 6.000000 1.996151E+00
4.000000 4.000000 -1.028941E+01
4.000000 2.000000 -1.913204E+01
4.000000 0.000000 -2.597010E+01
4.000000 -2.000000 -3.045682E+01
4.000000 -4.000000 -3.066694E+01
4.000000 -6.000000 -2.682486E+01
4.000000 -8.000000 -2.750727E+01
4.000000 -10.000000 -4.047992E+01
4.000000 -12.000000 -5.660434E+01
4.000000 -14.000000 -5.479471E+01
4.000000 -16.000000 -3.641669E+01
4.000000 -18.000000 -2.132423E+01
4.000000 -20.000000 -1.956281E+01
4.000000 -22.000000 -2.774421E+01
4.000000 -24.000000 -3.573292E+01
4.000000 -26.000000 -3.662548E+01
4.000000 -28.000000 -3.454802E+01
4.000000 -30.000000 -2.266416E+01
4.000000 -32.000000 -1.799461E+01
4.000000 -34.000000 -2.878264E+01
4.000000 -36.000000 -4.996988E+01
4.000000 -38.000000 -6.975230E+01
4.000000 -40.000000 -8.156504E+01
6.000000 40.000000 -2.178431E+01
6.000000 38.000000 -3.057929E+01
6.000000 36.000000 -2.869633E+01
6.000000 34.000000 -1.131708E+01
6.000000 32.000000 3.536394E+00
6.000000 30.000000 3.857946E-02
6.000000 28.000000 -2.376944E+00
6.000000 26.000000 -1.600122E-01
6.000000 24.000000 1.363767E+01
6.000000 22.000000 2.737192E+01
6.000000 20.000000 2.697943E+01
6.000000 18.000000 3.439003E+00
6.000000 16.000000 -2.615765E+01
6.000000 14.000000 -3.577540E+01
6.000000 12.000000 -2.179649E+01
6.000000 10.000000 -2.921694E+00
6.000000 8.000000 8.227047E+00
6.000000 6.000000 1.129975E+01
6.000000 4.000000 1.153390E+01
6.000000 2.000000 7.821857E+00
6.000000 0.000000 -1.491181E+00
6.000000 -2.000000 -1.347121E+01
6.000000 -4.000000 -2.115955E+01
6.000000 -6.000000 -2.604581E+01
6.000000 -8.000000 -3.058938E+01
6.000000 -10.000000 -4.241477E+01
6.000000 -12.000000 -5.755871E+01
6.000000 -14.000000 -5.991254E+01
6.000000 -16.000000 -4.555361E+01
6.000000 -18.000000 -3.191147E+01
6.000000 -20.000000 -3.100300E+01
6.000000 -22.000000 -4.068018E+01
6.000000 -24.000000 -4.945520E+01
6.000000 -26.000000 -4.991718E+01
6.000000 -28.000000 -4.643774E+01
6.000000 -30.000000 -3.564712E+01
6.000000 -32.000000 -2.826012E+01
6.000000 -34.000000 -3.240800E+01
6.000000 -36.000000 -4.884711E+01
6.000000 -38.000000 -6.698682E+01
6.000000 -40.000000 -7.851480E+01
8.000000 40.000000 -2.775689E+01
8.000000 38.000000 -3.716781E+01
8.000000 36.000000 -3.636613E+01
8.000000 34.000000 -2.121358E+01
8.000000 32.000000 -6.370781E+00
8.000000 30.000000 -6.646746E+00
8.000000 28.000000 -5.377776E+00
8.000000 26.000000 1.799798E-01
8.000000 24.000000 1.677273E+01
8.000000 22.000000 3.098542E+01
8.000000 20.000000 3.098679E+01
8.000000 18.000000 5.578448E+00
8.000000 16.000000 -2.721431E+01
8.000000 14.000000 -4.010543E+01
8.000000 12.000000 -2.900224E+01
8.000000 10.000000 -1.202156E+01
8.000000 8.000000 3.045459E+00
8.000000 6.000000 1.452176E+01
8.000000 4.000000 2.281475E+01
8.000000 2.000000 2.175563E+01
8.000000 0.000000 1.123216E+01
8.000000 -2.000000 -2.195184E+00
8.000000 -4.000000 -1.250842E+01
8.000000 -6.000000 -2.303396E+01
8.000000 -8.000000 -2.854250E+01
8.000000 -10.000000 -3.464395E+01
8.000000 -12.000000 -4.694683E+01
8.000000 -14.000000 -5.512754E+01
8.000000 -16.000000 -5.078572E+01
8.000000 -18.000000 -4.329877E+01
8.000000 -20.000000 -4.493341E+01
8.000000 -22.000000 -5.470191E+01
8.000000 -24.000000 -6.023180E+01
8.000000 -26.000000 -5.799369E+01
8.000000 -28.000000 -5.427392E+01
8.000000 -30.000000 -4.428207E+01
8.000000 -32.000000 -3.455979E+01
8.000000 -34.000000 -3.273845E+01
8.000000 -36.000000 -4.380951E+01
8.000000 -38.000000 -6.103221E+01
8.000000 -40.000000 -7.277215E+01
10.000000 40.000000 -3.125705E+01
10.000000 38.000000 -4.042782E+01
10.000000 36.000000 -4.176116E+01
10.000000 34.000000 -3.274394E+01
10.000000 32.000000 -2.084384E+01
10.000000 30.000000 -1.831809E+01
10.000000 28.000000 -1.341924E+01
10.000000 26.000000 -4.754042E+00
10.000000 24.000000 1.265746E+01
10.000000 22.000000 2.545428E+01
10.000000 20.000000 2.669154E+01
10.000000 18.000000 6.824211E+00
10.000000 16.000000 -2.111021E+01
10.000000 14.000000 -3.520176E+01
10.000000 12.000000 -3.176274E+01
10.000000 10.000000 -1.994468E+01
10.000000 8.000000 -3.958382E+00
10.000000 6.000000 1.092883E+01
10.000000 4.000000 2.191090E+01
10.000000 2.000000 2.341163E+01
10.000000 0.000000 1.430568E+01
10.000000 -2.000000 -3.880167E-02
10.000000 -4.000000 -1.310608E+01
10.000000 -6.000000 -2.142927E+01
10.000000 -8.000000 -2.394600E+01
10.000000 -10.000000 -2.536841E+01
10.000000 -12.000000 -3.388212E+01
10.000000 -14.000000 -4.529831E+01
10.000000 -16.000000 -5.092119E+01
10.000000 -18.000000 -5.064210E+01
10.000000 -20.000000 -5.276407E+01
10.000000 -22.000000 -5.694933E+01
10.000000 -24.000000 -5.496728E+01
10.000000 -26.000000 -5.002916E+01
10.000000 -28.000000 -4.839559E+01
10.000000 -30.000000 -4.129830E+01
10.000000 -32.000000 -3.288518E+01
10.000000 -34.000000 -2.946991E+01
10.000000 -36.000000 -3.819084E+01
10.000000 -38.000000 -5.557389E+01
10.000000 -40.000000 -6.878119E+01
12.000000 40.000000 -3.131710E+01
12.000000 38.000000 -4.172331E+01
12.000000 36.000000 -4.613496E+01
12.000000 34.000000 -4.236570E+01
12.000000 32.000000 -3.335273E+01
12.000000 30.000000 -3.065819E+01
12.000000 28.000000 -2.452996E+01
12.000000 26.000000 -1.542796E+01
12.000000 24.000000 -9.572351E-01
12.000000 22.000000 8.892541E+00
12.000000 20.000000 1.084589E+01
12.000000 18.000000 -3.306484E+00
12.000000 16.000000 -2.460847E+01
12.000000 14.000000 -3.498224E+01
12.000000 12.000000 -3.400842E+01
12.000000 10.000000 -2.675442E+01
12.000000 8.000000 -1.131279E+01
12.000000 6.000000 6.377577E+00
12.000000 4.000000 1.965198E+01
12.000000 2.000000 2.250001E+01
12.000000 0.000000 1.563077E+01
12.000000 -2.000000 2.718303E+00
12.000000 -4.000000 -1.101378E+01
12.000000 -6.000000 -1.928539E+01
12.000000 -8.000000 -1.898479E+01
12.000000 -10.000000 -1.756610E+01
12.000000 -12.000000 -2.590941E+01
12.000000 -14.000000 -4.111579E+01
12.000000 -16.000000 -5.195605E+01
12.000000 -18.000000 -5.331507E+01
12.000000 -20.000000 -5.050908E+01
12.000000 -22.000000 -4.516296E+01
12.000000 -24.000000 -3.476656E+01
12.000000 -26.000000 -2.643226E+01
12.000000 -28.000000 -2.785046E+01
12.000000 -30.000000 -2.726471E+01
12.000000 -32.000000 -2.416353E+01
12.000000 -34.000000 -2.275158E+01
12.000000 -36.000000 -3.241007E+01
12.000000 -38.000000 -5.087120E+01
12.000000 -40.000000 -6.818713E+01
14.000000 40.000000 -2.858417E+01
14.000000 38.000000 -4.131264E+01
14.000000 36.000000 -4.837728E+01
14.000000 34.000000 -4.781888E+01
14.000000 32.000000 -4.080345E+01
14.000000 30.000000 -3.883695E+01
14.000000 28.000000 -3.485154E+01
14.000000 26.000000 -2.945939E+01
14.000000 24.000000 -2.161142E+01
14.000000 22.000000 -1.597929E+01
14.000000 20.000000 -1.686804E+01
14.000000 18.000000 -2.908639E+01
14.000000 16.000000 -4.386382E+01
14.000000 14.000000 -4.821394E+01
14.000000 12.000000 -4.360896E+01
14.000000 10.000000 -3.449404E+01
14.000000 8.000000 -1.586292E+01
14.000000 6.000000 6.684172E+00
14.000000 4.000000 2.459323E+01
14.000000 2.000000 2.990851E+01
14.000000 0.000000 2.602924E+01
14.000000 -2.000000 1.539752E+01
14.000000 -4.000000 1.627075E+00
14.000000 -6.000000 -9.975193E+00
14.000000 -8.000000 -1.008549E+01
14.000000 -10.000000 -9.044156E+00
14.000000 -12.000000 -2.176875E+01
14.000000 -14.000000 -4.186390E+01
14.000000 -16.000000 -5.390981E+01
14.000000 -18.000000 -5.180778E+01
14.000000 -20.000000 -4.190851E+01
14.000000 -22.000000 -2.864159E+01
14.000000 -24.000000 -1.218509E+01
14.000000 -26.000000 -7.403679E-01
14.000000 -28.000000 -5.581345E+00
14.000000 -30.000000 -1.100436E+01
14.000000 -32.000000 -1.297802E+01
14.000000 -34.000000 -1.427469E+01
14.000000 -36.000000 -2.586469E+01
14.000000 -38.000000 -4.673792E+01
14.000000 -40.000000 -6.943228E+01
16.000000 40.000000 -2.479764E+01
16.000000 38.000000 -3.975541E+01
16.000000 36.000000 -4.815031E+01
16.000000 34.000000 -4.739040E+01
16.000000 32.000000 -4.085913E+01
16.000000 30.000000 -4.125933E+01
16.000000 28.000000 -4.216831E+01
16.000000 26.000000 -4.278046E+01
16.000000 24.000000 -4.292078E+01
16.000000 22.000000 -4.242333E+01
16.000000 20.000000 -4.806338E+01
16.000000 18.000000 -6.167040E+01
16.000000 16.000000 -7.194064E+01
16.000000 14.000000 -7.017754E+01
16.000000 12.000000 -5.842198E+01
16.000000 10.000000 -4.144573E+01
16.000000 8.000000 -1.546808E+01
16.000000 6.000000 1.324299E+01
16.000000 4.000000 3.789833E+01
16.000000 2.000000 4.899361E+01
16.000000 0.000000 4.782629E+01
16.000000 -2.000000 3.632580E+01
16.000000 -4.000000 2.044828E+01
16.000000 -6.000000 7.631661E+00
16.000000 -8.000000 4.189213E+00
16.000000 -10.000000 -7.726178E-01
16.000000 -12.000000 -2.043535E+01
16.000000 -14.000000 -4.310035E+01
16.000000 -16.000000 -5.354776E+01
16.000000 -18.000000 -4.741438E+01
16.000000 -20.000000 -3.286998E+01
16.000000 -22.000000 -1.665625E+01
16.000000 -24.000000 -2.792072E-02
16.000000 -26.000000 9.933926E+00
16.000000 -28.000000 4.991910E+00
16.000000 -30.000000 -4.845123E-01
16.000000 -32.000000 -3.407664E+00
16.000000 -34.000000 -6.656227E+00
16.000000 -36.000000 -2.100864E+01
16.000000 -38.000000 -4.396202E+01
16.000000 -40.000000 -6.932245E+01
18.000000 40.000000 -2.202905E+01
18.000000 38.000000 -3.729639E+01
18.000000 36.000000 -4.503410E+01
18.000000 34.000000 -4.209238E+01
18.000000 32.000000 -3.493104E+01
18.000000 30.000000 -3.834661E+01
18.000000 28.000000 -4.448769E+01
18.000000 26.000000 -5.063717E+01
18.000000 24.000000 -5.671552E+01
18.000000 22.000000 -5.961625E+01
18.000000 20.000000 -6.876387E+01
18.000000 18.000000 -8.669213E+01
18.000000 16.000000 -9.515720E+01
18.000000 14.000000 -8.557207E+01
18.000000 12.000000 -6.520247E+01
18.000000 10.000000 -4.238055E+01
18.000000 8.000000 -1.163850E+01
18.000000 6.000000 2.334568E+01
18.000000 4.000000 5.473320E+01
18.000000 2.000000 6.943873E+01
18.000000 0.000000 6.866607E+01
18.000000 -2.000000 5.621056E+01
18.000000 -4.000000 3.960458E+01
18.000000 -6.000000 2.417909E+01
18.000000 -8.000000 1.527732E+01
18.000000 -10.000000 2.914610E+00
18.000000 -12.000000 -2.439971E+01
18.000000 -14.000000 -4.863998E+01
18.000000 -16.000000 -5.427756E+01
18.000000 -18.000000 -4.209568E+01
18.000000 -20.000000 -2.539988E+01
18.000000 -22.000000 -1.281068E+01
18.000000 -24.000000 -1.962260E+00
18.000000 -26.000000 4.077540E+00
18.000000 -28.000000 1.352877E+00
18.000000 -30.000000 3.324499E-01
18.000000 -32.000000 1.800996E+00
18.000000 -34.000000 -1.242105E+00
18.000000 -36.000000 -1.858115E+01
18.000000 -38.000000 -4.280433E+01
18.000000 -40.000000 -6.738700E+01
20.000000 40.000000 -2.160268E+01
20.000000 38.000000 -3.419932E+01
20.000000 36.000000 -3.935137E+01
20.000000 34.000000 -3.505767E+01
20.000000 32.000000 -2.670194E+01
20.000000 30.000000 -3.035719E+01
20.000000 28.000000 -3.924042E+01
20.000000 26.000000 -4.815864E+01
20.000000 24.000000 -5.571642E+01
20.000000 22.000000 -5.940079E+01
20.000000 20.000000 -7.067101E+01
20.000000 18.000000 -9.014586E+01
20.000000 16.000000 -9.723888E+01
20.000000 14.000000 -8.448129E+01
20.000000 12.000000 -6.150518E+01
20.000000 10.000000 -3.849849E+01
20.000000 8.000000 -9.172217E+00
20.000000 6.000000 2.646958E+01
20.000000 4.000000 6.047349E+01
20.000000 2.000000 7.632468E+01
20.000000 0.000000 7.558583E+01
20.000000 -2.000000 6.404315E+01
20.000000 -4.000000 4.934810E+01
20.000000 -6.000000 3.252010E+01
20.000000 -8.000000 1.828432E+01
20.000000 -10.000000 -1.214530E+00
20.000000 -12.000000 -3.523678E+01
20.000000 -14.000000 -5.933617E+01
20.000000 -16.000000 -5.736805E+01
20.000000 -18.000000 -3.700659E+01
20.000000 -20.000000 -1.873931E+01
20.000000 -22.000000 -1.323901E+01
20.000000 -24.000000 -1.064320E+01
20.000000 -26.000000 -8.395289E+00
20.000000 -28.000000 -1.089612E+01
20.000000 -30.000000 -7.964740E+00
20.000000 -32.000000 5.284815E-01
20.000000 -34.000000 3.594723E-01
20.000000 -36.000000 -1.752417E+01
20.000000 -38.000000 -4.274487E+01
20.000000 -40.000000 -6.597418E+01
22.000000 40.000000 -2.320816E+01
22.000000 38.000000 -3.248793E+01
22.000000 36.000000 -3.491421E+01
22.000000 34.000000 -2.814533E+01
22.000000 32.000000 -1.651637E+01
22.000000 30.000000 -1.806190E+01
22.000000 28.000000 -2.673887E+01
22.000000 26.000000 -3.498344E+01
22.000000 24.000000 -3.873482E+01
22.000000 22.000000 -4.068979E+01
22.000000 20.000000 -5.188044E+01
22.000000 18.000000 -7.074705E+01
22.000000 16.000000 -7.818548E+01
22.000000 14.000000 -6.740591E+01
22.000000 12.000000 -4.962371E+01
22.000000 10.000000 -3.281496E+01
22.000000 8.000000 -1.041362E+01
22.000000 6.000000 1.893160E+01
22.000000 4.000000 5.012984E+01
22.000000 2.000000 6.521660E+01
22.000000 0.000000 6.455283E+01
22.000000 -2.000000 5.477334E+01
22.000000 -4.000000 4.405575E+01
22.000000 -6.000000 2.998150E+01
22.000000 -8.000000 9.819480E+00
22.000000 -10.000000 -1.868607E+01
22.000000 -12.000000 -5.469359E+01
22.000000 -14.000000 -7.246255E+01
22.000000 -16.000000 -6.066385E+01
22.000000 -18.000000 -3.307323E+01
22.000000 -20.000000 -1.298705E+01
22.000000 -22.000000 -1.112495E+01
22.000000 -24.000000 -1.623762E+01
22.000000 -26.000000 -2.022389E+01
22.000000 -28.000000 -2.420795E+01
22.000000 -30.000000 -1.986530E+01
22.000000 -32.000000 -7.453909E+00
22.000000 -34.000000 -3.622898E+00
22.000000 -36.000000 -1.887029E+01
22.000000 -38.000000 -4.339721E+01
22.000000 -40.000000 -6.576585E+01
24.000000 40.000000 -2.742451E+01
24.000000 38.000000 -3.385353E+01
24.000000 36.000000 -3.298345E+01
24.000000 34.000000 -2.145482E+01
24.000000 32.000000 -5.092440E+00
24.000000 30.000000 -3.660495E+00
24.000000 28.000000 -9.776861E+00
24.000000 26.000000 -1.497188E+01
24.000000 24.000000 -1.172033E+01
24.000000 22.000000 -9.804933E+00
24.000000 20.000000 -1.872345E+01
24.000000 18.000000 -3.962788E+01
24.000000 16.000000 -5.153594E+01
24.000000 14.000000 -4.361097E+01
24.000000 12.000000 -3.169917E+01
24.000000 10.000000 -2.412936E+01
24.000000 8.000000 -1.113070E+01
24.000000 6.000000 1.071270E+01
24.000000 4.000000 3.626840E+01
24.000000 2.000000 4.572050E+01
24.000000 0.000000 4.083318E+01
24.000000 -2.000000 3.430370E+01
24.000000 -4.000000 2.920828E+01
24.000000 -6.000000 1.340067E+01
24.000000 -8.000000 -1.380703E+01
24.000000 -10.000000 -4.882903E+01
24.000000 -12.000000 -8.190597E+01
24.000000 -14.000000 -8.895859E+01
24.000000 -16.000000 -6.480080E+01
24.000000 -18.000000 -3.063413E+01
24.000000 -20.000000 -8.848998E+00
24.000000 -22.000000 -7.075823E+00
24.000000 -24.000000 -1.755635E+01
24.000000 -26.000000 -2.806653E+01
24.000000 -28.000000 -3.485812E+01
24.000000 -30.000000 -3.162714E+01
24.000000 -32.000000 -1.914659E+01
24.000000 -34.000000 -1.146662E+01
24.000000 -36.000000 -2.212109E+01
24.000000 -38.000000 -4.459381E+01
24.000000 -40.000000 -6.678057E+01
26.000000 40.000000 -3.377372E+01
26.000000 38.000000 -3.855015E+01
26.000000 36.000000 -3.394558E+01
26.000000 34.000000 -1.692195E+01
26.000000 32.000000 4.070046E+00
26.000000 30.000000 9.436460E+00
26.000000 28.000000 8.469679E+00
26.000000 26.000000 8.220813E+00
26.000000 24.000000 1.805335E+01
26.000000 22.000000 2.200911E+01
26.000000 20.000000 1.422106E+01
26.000000 18.000000 -8.315166E+00
26.000000 16.000000 -2.510853E+01
26.000000 14.000000 -2.364462E+01
26.000000 12.000000 -1.729482E+01
26.000000 10.000000 -1.571244E+01
26.000000 8.000000 -9.793830E+00
26.000000 6.000000 5.884182E+00
26.000000 4.000000 2.586106E+01
26.000000 2.000000 3.017986E+01
26.000000 0.000000 2.020240E+01
26.000000 -2.000000 1.243180E+01
26.000000 -4.000000 7.202729E+00
26.000000 -6.000000 -1.201213E+01
26.000000 -8.000000 -4.153876E+01
26.000000 -10.000000 -7.779863E+01
26.000000 -12.000000 -1.048035E+02
26.000000 -14.000000 -1.018710E+02
26.000000 -16.000000 -6.872610E+01
26.000000 -18.000000 -3.148705E+01
26.000000 -20.000000 -9.637575E+00
26.000000 -22.000000 -7.366959E+00
26.000000 -24.000000 -1.975288E+01
26.000000 -26.000000 -3.340189E+01
26.000000 -28.000000 -4.401208E+01
26.000000 -30.000000 -4.295761E+01
26.000000 -32.000000 -3.044165E+01
26.000000 -34.000000 -1.954055E+01
26.000000 -36.000000 -2.558741E+01
26.000000 -38.000000 -4.667134E+01
26.000000 -40.000000 -6.873961E+01
28.000000 40.000000 -3.996379E+01
28.000000 38.000000 -4.547752E+01
28.000000 36.000000 -3.923136E+01
28.000000 34.000000 -1.695421E+01
28.000000 32.000000 8.895919E+00
28.000000 30.000000 1.732623E+01
28.000000 28.000000 2.146984E+01
28.000000 26.000000 2.652276E+01
28.000000 24.000000 4.172970E+01
28.000000 22.000000 4.529970E+01
28.000000 20.000000 3.662391E+01
28.000000 18.000000 1.220219E+01
28.000000 16.000000 -8.023632E+00
28.000000 14.000000 -1.137791E+01
28.000000 12.000000 -8.059226E+00
28.000000 10.000000 -8.767412E+00
28.000000 8.000000 -7.301908E+00
28.000000 6.000000 3.832089E+00
28.000000 4.000000 2.018781E+01
28.000000 2.000000 2.208506E+01
28.000000 0.000000 8.957362E+00
28.000000 -2.000000 -4.729549E+00
28.000000 -4.000000 -1.591924E+01
28.000000 -6.000000 -3.468753E+01
28.000000 -8.000000 -5.985681E+01
28.000000 -10.000000 -9.143493E+01
28.000000 -12.000000 -1.095265E+02
28.000000 -14.000000 -1.017708E+02
28.000000 -16.000000 -6.950359E+01
28.000000 -18.000000 -3.589581E+01
28.000000 -20.000000 -1.732491E+01
28.000000 -22.000000 -1.552769E+01
28.000000 -24.000000 -2.664832E+01
28.000000 -26.000000 -3.999156E+01
28.000000 -28.000000 -5.218545E+01
28.000000 -30.000000 -5.254488E+01
28.000000 -32.000000 -4.017909E+01
28.000000 -34.000000 -2.721945E+01
28.000000 -36.000000 -3.046741E+01
28.000000 -38.000000 -4.893542E+01
28.000000 -40.000000 -6.894757E+01
30.000000 40.000000 -4.415910E+01
30.000000 38.000000 -5.174384E+01
30.000000 36.000000 -4.602020E+01
30.000000 34.000000 -2.211065E+01
30.000000 32.000000 6.153481E+00
30.000000 30.000000 1.617116E+01
30.000000 28.000000 2.388396E+01
30.000000 26.000000 3.260365E+01
30.000000 24.000000 5.036375E+01
30.000000 22.000000 5.359508E+01
30.000000 20.000000 4.399730E+01
30.000000 18.000000 1.654476E+01
30.000000 16.000000 -4.580549E+00
30.000000 14.000000 -6.488979E+00
30.000000 12.000000 -1.337110E+00
30.000000 10.000000 -2.580641E+00
30.000000 8.000000 -5.063298E+00
30.000000 6.000000 2.661876E+00
30.000000 4.000000 1.582846E+01
30.000000 2.000000 1.324302E+01
30.000000 0.000000 -2.927228E+00
30.000000 -2.000000 -1.568801E+01
30.000000 -4.000000 -2.353255E+01
30.000000 -6.000000 -3.816886E+01
30.000000 -8.000000 -5.914736E+01
30.000000 -10.000000 -8.386859E+01
30.000000 -12.000000 -9.711081E+01
30.000000 -14.000000 -9.091703E+01
30.000000 -16.000000 -6.449178E+01
30.000000 -18.000000 -3.768048E+01
30.000000 -20.000000 -2.579382E+01
30.000000 -22.000000 -2.731665E+01
30.000000 -24.000000 -3.644766E+01
30.000000 -26.000000 -4.684942E+01
30.000000 -28.000000 -5.905843E+01
30.000000 -30.000000 -6.092861E+01
30.000000 -32.000000 -4.900598E+01
30.000000 -34.000000 -3.465503E+01
30.000000 -36.000000 -3.613559E+01
30.000000 -38.000000 -4.965676E+01
30.000000 -40.000000 -6.609517E+01
32.000000 40.000000 -4.448953E+01
32.000000 38.000000 -5.456011E+01
32.000000 36.000000 -5.139990E+01
32.000000 34.000000 -3.228238E+01
32.000000 32.000000 -6.993294E+00
32.000000 30.000000 4.634536E+00
32.000000 28.000000 1.514568E+01
32.000000 26.000000 2.532044E+01
32.000000 24.000000 4.191340E+01
32.000000 22.000000 4.518962E+01
32.000000 20.000000 3.506869E+01
32.000000 18.000000 8.936106E+00
32.000000 16.000000 -9.241587E+00
32.000000 14.000000 -9.058256E+00
32.000000 12.000000 -2.757670E+00
32.000000 10.000000 -3.060870E+00
32.000000 8.000000 -6.951713E+00
32.000000 6.000000 -2.140609E+00
32.000000 4.000000 7.158755E+00
32.000000 2.000000 3.738315E+00
32.000000 0.000000 -1.015332E+01
32.000000 -2.000000 -1.716898E+01
32.000000 -4.000000 -1.632769E+01
32.000000 -6.000000 -2.303040E+01
32.000000 -8.000000 -3.968627E+01
32.000000 -10.000000 -5.935330E+01
32.000000 -12.000000 -7.158175E+01
32.000000 -14.000000 -6.872780E+01
32.000000 -16.000000 -5.071763E+01
32.000000 -18.000000 -3.390898E+01
32.000000 -20.000000 -3.096537E+01
32.000000 -22.000000 -3.680670E+01
32.000000 -24.000000 -4.380027E+01
32.000000 -26.000000 -5.065993E+01
32.000000 -28.000000 -6.450200E+01
32.000000 -30.000000 -6.746479E+01
32.000000 -32.000000 -5.453239E+01
32.000000 -34.000000 -3.870670E+01
32.000000 -36.000000 -3.837808E+01
32.000000 -38.000000 -4.829111E+01
32.000000 -40.000000 -6.250009E+01
34.000000 40.000000 -4.107103E+01
34.000000 38.000000 -5.455140E+01
34.000000 36.000000 -5.592334E+01
34.000000 34.000000 -4.388844E+01
34.000000 32.000000 -2.419769E+01
34.000000 30.000000 -1.356863E+01
34.000000 28.000000 -2.043707E+00
34.000000 26.000000 8.477630E+00
34.000000 24.000000 2.227179E+01
34.000000 22.000000 2.560021E+01
34.000000 20.000000 1.639537E+01
34.000000 18.000000 -5.748232E+00
34.000000 16.000000 -2.113680E+01
34.000000 14.000000 -2.069998E+01
34.000000 12.000000 -1.527284E+01
34.000000 10.000000 -1.470352E+01
34.000000 8.000000 -1.650582E+01
34.000000 6.000000 -1.168217E+01
34.000000 4.000000 -2.252489E+00
34.000000 2.000000 6.954229E-01
34.000000 0.000000 -4.885905E+00
34.000000 -2.000000 -6.663508E+00
34.000000 -4.000000 -1.131504E+00
34.000000 -6.000000 -1.052801E+00
34.000000 -8.000000 -1.388262E+01
34.000000 -10.000000 -3.085759E+01
34.000000 -12.000000 -4.103625E+01
34.000000 -14.000000 -3.876201E+01
34.000000 -16.000000 -2.952029E+01
34.000000 -18.000000 -2.457171E+01
34.000000 -20.000000 -2.920642E+01
34.000000 -22.000000 -3.758961E+01
34.000000 -24.000000 -4.456864E+01
34.000000 -26.000000 -5.217699E+01
34.000000 -28.000000 -6.653748E+01
34.000000 -30.000000 -6.899379E+01
34.000000 -32.000000 -5.461170E+01
34.000000 -34.000000 -3.671967E+01
34.000000 -36.000000 -3.494762E+01
34.000000 -38.000000 -4.491809E+01
34.000000 -40.000000 -5.976698E+01
36.000000 40.000000 -3.753638E+01
36.000000 38.000000 -5.298114E+01
36.000000 36.000000 -5.759220E+01
36.000000 34.000000 -5.137050E+01
36.000000 32.000000 -3.757125E+01
36.000000 30.000000 -3.082348E+01
36.000000 28.000000 -2.102587E+01
36.000000 26.000000 -1.152974E+01
36.000000 24.000000 -7.490239E-01
36.000000 22.000000 3.989925E+00
36.000000 20.000000 -2.956374E+00
36.000000 18.000000 -2.332244E+01
36.000000 16.000000 -3.797625E+01
36.000000 14.000000 -3.801417E+01
36.000000 12.000000 -3.398739E+01
36.000000 10.000000 -3.455369E+01
36.000000 8.000000 -3.315628E+01
36.000000 6.000000 -2.400768E+01
36.000000 4.000000 -7.780970E+00
36.000000 2.000000 3.220422E+00
36.000000 0.000000 6.509752E+00
36.000000 -2.000000 1.146733E+01
36.000000 -4.000000 1.992160E+01
36.000000 -6.000000 1.891333E+01
36.000000 -8.000000 6.028098E+00
36.000000 -10.000000 -8.092919E+00
36.000000 -12.000000 -1.564994E+01
36.000000 -14.000000 -1.201118E+01
36.000000 -16.000000 -5.765119E+00
36.000000 -18.000000 -7.205884E+00
36.000000 -20.000000 -1.659111E+01
36.000000 -22.000000 -2.741819E+01
36.000000 -24.000000 -3.749011E+01
36.000000 -26.000000 -4.854609E+01
36.000000 -28.000000 -6.341798E+01
36.000000 -30.000000 -6.637482E+01
36.000000 -32.000000 -5.003114E+01
36.000000 -34.000000 -2.883440E+01
36.000000 -36.000000 -2.650145E+01
36.000000 -38.000000 -3.997577E+01
36.000000 -40.000000 -5.812742E+01
38.000000 40.000000 -3.631546E+01
38.000000 38.000000 -5.038665E+01
38.000000 36.000000 -5.523704E+01
38.000000 34.000000 -5.308624E+01
38.000000 32.000000 -4.410361E+01
38.000000 30.000000 -4.128110E+01
38.000000 28.000000 -3.611025E+01
38.000000 26.000000 -2.977608E+01
38.000000 24.000000 -2.080515E+01
38.000000 22.000000 -1.325978E+01
38.000000 20.000000 -1.748371E+01
38.000000 18.000000 -3.428130E+01
38.000000 16.000000 -4.823180E+01
38.000000 14.000000 -5.146168E+01
38.000000 12.000000 -5.031067E+01
38.000000 10.000000 -5.258527E+01
38.000000 8.000000 -4.866458E+01
38.000000 6.000000 -3.566176E+01
38.000000 4.000000 -1.174396E+01
38.000000 2.000000 7.352510E+00
38.000000 0.000000 1.741345E+01
38.000000 -2.000000 2.465318E+01
38.000000 -4.000000 3.167877E+01
38.000000 -6.000000 2.721657E+01
38.000000 -8.000000 1.419960E+01
38.000000 -10.000000 3.360563E+00
38.000000 -12.000000 8.141400E-01
38.000000 -14.000000 9.435680E+00
38.000000 -16.000000 1.820753E+01
38.000000 -18.000000 1.574990E+01
38.000000 -20.000000 3.859655E+00
38.000000 -22.000000 -9.693757E+00
38.000000 -24.000000 -2.317094E+01
38.000000 -26.000000 -3.721234E+01
38.000000 -28.000000 -5.473241E+01
38.000000 -30.000000 -5.953108E+01
38.000000 -32.000000 -4.140390E+01
38.000000 -34.000000 -1.808898E+01
38.000000 -36.000000 -1.684027E+01
38.000000 -38.000000 -3.525587E+01
38.000000 -40.000000 -5.758635E+01
40.000000 40.000000 -3.664852E+01
40.000000 38.000000 -4.852246E+01
40.000000 36.000000 -5.217203E+01
40.000000 34.000000 -5.084044E+01
40.000000 32.000000 -4.373763E+01
40.000000 30.000000 -4.464105E+01
40.000000 28.000000 -4.567546E+01
40.000000 26.000000 -4.286303E+01
40.000000 24.000000 -3.337057E+01
40.000000 22.000000 -2.144025E+01
40.000000 20.000000 -2.127359E+01
40.000000 18.000000 -3.320137E+01
40.000000 16.000000 -4.707731E+01
40.000000 14.000000 -5.292287E+01
40.000000 12.000000 -5.370299E+01
40.000000 10.000000 -5.714129E+01
40.000000 8.000000 -5.319826E+01
40.000000 6.000000 -4.031161E+01
40.000000 4.000000 -1.374680E+01
40.000000 2.000000 8.615997E+00
40.000000 0.000000 1.925845E+01
40.000000 -2.000000 2.224261E+01
40.000000 -4.000000 2.476287E+01
40.000000 -6.000000 2.108217E+01
40.000000 -8.000000 1.098023E+01
40.000000 -10.000000 3.561889E+00
40.000000 -12.000000 7.585587E+00
40.000000 -14.000000 2.294289E+01
40.000000 -16.000000 3.692985E+01
40.000000 -18.000000 3.803748E+01
40.000000 -20.000000 2.693416E+01
40.000000 -22.000000 1.145806E+01
40.000000 -24.000000 -6.184211E+00
40.000000 -26.000000 -2.349035E+01
40.000000 -28.000000 -4.101090E+01
40.000000 -30.000000 -4.552353E+01
40.000000 -32.000000 -2.934567E+01
40.000000 -34.000000 -9.051397E+00
40.000000 -36.000000 -1.113771E+01
40.000000 -38.000000 -3.250996E+01
40.000000 -40.000000 -5.716801E+01
42.000000 40.000000 -3.833457E+01
42.000000 38.000000 -4.842880E+01
42.000000 36.000000 -5.019177E+01
42.000000 34.000000 -4.659880E+01
42.000000 32.000000 -3.919530E+01
42.000000 30.000000 -4.300530E+01
42.000000 28.000000 -4.897994E+01
42.000000 26.000000 -4.854910E+01
42.000000 24.000000 -3.689836E+01
42.000000 22.000000 -1.930604E+01
42.000000 20.000000 -1.398250E+01
42.000000 18.000000 -2.333573E+01
42.000000 16.000000 -3.704099E+01
42.000000 14.000000 -4.109249E+01
42.000000 12.000000 -3.933554E+01
42.000000 10.000000 -4.141374E+01
42.000000 8.000000 -3.863797E+01
42.000000 6.000000 -2.813617E+01
42.000000 4.000000 -7.542797E+00
42.000000 2.000000 4.862720E+00
42.000000 0.000000 6.091089E+00
42.000000 -2.000000 4.924019E+00
42.000000 -4.000000 6.522893E+00
42.000000 -6.000000 6.223033E+00
42.000000 -8.000000 3.834231E-01
42.000000 -10.000000 -4.186508E+00
42.000000 -12.000000 3.439700E+00
42.000000 -14.000000 2.297977E+01
42.000000 -16.000000 4.283496E+01
42.000000 -18.000000 5.042274E+01
42.000000 -20.000000 4.324339E+01
42.000000 -22.000000 2.725239E+01
42.000000 -24.000000 7.239694E+00
42.000000 -26.000000 -1.061260E+01
42.000000 -28.000000 -2.586302E+01
42.000000 -30.000000 -2.880974E+01
42.000000 -32.000000 -1.628831E+01
42.000000 -34.000000 -1.907636E+00
42.000000 -36.000000 -8.582732E+00
42.000000 -38.000000 -3.172930E+01
42.000000 -40.000000 -5.718494E+01
44.000000 40.000000 -4.100271E+01
44.000000 38.000000 -4.993229E+01
44.000000 36.000000 -5.047127E+01
44.000000 34.000000 -4.257823E+01
44.000000 32.000000 -3.284734E+01
44.000000 30.000000 -3.799115E+01
44.000000 28.000000 -4.639115E+01
44.000000 26.000000 -4.677314E+01
44.000000 24.000000 -3.320512E+01
44.000000 22.000000 -1.259222E+01
44.000000 20.000000 -4.468914E+00
44.000000 18.000000 -1.246265E+01
44.000000 16.000000 -2.276829E+01
44.000000 14.000000 -1.995285E+01
44.000000 12.000000 -1.004169E+01
44.000000 10.000000 -4.443496E+00
44.000000 8.000000 -1.395975E+00
44.000000 6.000000 4.017507E+00
44.000000 4.000000 9.704148E+00
44.000000 2.000000 4.196420E+00
44.000000 0.000000 -9.027305E+00
44.000000 -2.000000 -1.667873E+01
44.000000 -4.000000 -1.509128E+01
44.000000 -6.000000 -1.013166E+01
44.000000 -8.000000 -1.199573E+01
44.000000 -10.000000 -1.675482E+01
44.000000 -12.000000 -1.056904E+01
44.000000 -14.000000 7.354747E+00
44.000000 -16.000000 2.863884E+01
44.000000 -18.000000 4.068938E+01
44.000000 -20.000000 3.896534E+01
44.000000 -22.000000 2.658215E+01
44.000000 -24.000000 1.096620E+01
44.000000 -26.000000 -1.164573E+00
44.000000 -28.000000 -1.273048E+01
44.000000 -30.000000 -1.430614E+01
44.000000 -32.000000 -4.450691E+00
44.000000 -34.000000 4.878812E+00
44.000000 -36.000000 -5.907449E+00
44.000000 -38.000000 -3.182245E+01
44.000000 -40.000000 -5.789768E+01
46.000000 40.000000 -4.349800E+01
46.000000 38.000000 -5.257942E+01
46.000000 36.000000 -5.345317E+01
46.000000 34.000000 -3.942870E+01
46.000000 32.000000 -2.442426E+01
46.000000 30.000000 -3.018832E+01
46.000000 28.000000 -4.008395E+01
46.000000 26.000000 -4.008211E+01
46.000000 24.000000 -2.484468E+01
46.000000 22.000000 -4.977452E+00
46.000000 20.000000 2.929796E+00
46.000000 18.000000 -6.156974E+00
46.000000 16.000000 -1.373869E+01
46.000000 14.000000 -1.228231E+00
46.000000 12.000000 2.105747E+01
46.000000 10.000000 3.897239E+01
46.000000 8.000000 4.505282E+01
46.000000 6.000000 4.631398E+01
46.000000 4.000000 3.567041E+01
46.000000 2.000000 1.169128E+01
46.000000 0.000000 -1.604513E+01
46.000000 -2.000000 -3.136666E+01
46.000000 -4.000000 -2.922665E+01
46.000000 -6.000000 -2.079278E+01
46.000000 -8.000000 -2.100318E+01
46.000000 -10.000000 -2.790264E+01
46.000000 -12.000000 -2.847788E+01
46.000000 -14.000000 -2.022259E+01
46.000000 -16.000000 -5.499327E+00
46.000000 -18.000000 6.662291E+00
46.000000 -20.000000 1.073357E+01
46.000000 -22.000000 7.741409E+00
46.000000 -24.000000 4.045050E+00
46.000000 -26.000000 2.166659E+00
46.000000 -28.000000 -2.997185E+00
46.000000 -30.000000 -2.711928E+00
46.000000 -32.000000 4.236043E+00
46.000000 -34.000000 9.071816E+00
46.000000 -36.000000 -4.685596E+00
46.000000 -38.000000 -3.140774E+01
46.000000 -40.000000 -5.685304E+01
48.000000 40.000000 -4.582875E+01
48.000000 38.000000 -5.503036E+01
48.000000 36.000000 -5.506247E+01
48.000000 34.000000 -3.633966E+01
48.000000 32.000000 -1.673241E+01
48.000000 30.000000 -2.045865E+01
48.000000 28.000000 -2.914287E+01
48.000000 26.000000 -2.877585E+01
48.000000 24.000000 -1.392515E+01
48.000000 22.000000 1.833366E+00
48.000000 20.000000 6.102064E+00
48.000000 18.000000 -7.165566E+00
48.000000 16.000000 -1.497005E+01
48.000000 14.000000 3.466570E+00
48.000000 12.000000 3.559348E+01
48.000000 10.000000 6.414234E+01
48.000000 8.000000 7.598901E+01
48.000000 6.000000 7.944428E+01
48.000000 4.000000 6.066931E+01
48.000000 2.000000 2.181721E+01
48.000000 0.000000 -1.746084E+01
48.000000 -2.000000 -3.463800E+01
48.000000 -4.000000 -2.803497E+01
48.000000 -6.000000 -2.037804E+01
48.000000 -8.000000 -2.181071E+01
48.000000 -10.000000 -3.140627E+01
48.000000 -12.000000 -4.278135E+01
48.000000 -14.000000 -4.816643E+01
48.000000 -16.000000 -4.336327E+01
48.000000 -18.000000 -3.396161E+01
48.000000 -20.000000 -2.636950E+01
48.000000 -22.000000 -1.926964E+01
48.000000 -24.000000 -7.894652E+00
48.000000 -26.000000 2.415864E+00
48.000000 -28.000000 2.274689E+00
48.000000 -30.000000 3.422773E+00
48.000000 -32.000000 7.909822E+00
48.000000 -34.000000 9.259641E+00
48.000000 -36.000000 -5.482177E+00
48.000000 -38.000000 -3.059875E+01
48.000000 -40.000000 -5.420258E+01
50.000000 40.000000 -4.836704E+01
50.000000 38.000000 -5.700484E+01
50.000000 36.000000 -5.361661E+01
50.000000 34.000000 -3.296249E+01
50.000000 32.000000 -1.114488E+01
50.000000 30.000000 -9.050052E+00
50.000000 28.000000 -1.288022E+01
50.000000 26.000000 -1.304246E+01
50.000000 24.000000 -3.062963E+00
50.000000 22.000000 4.172811E+00
50.000000 20.000000 2.201099E-01
50.000000 18.000000 -1.635806E+01
50.000000 16.000000 -2.357606E+01
50.000000 14.000000 -7.124560E+00
50.000000 12.000000 2.466324E+01
50.000000 10.000000 5.666116E+01
50.000000 8.000000 7.517733E+01
50.000000 6.000000 8.413642E+01
50.000000 4.000000 6.956726E+01
50.000000 2.000000 3.170060E+01
50.000000 0.000000 -7.578321E+00
50.000000 -2.000000 -2.413381E+01
50.000000 -4.000000 -1.593952E+01
50.000000 -6.000000 -8.395475E+00
50.000000 -8.000000 -1.167965E+01
50.000000 -10.000000 -2.468699E+01
50.000000 -12.000000 -4.445818E+01
50.000000 -14.000000 -5.961947E+01
50.000000 -16.000000 -6.417815E+01
50.000000 -18.000000 -6.029973E+01
50.000000 -20.000000 -5.387211E+01
50.000000 -22.000000 -4.153602E+01
50.000000 -24.000000 -1.946267E+01
50.000000 -26.000000 -1.746831E-01
50.000000 -28.000000 1.509720E+00
50.000000 -30.000000 3.527478E+00
50.000000 -32.000000 7.788546E+00
50.000000 -34.000000 7.850575E+00
50.000000 -36.000000 -6.391272E+00
50.000000 -38.000000 -3.064397E+01
50.000000 -40.000000 -5.256105E+01
52.000000 40.000000 -4.912519E+01
52.000000 38.000000 -5.815734E+01
52.000000 36.000000 -5.225463E+01
52.000000 34.000000 -3.008934E+01
52.000000 32.000000 -6.910061E+00
52.000000 30.000000 -1.116357E+00
52.000000 28.000000 -4.155488E-01
52.000000 26.000000 -4.553270E-02
52.000000 24.000000 5.349664E+00
52.000000 22.000000 5.383496E+00
52.000000 20.000000 -5.120478E+00
52.000000 18.000000 -2.465532E+01
52.000000 16.000000 -3.288195E+01
52.000000 14.000000 -2.217131E+01
52.000000 12.000000 2.631738E+00
52.000000 10.000000 2.917933E+01
