-14.000000 -2.000000 2.515590E+01
-14.000000 -4.000000 4.919050E+01
-14.000000 -6.000000 7.009357E+01
-14.000000 -8.000000 6.673206E+01
-14.000000 -10.000000 4.598028E+01
-14.000000 -12.000000 1.415509E+01
-14.000000 -14.000000 -3.577461E+00
-14.000000 -16.000000 -1.003727E+01
-14.000000 -18.000000 -9.525150E+00
-14.000000 -20.000000 -5.738338E+00
-14.000000 -22.000000 -3.745439E+00
-14.000000 -24.000000 4.892228E+00
-14.000000 -26.000000 7.828285E+00
-14.000000 -28.000000 1.804175E-01
-14.000000 -30.000000 -1.654055E+01
-14.000000 -32.000000 -3.507860E+01
-14.000000 -34.000000 -4.453501E+01
-14.000000 -36.000000 -4.608063E+01
-14.000000 -38.000000 -4.050635E+01
-14.000000 -40.000000 -3.409612E+01
-12.000000 40.000000 -3.312914E+01
-12.000000 38.000000 -2.757868E+01
-12.000000 36.000000 -1.907596E+01
-12.000000 34.000000 -1.355507E+01
-12.000000 32.000000 -1.597928E+01
-12.000000 30.000000 -2.303410E+01
-12.000000 28.000000 -1.526622E+01
-12.000000 26.000000 2.367203E+00
-12.000000 24.000000 8.533665E+00
-12.000000 22.000000 -7.793041E+00
-12.000000 20.000000 -2.882380E+01
-12.000000 18.000000 -1.597292E+01
-12.000000 16.000000 5.413467E+01
-12.000000 14.000000 1.399943E+02
-12.000000 12.000000 1.927986E+02
-12.000000 10.000000 1.827555E+02
-12.000000 8.000000 1.185912E+02
-12.000000 6.000000 5.674572E+01
-12.000000 4.000000 1.984875E+01
-12.000000 2.000000 4.137520E+00
-12.000000 0.000000 -1.042523E+01
-12.000000 -2.000000 -4.867020E+00
-12.000000 -4.000000 2.280900E+01
-12.000000 -6.000000 5.044507E+01
-12.000000 -8.000000 5.552441E+01
-12.000000 -10.000000 4.297240E+01
-12.000000 -12.000000 1.640056E+01
-12.000000 -14.000000 -7.727108E-01
-12.000000 -16.000000 -9.106905E+00
-12.000000 -18.000000 -1.196013E+01
-12.000000 -20.000000 -1.214298E+01
-12.000000 -22.000000 -1.326623E+01
-12.000000 -24.000000 -5.080604E+00
-12.000000 -26.000000 5.317326E+00
-12.000000 -28.000000 6.666210E+00
-12.000000 -30.000000 -5.916158E+00
-12.000000 -32.000000 -2.628568E+01
-12.000000 -34.000000 -3.907871E+01
-12.000000 -36.000000 -4.389941E+01
-12.000000 -38.000000 -3.955126E+01
-12.000000 -40.000000 -3.313029E+01
-10.000000 40.000000 -4.274240E+01
-10.000000 38.000000 -2.641751E+01
-10.000000 36.000000 -8.416769E+00
-10.000000 34.000000 6.758642E+00
-10.000000 32.000000 1.061937E+01
-10.000000 30.000000 5.730350E+00
-10.000000 28.000000 1.281861E+01
-10.000000 26.000000 2.748758E+01
-10.000000 24.000000 3.319114E+01
-10.000000 22.000000 1.369587E+01
-10.000000 20.000000 -1.413277E+01
-10.000000 18.000000 -5.089043E+00
-10.000000 16.000000 6.351933E+01
-10.000000 14.000000 1.511594E+02
-10.000000 12.000000 2.153261E+02
-10.000000 10.000000 2.227180E+02
-10.000000 8.000000 1.623424E+02
-10.000000 6.000000 9.034027E+01
-10.000000 4.000000 3.071085E+01
-10.000000 2.000000 -3.729889E+00
-10.000000 0.000000 -2.935870E+01
-10.000000 -2.000000 -2.626105E+01
-10.000000 -4.000000 -1.786640E+00
-10.000000 -6.000000 2.247087E+01
-10.000000 -8.000000 2.913634E+01
-10.000000 -10.000000 2.098599E+01
-10.000000 -12.000000 2.696484E+00
-10.000000 -14.000000 -6.486771E+00
-10.000000 -16.000000 -8.927416E+00
-10.000000 -18.000000 -8.599693E+00
-10.000000 -20.000000 -8.685865E+00
-10.000000 -22.000000 -1.393622E+01
-10.000000 -24.000000 -8.547275E+00
-10.000000 -26.000000 4.847376E+00
-10.000000 -28.000000 9.087672E+00
-10.000000 -30.000000 -6.189029E-01
-10.000000 -32.000000 -1.825871E+01
-10.000000 -34.000000 -3.149227E+01
-10.000000 -36.000000 -3.817195E+01
-10.000000 -38.000000 -3.454889E+01
-10.000000 -40.000000 -2.871817E+01
-8.000000 40.000000 -4.690194E+01
-8.000000 38.000000 -2.490201E+01
-8.000000 36.000000 -2.842382E+00
-8.000000 34.000000 1.896789E+01
-8.000000 32.000000 3.077001E+01
-8.000000 30.000000 3.084086E+01
-8.000000 28.000000 3.586023E+01
-8.000000 26.000000 4.676153E+01
-8.000000 24.000000 5.222075E+01
-8.000000 22.000000 3.545297E+01
-8.000000 20.000000 8.567524E+00
-8.000000 18.000000 1.814759E+01
-8.000000 16.000000 7.901208E+01
-8.000000 14.000000 1.557202E+02
-8.000000 12.000000 2.121298E+02
-8.000000 10.000000 2.226374E+02
-8.000000 8.000000 1.726182E+02
-8.000000 6.000000 1.055025E+02
-8.000000 4.000000 4.261709E+01
-8.000000 2.000000 2.681831E+00
-8.000000 0.000000 -2.586566E+01
-8.000000 -2.000000 -2.679270E+01
-8.000000 -4.000000 -8.244522E+00
-8.000000 -6.000000 6.475956E+00
-8.000000 -8.000000 7.204037E+00
-8.000000 -10.000000 -3.333256E+00
-8.000000 -12.000000 -1.699510E+01
-8.000000 -14.000000 -2.084303E+01
-8.000000 -16.000000 -1.693149E+01
-8.000000 -18.000000 -8.819567E+00
-8.000000 -20.000000 -3.464968E+00
-8.000000 -22.000000 -8.717157E+00
-8.000000 -24.000000 -6.299833E+00
-8.000000 -26.000000 4.530339E+00
-8.000000 -28.000000 5.929549E+00
-8.000000 -30.000000 -2.003098E+00
-8.000000 -32.000000 -1.404877E+01
-8.000000 -34.000000 -2.477258E+01
-8.000000 -36.000000 -3.002033E+01
-8.000000 -38.000000 -2.615372E+01
-8.000000 -40.000000 -2.176181E+01
-6.000000 40.000000 -4.978134E+01
-6.000000 38.000000 -2.286795E+01
-6.000000 36.000000 4.371843E+00
-6.000000 34.000000 3.048776E+01
-6.000000 32.000000 4.488074E+01
-6.000000 30.000000 4.436713E+01
-6.000000 28.000000 4.222955E+01
-6.000000 26.000000 4.814301E+01
-6.000000 24.000000 5.720504E+01
-6.000000 22.000000 4.860335E+01
-6.000000 20.000000 2.808148E+01
-6.000000 18.000000 3.687171E+01
-6.000000 16.000000 8.648997E+01
-6.000000 14.000000 1.492585E+02
-6.000000 12.000000 1.934423E+02
-6.000000 10.000000 2.033158E+02
-6.000000 8.000000 1.704300E+02
-6.000000 6.000000 1.197266E+02
-6.000000 4.000000 6.927372E+01
-6.000000 2.000000 2.570388E+01
-6.000000 0.000000 -5.269928E+00
-6.000000 -2.000000 -1.030355E+01
-6.000000 -4.000000 2.829231E+00
-6.000000 -6.000000 7.239143E+00
-6.000000 -8.000000 -1.807949E+00
-6.000000 -10.000000 -1.832664E+01
-6.000000 -12.000000 -3.310931E+01
-6.000000 -14.000000 -3.965422E+01
-6.000000 -16.000000 -3.483574E+01
-6.000000 -18.000000 -2.201749E+01
-6.000000 -20.000000 -1.122542E+01
-6.000000 -22.000000 -1.166927E+01
-6.000000 -24.000000 -9.830091E+00
-6.000000 -26.000000 -3.782813E+00
-6.000000 -28.000000 -4.169952E+00
-6.000000 -30.000000 -9.385731E+00
-6.000000 -32.000000 -1.658207E+01
-6.000000 -34.000000 -2.003894E+01
-6.000000 -36.000000 -1.709153E+01
-6.000000 -38.000000 -1.233207E+01
-6.000000 -40.000000 -1.210476E+01
-4.000000 40.000000 -5.291169E+01
-4.000000 38.000000 -2.380966E+01
-4.000000 36.000000 6.753458E+00
-4.000000 34.000000 3.399631E+01
-4.000000 32.000000 4.754601E+01
-4.000000 30.000000 4.423699E+01
-4.000000 28.000000 3.603567E+01
-4.000000 26.000000 4.002053E+01
-4.000000 24.000000 5.490568E+01
-4.000000 22.000000 5.403663E+01
-4.000000 20.000000 3.841474E+01
-4.000000 18.000000 4.396747E+01
-4.000000 16.000000 8.476547E+01
-4.000000 14.000000 1.358440E+02
-4.000000 12.000000 1.770129E+02
-4.000000 10.000000 1.992734E+02
-4.000000 8.000000 1.858190E+02
-4.000000 6.000000 1.485187E+02
-4.000000 4.000000 1.136600E+02
-4.000000 2.000000 4.620940E+01
-4.000000 0.000000 -1.667374E+00
-4.000000 -2.000000 -5.790340E+00
-4.000000 -4.000000 1.189864E+01
-4.000000 -6.000000 1.675388E+01
-4.000000 -8.000000 2.941929E+00
-4.000000 -10.000000 -1.945951E+01
-4.000000 -12.000000 -4.134097E+01
-4.000000 -14.000000 -5.407748E+01
-4.000000 -16.000000 -5.455319E+01
-4.000000 -18.000000 -4.402699E+01
-4.000000 -20.000000 -3.131055E+01
-4.000000 -22.000000 -2.658915E+01
-4.000000 -24.000000 -1.986294E+01
-4.000000 -26.000000 -1.360748E+01
-4.000000 -28.000000 -1.520577E+01
-4.000000 -30.000000 -2.023358E+01
-4.000000 -32.000000 -2.315251E+01
-4.000000 -34.000000 -1.854458E+01
-4.000000 -36.000000 -8.093825E+00
-4.000000 -38.000000 -1.760721E+00
-4.000000 -40.000000 -9.843916E-01
-2.000000 40.000000 -5.475614E+01
-2.000000 38.000000 -2.654014E+01
-2.000000 36.000000 1.924210E+00
-2.000000 34.000000 2.530739E+01
-2.000000 32.000000 3.607391E+01
-2.000000 30.000000 3.120706E+01
-2.000000 28.000000 2.308628E+01
-2.000000 26.000000 2.977614E+01
-2.000000 24.000000 4.845946E+01
-2.000000 22.000000 5.153395E+01
-2.000000 20.000000 3.932742E+01
-2.000000 18.000000 4.155694E+01
-2.000000 16.000000 7.638475E+01
-2.000000 14.000000 1.250375E+02
-2.000000 12.000000 1.772348E+02
-2.000000 10.000000 2.204347E+02
-2.000000 8.000000 2.178781E+02
-2.000000 6.000000 1.784290E+02
-2.000000 4.000000 1.347278E+02
-2.000000 2.000000 4.366427E+01
-2.000000 0.000000 -1.813462E+01
-2.000000 -2.000000 -1.778708E+01
-2.000000 -4.000000 9.958084E+00
-2.000000 -6.000000 2.458880E+01
-2.000000 -8.000000 1.342664E+01
-2.000000 -10.000000 -1.139719E+01
-2.000000 -12.000000 -3.905579E+01
-2.000000 -14.000000 -5.533313E+01
-2.000000 -16.000000 -6.180238E+01
-2.000000 -18.000000 -5.686845E+01
-2.000000 -20.000000 -4.573907E+01
-2.000000 -22.000000 -3.795325E+01
-2.000000 -24.000000 -2.568025E+01
-2.000000 -26.000000 -1.701043E+01
-2.000000 -28.000000 -2.276820E+01
-2.000000 -30.000000 -3.157353E+01
-2.000000 -32.000000 -3.204571E+01
-2.000000 -34.000000 -2.252378E+01
-2.000000 -36.000000 -1.056143E+01
-2.000000 -38.000000 -1.055030E+00
-2.000000 -40.000000 9.775170E+00
0.000000 40.000000 -5.572949E+01
0.000000 38.000000 -2.911115E+01
0.000000 36.000000 -4.398640E+00
0.000000 34.000000 1.429630E+01
0.000000 32.000000 2.193558E+01
0.000000 30.000000 1.671844E+01
0.000000 28.000000 9.690811E+00
0.000000 26.000000 1.701400E+01
0.000000 24.000000 3.400103E+01
0.000000 22.000000 3.575540E+01
0.000000 20.000000 2.035759E+01
0.000000 18.000000 1.863292E+01
0.000000 16.000000 4.929656E+01
0.000000 14.000000 1.031590E+02
0.000000 12.000000 1.760981E+02
0.000000 10.000000 2.445531E+02
0.000000 8.000000 2.512830E+02
0.000000 6.000000 2.035272E+02
0.000000 4.000000 1.230908E+02
0.000000 2.000000 3.243949E+01
0.000000 0.000000 -2.570649E+01
0.000000 -2.000000 -2.454571E+01
0.000000 -4.000000 5.394333E+00
0.000000 -6.000000 2.592091E+01
0.000000 -8.000000 1.910232E+01
0.000000 -10.000000 -3.068699E+00
0.000000 -12.000000 -2.806234E+01
0.000000 -14.000000 -4.184965E+01
0.000000 -16.000000 -4.958503E+01
0.000000 -18.000000 -4.960868E+01
0.000000 -20.000000 -4.134267E+01
0.000000 -22.000000 -3.279247E+01
0.000000 -24.000000 -2.096731E+01
0.000000 -26.000000 -1.532279E+01
0.000000 -28.000000 -2.664421E+01
0.000000 -30.000000 -4.091282E+01
0.000000 -32.000000 -4.266186E+01
0.000000 -34.000000 -3.068901E+01
0.000000 -36.000000 -1.696511E+01
0.000000 -38.000000 -3.547861E+00
0.000000 -40.000000 1.592453E+01
2.000000 40.000000 -5.621348E+01
2.000000 38.000000 -3.112410E+01
2.000000 36.000000 -9.765123E+00
2.000000 34.000000 7.048350E+00
2.000000 32.000000 1.405846E+01
2.000000 30.000000 8.382563E+00
2.000000 28.000000 -1.498966E+00
2.000000 26.000000 3.549309E-01
2.000000 24.000000 9.330925E+00
2.000000 22.000000 6.690910E+00
2.000000 20.000000 -1.333882E+01
2.000000 18.000000 -2.043526E+01
2.000000 16.000000 6.122402E+00
2.000000 14.000000 6.640218E+01
2.000000 12.000000 1.590144E+02
2.000000 10.000000 2.470088E+02
2.000000 8.000000 2.616174E+02
2.000000 6.000000 2.104515E+02
2.000000 4.000000 1.164456E+02
2.000000 2.000000 3.560870E+01
2.000000 0.000000 -1.455815E+01
2.000000 -2.000000 -1.561367E+01
2.000000 -4.000000 1.251910E+01
2.000000 -6.000000 2.967738E+01
2.000000 -8.000000 2.292912E+01
2.000000 -10.000000 5.830910E+00
2.000000 -12.000000 -1.179518E+01
2.000000 -14.000000 -2.014307E+01
2.000000 -16.000000 -2.591454E+01
2.000000 -18.000000 -3.010920E+01
2.000000 -20.000000 -2.610857E+01
2.000000 -22.000000 -1.787774E+01
2.000000 -24.000000 -8.190331E+00
2.000000 -26.000000 -8.324736E+00
2.000000 -28.000000 -2.455092E+01
2.000000 -30.000000 -4.477051E+01
2.000000 -32.000000 -5.152536E+01
2.000000 -34.000000 -3.983505E+01
2.000000 -36.000000 -2.162528E+01
2.000000 -38.000000 -4.887158E+00
2.000000 -40.000000 1.598592E+01
4.000000 40.000000 -5.567554E+01
4.000000 38.000000 -2.978384E+01
4.000000 36.000000 -1.200422E+01
4.000000 34.000000 2.748863E+00
4.000000 32.000000 1.153168E+01
4.000000 30.000000 3.792185E+00
4.000000 28.000000 -1.347906E+01
4.000000 26.000000 -2.001007E+01
4.000000 24.000000 -2.107920E+01
4.000000 22.000000 -2.727598E+01
4.000000 20.000000 -4.645215E+01
4.000000 18.000000 -5.423618E+01
4.000000 16.000000 -2.650924E+01
4.000000 14.000000 3.813453E+01
4.000000 12.000000 1.379112E+02
4.000000 10.000000 2.312734E+02
4.000000 8.000000 2.505169E+02
4.000000 6.000000 2.019453E+02
4.000000 4.000000 1.155417E+02
4.000000 2.000000 4.622867E+01
4.000000 0.000000 1.106037E+00
4.000000 -2.000000 -4.016018E+00
4.000000 -4.000000 2.510196E+01
4.000000 -6.000000 4.243359E+01
4.000000 -8.000000 3.548985E+01
4.000000 -10.000000 2.225299E+01
4.000000 -12.000000 8.478123E+00
4.000000 -14.000000 1.096611E-01
4.000000 -16.000000 -4.992073E+00
4.000000 -18.000000 -9.090588E+00
4.000000 -20.000000 -8.364082E+00
4.000000 -22.000000 -2.195824E+00
4.000000 -24.000000 5.869442E+00
4.000000 -26.000000 2.526835E+00
4.000000 -28.000000 -1.750715E+01
4.000000 -30.000000 -4.214530E+01
4.000000 -32.000000 -5.749964E+01
4.000000 -34.000000 -4.946870E+01
4.000000 -36.000000 -2.637976E+01
4.000000 -38.000000 -5.239931E+00
4.000000 -40.000000 1.492651E+01
6.000000 40.000000 -5.597458E+01
6.000000 38.000000 -2.645344E+01
6.000000 36.000000 -1.156422E+01
6.000000 34.000000 -2.463346E+00
6.000000 32.000000 7.145607E+00
6.000000 30.000000 -1.401434E+00
6.000000 28.000000 -2.332366E+01
6.000000 26.000000 -3.485933E+01
6.000000 24.000000 -4.125659E+01
6.000000 22.000000 -4.385180E+01
6.000000 20.000000 -5.749149E+01
6.000000 18.000000 -5.790792E+01
6.000000 16.000000 -2.785993E+01
6.000000 14.000000 3.105103E+01
6.000000 12.000000 1.203905E+02
6.000000 10.000000 2.065684E+02
6.000000 8.000000 2.289613E+02
6.000000 6.000000 1.900753E+02
6.000000 4.000000 1.183087E+02
6.000000 2.000000 5.066751E+01
6.000000 0.000000 -2.046986E+00
6.000000 -2.000000 -9.094830E+00
6.000000 -4.000000 2.382425E+01
6.000000 -6.000000 5.505430E+01
6.000000 -8.000000 5.771716E+01
6.000000 -10.000000 4.928573E+01
6.000000 -12.000000 3.026199E+01
6.000000 -14.000000 1.624340E+01
6.000000 -16.000000 8.447552E+00
6.000000 -18.000000 6.745605E+00
6.000000 -20.000000 5.560877E+00
6.000000 -22.000000 9.405645E+00
6.000000 -24.000000 1.580688E+01
6.000000 -26.000000 1.291487E+01
6.000000 -28.000000 -8.136223E+00
6.000000 -30.000000 -3.549039E+01
6.000000 -32.000000 -5.969953E+01
6.000000 -34.000000 -5.664443E+01
6.000000 -36.000000 -3.201285E+01
6.000000 -38.000000 -6.760684E+00
6.000000 -40.000000 1.459527E+01
8.000000 40.000000 -5.882518E+01
8.000000 38.000000 -2.535208E+01
8.000000 36.000000 -1.085712E+01
8.000000 34.000000 -9.921046E+00
8.000000 32.000000 -3.267710E+00
8.000000 30.000000 -1.099269E+01
8.000000 28.000000 -2.914004E+01
8.000000 26.000000 -3.455567E+01
8.000000 24.000000 -3.365501E+01
8.000000 22.000000 -2.913766E+01
8.000000 20.000000 -3.838669E+01
8.000000 18.000000 -3.367179E+01
8.000000 16.000000 -8.777172E+00
8.000000 14.000000 3.628585E+01
8.000000 12.000000 1.091757E+02
8.000000 10.000000 1.838926E+02
8.000000 8.000000 2.109297E+02
8.000000 6.000000 1.865425E+02
8.000000 4.000000 1.260953E+02
8.000000 2.000000 5.312792E+01
8.000000 0.000000 -1.350040E+01
8.000000 -2.000000 -2.616980E+01
8.000000 -4.000000 7.765411E+00
8.000000 -6.000000 5.313627E+01
8.000000 -8.000000 6.857594E+01
8.000000 -10.000000 6.492032E+01
8.000000 -12.000000 3.922258E+01
8.000000 -14.000000 2.255455E+01
8.000000 -16.000000 1.497066E+01
8.000000 -18.000000 1.397039E+01
8.000000 -20.000000 1.195762E+01
8.000000 -22.000000 1.398758E+01
8.000000 -24.000000 1.757787E+01
8.000000 -26.000000 1.809331E+01
8.000000 -28.000000 8.805952E-01
8.000000 -30.000000 -2.768194E+01
8.000000 -32.000000 -5.593887E+01
8.000000 -34.000000 -5.623476E+01
8.000000 -36.000000 -3.457104E+01
8.000000 -38.000000 -1.015357E+01
8.000000 -40.000000 1.287565E+01
10.000000 40.000000 -6.385047E+01
10.000000 38.000000 -2.889698E+01
10.000000 36.000000 -1.248300E+01
10.000000 34.000000 -1.413219E+01
10.000000 32.000000 -1.065185E+01
10.000000 30.000000 -1.755357E+01
10.000000 28.000000 -3.033936E+01
10.000000 26.000000 -2.241208E+01
10.000000 24.000000 -6.175314E+00
10.000000 22.000000 1.892326E+00
10.000000 20.000000 -5.417889E+00
10.000000 18.000000 -4.260059E+00
10.000000 16.000000 1.075997E+01
10.000000 14.000000 4.155614E+01
10.000000 12.000000 1.009130E+02
10.000000 10.000000 1.658834E+02
10.000000 8.000000 2.014844E+02
10.000000 6.000000 1.961563E+02
10.000000 4.000000 1.454408E+02
10.000000 2.000000 6.754685E+01
10.000000 0.000000 -9.020309E+00
10.000000 -2.000000 -3.387619E+01
10.000000 -4.000000 -7.024170E+00
10.000000 -6.000000 3.855592E+01
10.000000 -8.000000 5.542111E+01
10.000000 -10.000000 4.509612E+01
10.000000 -12.000000 1.515212E+01
10.000000 -14.000000 5.159998E+00
10.000000 -16.000000 9.151188E+00
10.000000 -18.000000 1.327674E+01
10.000000 -20.000000 1.155243E+01
10.000000 -22.000000 9.563671E+00
10.000000 -24.000000 1.214062E+01
10.000000 -26.000000 1.589968E+01
10.000000 -28.000000 3.136483E+00
10.000000 -30.000000 -2.260924E+01
10.000000 -32.000000 -4.787198E+01
10.000000 -34.000000 -4.756426E+01
10.000000 -36.000000 -2.903830E+01
10.000000 -38.000000 -9.853818E+00
10.000000 -40.000000 1.161109E+01
12.000000 40.000000 -7.043797E+01
12.000000 38.000000 -3.630933E+01
12.000000 36.000000 -1.604185E+01
12.000000 34.000000 -1.206775E+01
12.000000 32.000000 -9.729331E+00
12.000000 30.000000 -1.552925E+01
12.000000 28.000000 -2.453197E+01
12.000000 26.000000 -6.845316E+00
12.000000 24.000000 2.035550E+01
12.000000 22.000000 2.654593E+01
12.000000 20.000000 1.603261E+01
12.000000 18.000000 8.716566E+00
12.000000 16.000000 1.653868E+01
12.000000 14.000000 4.307152E+01
12.000000 12.000000 9.849839E+01
12.000000 10.000000 1.622937E+02
12.000000 8.000000 2.051349E+02
12.000000 6.000000 2.124065E+02
12.000000 4.000000 1.688164E+02
12.000000 2.000000 8.812675E+01
12.000000 0.000000 7.495708E+00
12.000000 -2.000000 -2.665175E+01
12.000000 -4.000000 -1.184357E+01
12.000000 -6.000000 1.601742E+01
12.000000 -8.000000 1.477498E+01
12.000000 -10.000000 -1.477737E+01
12.000000 -12.000000 -4.700336E+01
12.000000 -14.000000 -4.132273E+01
12.000000 -16.000000 -1.141001E+01
12.000000 -18.000000 1.079082E+01
12.000000 -20.000000 1.346498E+01
12.000000 -22.000000 7.084540E+00
12.000000 -24.000000 1.010979E+01
12.000000 -26.000000 1.421789E+01
12.000000 -28.000000 2.278965E+00
12.000000 -30.000000 -1.910319E+01
12.000000 -32.000000 -3.740800E+01
12.000000 -34.000000 -3.396748E+01
12.000000 -36.000000 -1.860251E+01
12.000000 -38.000000 -6.070085E+00
12.000000 -40.000000 1.116366E+01
14.000000 40.000000 -7.754238E+01
14.000000 38.000000 -4.372488E+01
14.000000 36.000000 -1.756551E+01
14.000000 34.000000 -5.704277E+00
14.000000 32.000000 -5.432010E+00
14.000000 30.000000 -1.206715E+01
14.000000 28.000000 -1.709266E+01
14.000000 26.000000 2.691578E+00
14.000000 24.000000 3.047532E+01
14.000000 22.000000 3.392310E+01
14.000000 20.000000 1.928206E+01
14.000000 18.000000 9.801550E+00
14.000000 16.000000 1.791885E+01
14.000000 14.000000 4.421728E+01
14.000000 12.000000 9.849773E+01
14.000000 10.000000 1.634427E+02
14.000000 8.000000 2.096605E+02
14.000000 6.000000 2.196152E+02
14.000000 4.000000 1.784643E+02
14.000000 2.000000 9.764247E+01
14.000000 0.000000 1.814224E+01
14.000000 -2.000000 -1.764871E+01
14.000000 -4.000000 -1.347069E+01
14.000000 -6.000000 -9.726311E+00
14.000000 -8.000000 -3.647627E+01
14.000000 -10.000000 -8.841629E+01
14.000000 -12.000000 -1.207101E+02
14.000000 -14.000000 -9.430241E+01
14.000000 -16.000000 -3.427986E+01
14.000000 -18.000000 7.790026E+00
14.000000 -20.000000 1.598028E+01
14.000000 -22.000000 1.039148E+01
14.000000 -24.000000 1.851798E+01
14.000000 -26.000000 2.462424E+01
14.000000 -28.000000 1.002860E+01
14.000000 -30.000000 -9.834414E+00
14.000000 -32.000000 -2.187074E+01
14.000000 -34.000000 -1.773241E+01
14.000000 -36.000000 -9.187977E+00
14.000000 -38.000000 -4.189977E+00
14.000000 -40.000000 7.001079E+00
16.000000 40.000000 -8.339987E+01
16.000000 38.000000 -4.987892E+01
16.000000 36.000000 -1.767754E+01
16.000000 34.000000 1.109829E+00
16.000000 32.000000 -4.541619E-01
16.000000 30.000000 -1.017233E+01
16.000000 28.000000 -1.462506E+01
16.000000 26.000000 2.895305E+00
16.000000 24.000000 2.440682E+01
16.000000 22.000000 2.095962E+01
16.000000 20.000000 2.116314E+00
16.000000 18.000000 1.035603E+00
16.000000 16.000000 2.024581E+01
16.000000 14.000000 4.803886E+01
16.000000 12.000000 9.689697E+01
16.000000 10.000000 1.585276E+02
16.000000 8.000000 2.047369E+02
16.000000 6.000000 2.107649E+02
16.000000 4.000000 1.665103E+02
16.000000 2.000000 8.774803E+01
16.000000 0.000000 1.294757E+01
16.000000 -2.000000 -2.179572E+01
16.000000 -4.000000 -2.551562E+01
16.000000 -6.000000 -3.510195E+01
16.000000 -8.000000 -7.526612E+01
16.000000 -10.000000 -1.367874E+02
16.000000 -12.000000 -1.616101E+02
16.000000 -14.000000 -1.195219E+02
16.000000 -16.000000 -4.214272E+01
16.000000 -18.000000 9.972982E+00
16.000000 -20.000000 1.936664E+01
16.000000 -22.000000 1.620391E+01
16.000000 -24.000000 2.989340E+01
16.000000 -26.000000 4.021990E+01
16.000000 -28.000000 2.469868E+01
16.000000 -30.000000 5.084864E+00
16.000000 -32.000000 -5.009159E+00
16.000000 -34.000000 -3.781711E+00
16.000000 -36.000000 -3.864588E+00
16.000000 -38.000000 -6.054200E+00
16.000000 -40.000000 -2.101665E+00
18.000000 40.000000 -8.752441E+01
18.000000 38.000000 -5.633276E+01
18.000000 36.000000 -2.062438E+01
18.000000 34.000000 4.064628E+00
18.000000 32.000000 3.945268E+00
18.000000 30.000000 -8.296402E+00
18.000000 28.000000 -1.575534E+01
18.000000 26.000000 -3.404509E+00
18.000000 24.000000 8.715125E+00
18.000000 22.000000 -9.868488E+00
18.000000 20.000000 -3.993493E+01
18.000000 18.000000 -2.535964E+01
18.000000 16.000000 1.683774E+01
18.000000 14.000000 5.294205E+01
18.000000 12.000000 9.992925E+01
18.000000 10.000000 1.585822E+02
18.000000 8.000000 2.022030E+02
18.000000 6.000000 2.048397E+02
18.000000 4.000000 1.571524E+02
18.000000 2.000000 8.071411E+01
18.000000 0.000000 6.768015E+00
18.000000 -2.000000 -3.183634E+01
18.000000 -4.000000 -4.293426E+01
18.000000 -6.000000 -5.800505E+01
18.000000 -8.000000 -9.952092E+01
18.000000 -10.000000 -1.569653E+02
18.000000 -12.000000 -1.681915E+02
18.000000 -14.000000 -1.132374E+02
18.000000 -16.000000 -3.018568E+01
18.000000 -18.000000 1.989342E+01
18.000000 -20.000000 2.449458E+01
18.000000 -22.000000 1.863981E+01
18.000000 -24.000000 3.074634E+01
18.000000 -26.000000 4.417694E+01
18.000000 -28.000000 3.446702E+01
18.000000 -30.000000 1.768061E+01
18.000000 -32.000000 6.370109E+00
18.000000 -34.000000 4.188223E+00
18.000000 -36.000000 -2.964156E+00
18.000000 -38.000000 -1.086993E+01
18.000000 -40.000000 -1.289043E+01
20.000000 40.000000 -9.394473E+01
20.000000 38.000000 -6.506782E+01
20.000000 36.000000 -2.685873E+01
20.000000 34.000000 2.130866E+00
20.000000 32.000000 5.670030E+00
20.000000 30.000000 -5.614868E+00
20.000000 28.000000 -1.432743E+01
20.000000 26.000000 -7.303415E+00
20.000000 24.000000 -5.274830E+00
20.000000 22.000000 -3.861812E+01
20.000000 20.000000 -8.320314E+01
20.000000 18.000000 -5.605624E+01
20.000000 16.000000 6.849097E+00
20.000000 14.000000 5.134171E+01
20.000000 12.000000 1.012189E+02
20.000000 10.000000 1.612774E+02
20.000000 8.000000 2.047912E+02
20.000000 6.000000 2.113709E+02
20.000000 4.000000 1.684447E+02
20.000000 2.000000 9.737304E+01
20.000000 0.000000 1.875984E+01
20.000000 -2.000000 -3.297751E+01
20.000000 -4.000000 -5.047935E+01
20.000000 -6.000000 -6.794991E+01
20.000000 -8.000000 -1.108324E+02
20.000000 -10.000000 -1.639505E+02
20.000000 -12.000000 -1.629717E+02
20.000000 -14.000000 -9.501243E+01
20.000000 -16.000000 -1.093687E+01
20.000000 -18.000000 2.978800E+01
20.000000 -20.000000 2.382390E+01
20.000000 -22.000000 1.004551E+01
20.000000 -24.000000 1.765931E+01
20.000000 -26.000000 3.117165E+01
20.000000 -28.000000 2.450088E+01
20.000000 -30.000000 1.276587E+01
20.000000 -32.000000 5.849946E+00
20.000000 -34.000000 5.269309E+00
20.000000 -36.000000 -4.469899E+00
20.000000 -38.000000 -1.532526E+01
20.000000 -40.000000 -1.969826E+01
22.000000 40.000000 -1.045987E+02
22.000000 38.000000 -7.702547E+01
22.000000 36.000000 -3.441496E+01
22.000000 34.000000 -1.223564E+00
22.000000 32.000000 4.763208E+00
22.000000 30.000000 -6.041225E+00
22.000000 28.000000 -1.532604E+01
22.000000 26.000000 -1.068595E+01
22.000000 24.000000 -8.436263E+00
22.000000 22.000000 -3.650522E+01
22.000000 20.000000 -7.776183E+01
22.000000 18.000000 -5.864957E+01
22.000000 16.000000 -4.097237E+00
22.000000 14.000000 3.619458E+01
22.000000 12.000000 8.261812E+01
22.000000 10.000000 1.427065E+02
22.000000 8.000000 1.959726E+02
22.000000 6.000000 2.214472E+02
22.000000 4.000000 1.968369E+02
22.000000 2.000000 1.299862E+02
22.000000 0.000000 4.609402E+01
22.000000 -2.000000 -1.765120E+01
22.000000 -4.000000 -4.470587E+01
22.000000 -6.000000 -6.748156E+01
22.000000 -8.000000 -1.153493E+02
22.000000 -10.000000 -1.685244E+02
22.000000 -12.000000 -1.596116E+02
22.000000 -14.000000 -8.408274E+01
22.000000 -16.000000 -8.940907E-01
22.000000 -18.000000 3.241924E+01
22.000000 -20.000000 1.553202E+01
22.000000 -22.000000 -8.233873E+00
22.000000 -24.000000 -4.579911E+00
22.000000 -26.000000 6.648857E+00
22.000000 -28.000000 -3.646966E+00
22.000000 -30.000000 -1.042387E+01
22.000000 -32.000000 -7.929407E+00
22.000000 -34.000000 -6.345324E-01
22.000000 -36.000000 -5.659420E+00
22.000000 -38.000000 -1.559839E+01
22.000000 -40.000000 -1.988622E+01
24.000000 40.000000 -1.156147E+02
24.000000 38.000000 -9.162523E+01
24.000000 36.000000 -4.482184E+01
24.000000 34.000000 -2.253754E+00
24.000000 32.000000 7.668953E+00
24.000000 30.000000 -7.287004E+00
24.000000 28.000000 -2.275289E+01
24.000000 26.000000 -1.753558E+01
24.000000 24.000000 -1.429047E+00
24.000000 22.000000 -1.070630E+01
24.000000 20.000000 -4.071426E+01
24.000000 18.000000 -3.883983E+01
24.000000 16.000000 -8.040588E+00
24.000000 14.000000 1.571527E+01
24.000000 12.000000 4.997566E+01
24.000000 10.000000 1.068752E+02
24.000000 8.000000 1.751833E+02
24.000000 6.000000 2.259846E+02
24.000000 4.000000 2.244082E+02
24.000000 2.000000 1.586954E+02
24.000000 0.000000 6.988875E+01
24.000000 -2.000000 -5.054855E-01
24.000000 -4.000000 -3.549373E+01
24.000000 -6.000000 -6.269312E+01
24.000000 -8.000000 -1.151602E+02
24.000000 -10.000000 -1.697805E+02
24.000000 -12.000000 -1.577744E+02
24.000000 -14.000000 -8.459029E+01
24.000000 -16.000000 -7.478048E+00
24.000000 -18.000000 1.887871E+01
24.000000 -20.000000 -4.440639E+00
24.000000 -22.000000 -3.348879E+01
24.000000 -24.000000 -3.057555E+01
24.000000 -26.000000 -1.879607E+01
24.000000 -28.000000 -2.816078E+01
24.000000 -30.000000 -3.241838E+01
24.000000 -32.000000 -2.429602E+01
24.000000 -34.000000 -6.940736E+00
24.000000 -36.000000 -2.816802E+00
24.000000 -38.000000 -1.132073E+01
24.000000 -40.000000 -1.902635E+01
26.000000 40.000000 -1.267799E+02
26.000000 38.000000 -1.075004E+02
26.000000 36.000000 -5.815710E+01
26.000000 34.000000 -3.796082E+00
26.000000 32.000000 1.402930E+01
26.000000 30.000000 -4.971553E+00
26.000000 28.000000 -2.848370E+01
26.000000 26.000000 -2.246336E+01
26.000000 24.000000 9.376786E+00
26.000000 22.000000 1.638804E+01
26.000000 20.000000 -9.752124E+00
26.000000 18.000000 -2.254324E+01
26.000000 16.000000 -9.574844E+00
26.000000 14.000000 1.582983E+00
26.000000 12.000000 2.696004E+01
26.000000 10.000000 8.229236E+01
26.000000 8.000000 1.591429E+02
26.000000 6.000000 2.211517E+02
26.000000 4.000000 2.267403E+02
26.000000 2.000000 1.550236E+02
26.000000 0.000000 5.785092E+01
26.000000 -2.000000 -1.170551E+01
26.000000 -4.000000 -3.676839E+01
26.000000 -6.000000 -5.594818E+01
26.000000 -8.000000 -1.061620E+02
26.000000 -10.000000 -1.589126E+02
26.000000 -12.000000 -1.493916E+02
26.000000 -14.000000 -8.360393E+01
26.000000 -16.000000 -2.028325E+01
26.000000 -18.000000 -7.862862E+00
26.000000 -20.000000 -3.568457E+01
26.000000 -22.000000 -6.130864E+01
26.000000 -24.000000 -4.989424E+01
26.000000 -26.000000 -3.060436E+01
26.000000 -28.000000 -3.540655E+01
26.000000 -30.000000 -4.111971E+01
26.000000 -32.000000 -3.241952E+01
26.000000 -34.000000 -8.725649E+00
26.000000 -36.000000 1.994170E+00
26.000000 -38.000000 -7.353412E+00
26.000000 -40.000000 -2.249572E+01
28.000000 40.000000 -1.408644E+02
28.000000 38.000000 -1.236680E+02
28.000000 36.000000 -7.159654E+01
28.000000 34.000000 -9.014639E+00
28.000000 32.000000 1.777617E+01
28.000000 30.000000 -6.054420E-01
28.000000 28.000000 -2.842970E+01
28.000000 26.000000 -2.547972E+01
28.000000 24.000000 1.092668E+01
28.000000 22.000000 2.711762E+01
28.000000 20.000000 5.585943E+00
28.000000 18.000000 -1.409827E+01
28.000000 16.000000 -8.002801E+00
28.000000 14.000000 5.562704E+00
28.000000 12.000000 3.346007E+01
28.000000 10.000000 8.763496E+01
28.000000 8.000000 1.554295E+02
28.000000 6.000000 2.040389E+02
28.000000 4.000000 1.930684E+02
28.000000 2.000000 1.093456E+02
28.000000 0.000000 5.764269E+00
28.000000 -2.000000 -5.300374E+01
28.000000 -4.000000 -5.312612E+01
28.000000 -6.000000 -5.199785E+01
28.000000 -8.000000 -9.470306E+01
28.000000 -10.000000 -1.459373E+02
28.000000 -12.000000 -1.430481E+02
28.000000 -14.000000 -8.664387E+01
28.000000 -16.000000 -3.721203E+01
28.000000 -18.000000 -3.490114E+01
28.000000 -20.000000 -6.284103E+01
28.000000 -22.000000 -7.938457E+01
28.000000 -24.000000 -5.269038E+01
28.000000 -26.000000 -2.180918E+01
28.000000 -28.000000 -2.368699E+01
28.000000 -30.000000 -3.259053E+01
28.000000 -32.000000 -2.761399E+01
28.000000 -34.000000 -6.293314E+00
28.000000 -36.000000 3.445219E+00
28.000000 -38.000000 -8.395407E+00
28.000000 -40.000000 -3.083730E+01
30.000000 40.000000 -1.558726E+02
30.000000 38.000000 -1.418901E+02
30.000000 36.000000 -8.629923E+01
30.000000 34.000000 -1.702133E+01
30.000000 32.000000 1.841567E+01
30.000000 30.000000 4.319376E+00
30.000000 28.000000 -2.785252E+01
30.000000 26.000000 -3.666752E+01
30.000000 24.000000 -5.025748E+00
30.000000 22.000000 1.702500E+01
30.000000 20.000000 -1.695595E+00
30.000000 18.000000 -1.846271E+01
30.000000 16.000000 -4.886617E+00
30.000000 14.000000 2.347858E+01
30.000000 12.000000 6.293576E+01
30.000000 10.000000 1.145533E+02
30.000000 8.000000 1.581697E+02
30.000000 6.000000 1.771014E+02
30.000000 4.000000 1.409255E+02
30.000000 2.000000 5.008313E+01
30.000000 0.000000 -4.928185E+01
30.000000 -2.000000 -9.124660E+01
30.000000 -4.000000 -6.752516E+01
30.000000 -6.000000 -4.929092E+01
30.000000 -8.000000 -8.811139E+01
30.000000 -10.000000 -1.429993E+02
30.000000 -12.000000 -1.492515E+02
30.000000 -14.000000 -1.036277E+02
30.000000 -16.000000 -6.181147E+01
30.000000 -18.000000 -5.765734E+01
30.000000 -20.000000 -7.663211E+01
30.000000 -22.000000 -8.225511E+01
30.000000 -24.000000 -4.495056E+01
30.000000 -26.000000 -4.633632E+00
30.000000 -28.000000 -6.578310E-01
30.000000 -30.000000 -8.584702E+00
30.000000 -32.000000 -9.552505E+00
30.000000 -34.000000 2.471974E+00
30.000000 -36.000000 2.478210E+00
30.000000 -38.000000 -1.489793E+01
30.000000 -40.000000 -4.386815E+01
32.000000 40.000000 -1.679514E+02
32.000000 38.000000 -1.624138E+02
32.000000 36.000000 -1.070576E+02
32.000000 34.000000 -3.457700E+01
32.000000 32.000000 9.577385E+00
32.000000 30.000000 5.305124E+00
32.000000 28.000000 -2.755517E+01
32.000000 26.000000 -5.117082E+01
32.000000 24.000000 -2.889291E+01
32.000000 22.000000 -2.752625E+00
32.000000 20.000000 -1.860817E+01
32.000000 18.000000 -2.985897E+01
32.000000 16.000000 -7.938023E+00
32.000000 14.000000 3.011720E+01
32.000000 12.000000 7.717626E+01
32.000000 10.000000 1.233656E+02
32.000000 8.000000 1.443512E+02
32.000000 6.000000 1.392737E+02
32.000000 4.000000 9.649798E+01
32.000000 2.000000 1.932441E+01
32.000000 0.000000 -6.244498E+01
32.000000 -2.000000 -8.918235E+01
32.000000 -4.000000 -6.048224E+01
32.000000 -6.000000 -4.252315E+01
32.000000 -8.000000 -8.086375E+01
32.000000 -10.000000 -1.403867E+02
32.000000 -12.000000 -1.566865E+02
32.000000 -14.000000 -1.225556E+02
32.000000 -16.000000 -8.561795E+01
32.000000 -18.000000 -7.379967E+01
32.000000 -20.000000 -8.057926E+01
32.000000 -22.000000 -7.823374E+01
32.000000 -24.000000 -4.114109E+01
32.000000 -26.000000 1.363586E+00
32.000000 -28.000000 1.503019E+01
32.000000 -30.000000 1.470657E+01
32.000000 -32.000000 1.186002E+01
32.000000 -34.000000 1.527323E+01
32.000000 -36.000000 2.461102E+00
32.000000 -38.000000 -2.317991E+01
32.000000 -40.000000 -5.895093E+01
34.000000 40.000000 -1.757387E+02
34.000000 38.000000 -1.812436E+02
34.000000 36.000000 -1.344889E+02
34.000000 34.000000 -6.702050E+01
34.000000 32.000000 -1.600590E+01
34.000000 30.000000 -8.199890E+00
34.000000 28.000000 -3.218251E+01
34.000000 26.000000 -5.454381E+01
34.000000 24.000000 -3.855342E+01
34.000000 22.000000 -1.972232E+01
34.000000 20.000000 -3.375112E+01
34.000000 18.000000 -4.317471E+01
34.000000 16.000000 -2.174786E+01
34.000000 14.000000 1.737399E+01
34.000000 12.000000 6.632886E+01
34.000000 10.000000 1.088143E+02
34.000000 8.000000 1.185112E+02
34.000000 6.000000 1.049070E+02
34.000000 4.000000 7.467719E+01
34.000000 2.000000 2.407001E+01
34.000000 0.000000 -3.746207E+01
34.000000 -2.000000 -5.843772E+01
34.000000 -4.000000 -3.926516E+01
34.000000 -6.000000 -3.158152E+01
34.000000 -8.000000 -6.998268E+01
34.000000 -10.000000 -1.304119E+02
34.000000 -12.000000 -1.562486E+02
34.000000 -14.000000 -1.328878E+02
34.000000 -16.000000 -9.973009E+01
34.000000 -18.000000 -7.907678E+01
34.000000 -20.000000 -7.476424E+01
34.000000 -22.000000 -7.024584E+01
34.000000 -24.000000 -4.373742E+01
34.000000 -26.000000 -8.474176E+00
34.000000 -28.000000 1.228256E+01
34.000000 -30.000000 2.121533E+01
34.000000 -32.000000 2.074886E+01
34.000000 -34.000000 2.063867E+01
34.000000 -36.000000 1.400245E+00
34.000000 -38.000000 -2.945028E+01
34.000000 -40.000000 -7.094491E+01
36.000000 40.000000 -1.788904E+02
36.000000 38.000000 -1.945368E+02
36.000000 36.000000 -1.606099E+02
36.000000 34.000000 -1.023899E+02
36.000000 32.000000 -4.871738E+01
36.000000 30.000000 -3.523831E+01
36.000000 28.000000 -4.944751E+01
36.000000 26.000000 -5.913727E+01
36.000000 24.000000 -4.466403E+01
36.000000 22.000000 -3.763500E+01
36.000000 20.000000 -5.268738E+01
36.000000 18.000000 -5.692481E+01
36.000000 16.000000 -3.026413E+01
36.000000 14.000000 1.307306E+01
36.000000 12.000000 5.955906E+01
36.000000 10.000000 9.488685E+01
36.000000 8.000000 9.939204E+01
36.000000 6.000000 8.801998E+01
36.000000 4.000000 6.775846E+01
36.000000 2.000000 3.083014E+01
36.000000 0.000000 -1.755231E+01
36.000000 -2.000000 -3.669490E+01
36.000000 -4.000000 -2.306937E+01
36.000000 -6.000000 -2.047507E+01
36.000000 -8.000000 -5.922045E+01
36.000000 -10.000000 -1.173064E+02
36.000000 -12.000000 -1.472925E+02
36.000000 -14.000000 -1.326507E+02
36.000000 -16.000000 -9.921575E+01
36.000000 -18.000000 -7.121159E+01
36.000000 -20.000000 -6.224587E+01
36.000000 -22.000000 -6.124109E+01
36.000000 -24.000000 -5.092749E+01
36.000000 -26.000000 -2.685614E+01
36.000000 -28.000000 -2.806287E+00
36.000000 -30.000000 1.073283E+01
36.000000 -32.000000 1.102736E+01
36.000000 -34.000000 1.193569E+01
36.000000 -36.000000 -4.136041E+00
36.000000 -38.000000 -3.368787E+01
36.000000 -40.000000 -7.657202E+01
38.000000 40.000000 -1.775700E+02
38.000000 38.000000 -2.019332E+02
38.000000 36.000000 -1.805671E+02
38.000000 34.000000 -1.282972E+02
38.000000 32.000000 -7.291139E+01
38.000000 30.000000 -5.823068E+01
38.000000 28.000000 -6.617407E+01
38.000000 26.000000 -6.754623E+01
38.000000 24.000000 -5.707360E+01
38.000000 22.000000 -5.808302E+01
38.000000 20.000000 -7.516216E+01
38.000000 18.000000 -6.885777E+01
38.000000 16.000000 -2.926929E+01
38.000000 14.000000 1.805504E+01
38.000000 12.000000 5.849622E+01
38.000000 10.000000 8.395649E+01
38.000000 8.000000 8.308230E+01
38.000000 6.000000 7.305907E+01
38.000000 4.000000 5.411627E+01
38.000000 2.000000 1.945453E+01
38.000000 0.000000 -2.248465E+01
38.000000 -2.000000 -3.562217E+01
38.000000 -4.000000 -1.886641E+01
38.000000 -6.000000 -1.351429E+01
38.000000 -8.000000 -4.793409E+01
38.000000 -10.000000 -9.967554E+01
38.000000 -12.000000 -1.286388E+02
38.000000 -14.000000 -1.193283E+02
38.000000 -16.000000 -8.277344E+01
38.000000 -18.000000 -5.404354E+01
38.000000 -20.000000 -5.034626E+01
38.000000 -22.000000 -5.559663E+01
38.000000 -24.000000 -5.695201E+01
38.000000 -26.000000 -4.264595E+01
38.000000 -28.000000 -2.119728E+01
38.000000 -30.000000 -1.120432E+01
38.000000 -32.000000 -1.306990E+01
38.000000 -34.000000 -7.228805E+00
38.000000 -36.000000 -1.539660E+01
38.000000 -38.000000 -3.796557E+01
38.000000 -40.000000 -7.595611E+01
40.000000 40.000000 -1.744753E+02
40.000000 38.000000 -2.069944E+02
40.000000 36.000000 -1.975238E+02
40.000000 34.000000 -1.468656E+02
40.000000 32.000000 -8.458751E+01
40.000000 30.000000 -6.305677E+01
40.000000 28.000000 -6.725055E+01
40.000000 26.000000 -6.742549E+01
40.000000 24.000000 -6.012262E+01
40.000000 22.000000 -6.167457E+01
40.000000 20.000000 -7.763068E+01
40.000000 18.000000 -6.428580E+01
40.000000 16.000000 -2.222797E+01
40.000000 14.000000 1.711605E+01
40.000000 12.000000 4.411476E+01
40.000000 10.000000 5.579266E+01
40.000000 8.000000 4.986330E+01
40.000000 6.000000 3.900134E+01
40.000000 4.000000 2.110643E+01
40.000000 2.000000 -1.038043E+01
40.000000 0.000000 -4.475363E+01
40.000000 -2.000000 -4.678294E+01
40.000000 -4.000000 -2.425422E+01
40.000000 -6.000000 -1.384949E+01
40.000000 -8.000000 -3.648594E+01
40.000000 -10.000000 -7.700846E+01
40.000000 -12.000000 -1.042506E+02
40.000000 -14.000000 -1.000063E+02
40.000000 -16.000000 -6.674922E+01
40.000000 -18.000000 -4.332079E+01
40.000000 -20.000000 -4.338661E+01
40.000000 -22.000000 -4.793643E+01
40.000000 -24.000000 -5.057307E+01
40.000000 -26.000000 -4.381176E+01
40.000000 -28.000000 -3.341884E+01
40.000000 -30.000000 -3.255403E+01
40.000000 -32.000000 -3.776906E+01
40.000000 -34.000000 -2.908950E+01
40.000000 -36.000000 -3.138599E+01
40.000000 -38.000000 -4.561756E+01
40.000000 -40.000000 -7.652529E+01
42.000000 40.000000 -1.708248E+02
42.000000 38.000000 -2.079606E+02
42.000000 36.000000 -2.086399E+02
42.000000 34.000000 -1.592197E+02
42.000000 32.000000 -8.720515E+01
42.000000 30.000000 -5.166070E+01
42.000000 28.000000 -5.266911E+01
42.000000 26.000000 -5.745146E+01
42.000000 24.000000 -5.045129E+01
42.000000 22.000000 -4.615486E+01
42.000000 20.000000 -5.495251E+01
42.000000 18.000000 -4.572631E+01
42.000000 16.000000 -1.685674E+01
42.000000 14.000000 1.570892E-02
42.000000 12.000000 6.147314E+00
42.000000 10.000000 9.418119E+00
42.000000 8.000000 9.982656E+00
42.000000 6.000000 4.559456E+00
42.000000 4.000000 -3.447838E+00
42.000000 2.000000 -2.509900E+01
42.000000 0.000000 -5.236612E+01
42.000000 -2.000000 -4.949769E+01
42.000000 -4.000000 -2.662385E+01
42.000000 -6.000000 -1.451664E+01
42.000000 -8.000000 -2.596669E+01
42.000000 -10.000000 -5.450643E+01
42.000000 -12.000000 -8.357548E+01
42.000000 -14.000000 -9.398861E+01
42.000000 -16.000000 -8.272081E+01
42.000000 -18.000000 -6.639283E+01
42.000000 -20.000000 -5.256643E+01
42.000000 -22.000000 -4.234018E+01
42.000000 -24.000000 -3.339782E+01
42.000000 -26.000000 -2.785047E+01
42.000000 -28.000000 -3.145775E+01
42.000000 -30.000000 -4.039673E+01
42.000000 -32.000000 -5.112048E+01
42.000000 -34.000000 -4.731764E+01
42.000000 -36.000000 -4.818758E+01
42.000000 -38.000000 -5.618123E+01
42.000000 -40.000000 -8.132754E+01
44.000000 40.000000 -1.628126E+02
44.000000 38.000000 -1.977560E+02
44.000000 36.000000 -2.044134E+02
44.000000 34.000000 -1.613233E+02
44.000000 32.000000 -8.955094E+01
44.000000 30.000000 -4.560064E+01
44.000000 28.000000 -3.785383E+01
44.000000 26.000000 -4.077772E+01
44.000000 24.000000 -3.380171E+01
44.000000 22.000000 -2.825849E+01
44.000000 20.000000 -3.152758E+01
44.000000 18.000000 -3.005370E+01
44.000000 16.000000 -1.615793E+01
44.000000 14.000000 -2.005344E+01
44.000000 12.000000 -3.256969E+01
44.000000 10.000000 -3.006369E+01
44.000000 8.000000 -1.617173E+01
44.000000 6.000000 -1.182404E+01
44.000000 4.000000 -6.797480E+00
44.000000 2.000000 -1.532568E+01
44.000000 0.000000 -3.613606E+01
44.000000 -2.000000 -3.505411E+01
44.000000 -4.000000 -1.608794E+01
44.000000 -6.000000 -4.289480E+00
44.000000 -8.000000 -9.851291E+00
44.000000 -10.000000 -3.058910E+01
44.000000 -12.000000 -6.586743E+01
44.000000 -14.000000 -9.509959E+01
44.000000 -16.000000 -1.127428E+02
44.000000 -18.000000 -1.115452E+02
44.000000 -20.000000 -8.756716E+01
44.000000 -22.000000 -5.837659E+01
44.000000 -24.000000 -2.822768E+01
44.000000 -26.000000 -1.236617E+01
44.000000 -28.000000 -1.984603E+01
44.000000 -30.000000 -3.657563E+01
44.000000 -32.000000 -5.653166E+01
44.000000 -34.000000 -5.884084E+01
44.000000 -36.000000 -6.034882E+01
44.000000 -38.000000 -6.406139E+01
44.000000 -40.000000 -8.337349E+01
46.000000 40.000000 -1.506885E+02
46.000000 38.000000 -1.772126E+02
46.000000 36.000000 -1.855000E+02
46.000000 34.000000 -1.544361E+02
46.000000 32.000000 -9.501851E+01
46.000000 30.000000 -5.149543E+01
46.000000 28.000000 -2.898448E+01
46.000000 26.000000 -2.232263E+01
46.000000 24.000000 -1.807115E+01
46.000000 22.000000 -1.742426E+01
46.000000 20.000000 -2.198306E+01
46.000000 18.000000 -2.129989E+01
46.000000 16.000000 -1.093225E+01
46.000000 14.000000 -1.468683E+01
46.000000 12.000000 -3.008949E+01
46.000000 10.000000 -3.547427E+01
46.000000 8.000000 -2.763995E+01
46.000000 6.000000 -1.859773E+01
46.000000 4.000000 -5.121726E+00
46.000000 2.000000 -7.758973E+00
46.000000 0.000000 -2.494674E+01
46.000000 -2.000000 -2.475166E+01
46.000000 -4.000000 -4.556245E+00
46.000000 -6.000000 1.165703E+01
46.000000 -8.000000 8.922152E+00
46.000000 -10.000000 -9.240469E+00
46.000000 -12.000000 -4.900893E+01
46.000000 -14.000000 -9.068675E+01
46.000000 -16.000000 -1.297801E+02
46.000000 -18.000000 -1.456307E+02
46.000000 -20.000000 -1.243895E+02
46.000000 -22.000000 -8.415529E+01
46.000000 -24.000000 -3.696304E+01
46.000000 -26.000000 -7.608889E+00
46.000000 -28.000000 -9.323366E+00
46.000000 -30.000000 -2.958721E+01
46.000000 -32.000000 -5.729386E+01
46.000000 -34.000000 -6.256915E+01
46.000000 -36.000000 -6.473280E+01
46.000000 -38.000000 -6.666645E+01
46.000000 -40.000000 -8.059939E+01
48.000000 40.000000 -1.400629E+02
48.000000 38.000000 -1.545535E+02
48.000000 36.000000 -1.595365E+02
48.000000 34.000000 -1.397875E+02
48.000000 32.000000 -9.591520E+01
48.000000 30.000000 -5.605774E+01
48.000000 28.000000 -2.162626E+01
48.000000 26.000000 -7.579205E+00
48.000000 24.000000 -7.571409E+00
48.000000 22.000000 -1.199296E+01
48.000000 20.000000 -1.871635E+01
48.000000 18.000000 -1.371953E+01
48.000000 16.000000 6.356602E-01
48.000000 14.000000 6.929768E+00
48.000000 12.000000 -5.862026E-01
48.000000 10.000000 -1.210526E+01
48.000000 8.000000 -1.976908E+01
48.000000 6.000000 -1.317348E+01
48.000000 4.000000 1.634448E+00
48.000000 2.000000 -4.341838E+00
48.000000 0.000000 -2.582958E+01
48.000000 -2.000000 -3.038951E+01
48.000000 -4.000000 -9.905123E+00
48.000000 -6.000000 1.091781E+01
48.000000 -8.000000 1.000937E+01
48.000000 -10.000000 -7.150462E+00
48.000000 -12.000000 -4.331385E+01
48.000000 -14.000000 -8.367399E+01
48.000000 -16.000000 -1.234113E+02
48.000000 -18.000000 -1.406681E+02
48.000000 -20.000000 -1.248741E+02
48.000000 -22.000000 -8.942734E+01
48.000000 -24.000000 -4.434951E+01
48.000000 -26.000000 -1.319585E+01
48.000000 -28.000000 -9.863543E+00
48.000000 -30.000000 -2.791438E+01
48.000000 -32.000000 -5.483364E+01
48.000000 -34.000000 -5.969528E+01
48.000000 -36.000000 -6.087555E+01
48.000000 -38.000000 -6.289873E+01
48.000000 -40.000000 -7.372334E+01
50.000000 40.000000 -1.324440E+02
50.000000 38.000000 -1.362670E+02
50.000000 36.000000 -1.323642E+02
50.000000 34.000000 -1.168759E+02
50.000000 32.000000 -8.731264E+01
50.000000 30.000000 -5.718244E+01
50.000000 28.000000 -1.949768E+01
50.000000 26.000000 2.562222E+00
50.000000 24.000000 5.809402E+00
50.000000 22.000000 -3.152172E+00
50.000000 20.000000 -1.503919E+01
50.000000 18.000000 -1.269900E+01
50.000000 16.000000 4.266071E+00
50.000000 14.000000 1.960565E+01
50.000000 12.000000 2.353440E+01
50.000000 10.000000 1.649808E+01
50.000000 8.000000 9.377108E-01
50.000000 6.000000 3.378872E+00
50.000000 4.000000 1.498368E+01
50.000000 2.000000 4.327609E+00
50.000000 0.000000 -2.627968E+01
50.000000 -2.000000 -4.229007E+01
50.000000 -4.000000 -2.882478E+01
50.000000 -6.000000 -6.202690E+00
50.000000 -8.000000 -3.553770E+00
50.000000 -10.000000 -1.866561E+01
50.000000 -12.000000 -4.717913E+01
50.000000 -14.000000 -7.554598E+01
50.000000 -16.000000 -9.684171E+01
50.000000 -18.000000 -1.018365E+02
50.000000 -20.000000 -9.039368E+01
50.000000 -22.000000 -7.204978E+01
50.000000 -24.000000 -4.445914E+01
50.000000 -26.000000 -2.205623E+01
50.000000 -28.000000 -1.686912E+01
50.000000 -30.000000 -3.055139E+01
50.000000 -32.000000 -5.353054E+01
50.000000 -34.000000 -5.544885E+01
50.000000 -36.000000 -5.223322E+01
50.000000 -38.000000 -5.255084E+01
50.000000 -40.000000 -6.118504E+01
52.000000 40.000000 -1.248728E+02
52.000000 38.000000 -1.221187E+02
52.000000 36.000000 -1.082353E+02
52.000000 34.000000 -9.055150E+01
52.000000 32.000000 -7.149745E+01
52.000000 30.000000 -5.669229E+01
52.000000 28.000000 -2.471940E+01
52.000000 26.000000 9.134632E+00
52.000000 24.000000 2.614605E+01
52.000000 22.000000 1.377336E+01
52.000000 20.000000 -8.782669E+00
52.000000 18.000000 -1.984939E+01
52.000000 16.000000 -1.213592E+01
52.000000 14.000000 7.414656E+00
52.000000 12.000000 2.491276E+01
52.000000 10.000000 2.611706E+01
52.000000 8.000000 1.070049E+01
52.000000 6.000000 1.319632E+01
52.000000 4.000000 2.667201E+01
52.000000 2.000000 1.980820E+01
52.000000 0.000000 -1.376722E+01
52.000000 -2.000000 -3.999708E+01
52.000000 -4.000000 -3.710217E+01
52.000000 -6.000000 -2.049297E+01
52.000000 -8.000000 -1.790273E+01
52.000000 -10.000000 -3.212715E+01
52.000000 -12.000000 -5.358083E+01
52.000000 -14.000000 -6.705465E+01
52.000000 -16.000000 -6.584213E+01
52.000000 -18.000000 -5.557773E+01
52.000000 -20.000000 -4.718412E+01
52.000000 -22.000000 -4.495194E+01
52.000000 -24.000000 -3.796216E+01
52.000000 -26.000000 -2.672855E+01
52.000000 -28.000000 -2.032846E+01
52.000000 -30.000000 -3.143369E+01
52.000000 -32.000000 -5.227828E+01
52.000000 -34.000000 -5.012117E+01
52.000000 -36.000000 -4.056218E+01
52.000000 -38.000000 -3.832802E+01
52.000000 -40.000000 -4.569731E+01
54.000000 40.000000 -1.141653E+02
54.000000 38.000000 -1.083481E+02
54.000000 36.000000 -9.098915E+01
54.000000 34.000000 -7.143524E+01
54.000000 32.000000 -5.804440E+01
54.000000 30.000000 -5.312736E+01
54.000000 28.000000 -2.930351E+01
54.000000 26.000000 1.135559E+01
54.000000 24.000000 4.305415E+01
54.000000 22.000000 3.223069E+01
54.000000 20.000000 2.532326E+00
54.000000 18.000000 -1.577199E+01
54.000000 16.000000 -2.190260E+01
54.000000 14.000000 -1.330387E+01
54.000000 12.000000 1.104835E+00
54.000000 10.000000 2.732229E-01
54.000000 8.000000 -1.062149E+01
54.000000 6.000000 -4.047329E+00
54.000000 4.000000 2.076210E+01
54.000000 2.000000 3.022756E+01
54.000000 0.000000 7.630074E+00
54.000000 -2.000000 -2.027999E+01
54.000000 -4.000000 -2.423015E+01
54.000000 -6.000000 -1.606572E+01
54.000000 -8.000000 -1.727699E+01
54.000000 -10.000000 -3.222512E+01
54.000000 -12.000000 -5.259208E+01
54.000000 -14.000000 -5.744449E+01
54.000000 -16.000000 -4.423032E+01
54.000000 -18.000000 -2.856146E+01
54.000000 -20.000000 -2.274876E+01
54.000000 -22.000000 -2.727829E+01
54.000000 -24.000000 -2.943805E+01
54.000000 -26.000000 -2.392186E+01
54.000000 -28.000000 -1.804392E+01
54.000000 -30.000000 -2.710447E+01
54.000000 -32.000000 -4.379943E+01
54.000000 -34.000000 -3.689791E+01
54.000000 -36.000000 -2.387359E+01
54.000000 -38.000000 -2.336419E+01
54.000000 -40.000000 -3.141366E+01
56.000000 40.000000 -1.037224E+02
56.000000 38.000000 -9.815808E+01
56.000000 36.000000 -8.279419E+01
56.000000 34.000000 -6.406002E+01
