-10.000000 -28.000000 -2.405633E+01
-10.000000 -30.000000 -2.762650E+01
-10.000000 -32.000000 -3.253962E+01
-10.000000 -34.000000 -3.483516E+01
-10.000000 -36.000000 -2.993044E+01
-10.000000 -38.000000 -2.004863E+01
-10.000000 -40.000000 -6.990392E+00
-8.000000 40.000000 -4.598031E+01
-8.000000 38.000000 -2.778254E+01
-8.000000 36.000000 -3.169702E+00
-8.000000 34.000000 2.175634E+01
-8.000000 32.000000 3.650342E+01
-8.000000 30.000000 3.731588E+01
-8.000000 28.000000 2.969238E+01
-8.000000 26.000000 2.244752E+01
-8.000000 24.000000 2.166977E+01
-8.000000 22.000000 2.547718E+01
-8.000000 20.000000 2.710947E+01
-8.000000 18.000000 1.521999E+01
-8.000000 16.000000 -7.433786E+00
-8.000000 14.000000 -3.300840E+01
-8.000000 12.000000 -5.165960E+01
-8.000000 10.000000 -5.545513E+01
-8.000000 8.000000 -3.491941E+01
-8.000000 6.000000 -1.154536E+01
-8.000000 4.000000 4.290562E-01
-8.000000 2.000000 -1.574028E+00
-8.000000 0.000000 -5.496789E+00
-8.000000 -2.000000 -5.274017E+00
-8.000000 -4.000000 -4.149262E+00
-8.000000 -6.000000 -8.978538E+00
-8.000000 -8.000000 -1.939211E+01
-8.000000 -10.000000 -3.302422E+01
-8.000000 -12.000000 -4.370025E+01
-8.000000 -14.000000 -4.143855E+01
-8.000000 -16.000000 -2.965141E+01
-8.000000 -18.000000 -2.042325E+01
-8.000000 -20.000000 -1.607959E+01
-8.000000 -22.000000 -1.475040E+01
-8.000000 -24.000000 -1.816806E+01
-8.000000 -26.000000 -2.380453E+01
-8.000000 -28.000000 -3.088931E+01
-8.000000 -30.000000 -3.694424E+01
-8.000000 -32.000000 -3.943859E+01
-8.000000 -34.000000 -3.710522E+01
-8.000000 -36.000000 -2.589992E+01
-8.000000 -38.000000 -1.306551E+01
-8.000000 -40.000000 1.403320E+00
-6.000000 40.000000 -5.139088E+01
-6.000000 38.000000 -3.183464E+01
-6.000000 36.000000 -6.336885E+00
-6.000000 34.000000 2.100289E+01
-6.000000 32.000000 3.724609E+01
-6.000000 30.000000 3.976949E+01
-6.000000 28.000000 3.326554E+01
-6.000000 26.000000 2.664223E+01
-6.000000 24.000000 2.960280E+01
-6.000000 22.000000 3.672227E+01
-6.000000 20.000000 4.052393E+01
-6.000000 18.000000 2.918330E+01
-6.000000 16.000000 4.200705E+00
-6.000000 14.000000 -2.484406E+01
-6.000000 12.000000 -4.881545E+01
-6.000000 10.000000 -5.923547E+01
-6.000000 8.000000 -4.202116E+01
-6.000000 6.000000 -1.669662E+01
-6.000000 4.000000 -1.108787E+00
-6.000000 2.000000 -3.144759E+00
-6.000000 0.000000 -9.789880E+00
-6.000000 -2.000000 -1.296133E+01
-6.000000 -4.000000 -1.488125E+01
-6.000000 -6.000000 -2.207329E+01
-6.000000 -8.000000 -3.240969E+01
-6.000000 -10.000000 -4.446716E+01
-6.000000 -12.000000 -5.203239E+01
-6.000000 -14.000000 -4.994667E+01
-6.000000 -16.000000 -4.070775E+01
-6.000000 -18.000000 -3.155079E+01
-6.000000 -20.000000 -2.439840E+01
-6.000000 -22.000000 -1.981119E+01
-6.000000 -24.000000 -2.184545E+01
-6.000000 -26.000000 -2.881398E+01
-6.000000 -28.000000 -3.595977E+01
-6.000000 -30.000000 -4.084184E+01
-6.000000 -32.000000 -4.144139E+01
-6.000000 -34.000000 -3.629793E+01
-6.000000 -36.000000 -2.116451E+01
-6.000000 -38.000000 -6.958371E+00
-6.000000 -40.000000 8.205423E+00
-4.000000 40.000000 -5.197684E+01
-4.000000 38.000000 -3.253955E+01
-4.000000 36.000000 -9.746966E+00
-4.000000 34.000000 1.573869E+01
-4.000000 32.000000 3.139861E+01
-4.000000 30.000000 3.386474E+01
-4.000000 28.000000 2.673605E+01
-4.000000 26.000000 2.032655E+01
-4.000000 24.000000 2.591626E+01
-4.000000 22.000000 3.774184E+01
-4.000000 20.000000 4.502664E+01
-4.000000 18.000000 3.750271E+01
-4.000000 16.000000 1.709000E+01
-4.000000 14.000000 -7.810883E+00
-4.000000 12.000000 -3.116987E+01
-4.000000 10.000000 -4.535875E+01
-4.000000 8.000000 -3.708322E+01
-4.000000 6.000000 -1.794314E+01
-4.000000 4.000000 -5.510681E+00
-4.000000 2.000000 -7.411703E+00
-4.000000 0.000000 -1.225188E+01
-4.000000 -2.000000 -1.490104E+01
-4.000000 -4.000000 -1.960633E+01
-4.000000 -6.000000 -3.105686E+01
-4.000000 -8.000000 -4.281798E+01
-4.000000 -10.000000 -5.261465E+01
-4.000000 -12.000000 -5.540840E+01
-4.000000 -14.000000 -5.169320E+01
-4.000000 -16.000000 -4.401106E+01
-4.000000 -18.000000 -3.672906E+01
-4.000000 -20.000000 -3.048805E+01
-4.000000 -22.000000 -2.497527E+01
-4.000000 -24.000000 -2.549212E+01
-4.000000 -26.000000 -3.192510E+01
-4.000000 -28.000000 -3.574943E+01
-4.000000 -30.000000 -3.805938E+01
-4.000000 -32.000000 -3.894276E+01
-4.000000 -34.000000 -3.436104E+01
-4.000000 -36.000000 -1.877003E+01
-4.000000 -38.000000 -3.964862E+00
-4.000000 -40.000000 1.205326E+01
-2.000000 40.000000 -4.972660E+01
-2.000000 38.000000 -3.082275E+01
-2.000000 36.000000 -1.146372E+01
-2.000000 34.000000 9.225335E+00
-2.000000 32.000000 2.228562E+01
-2.000000 30.000000 2.333226E+01
-2.000000 28.000000 1.459658E+01
-2.000000 26.000000 7.896734E+00
-2.000000 24.000000 1.354878E+01
-2.000000 22.000000 2.844907E+01
-2.000000 20.000000 3.803439E+01
-2.000000 18.000000 3.497510E+01
-2.000000 16.000000 2.272542E+01
-2.000000 14.000000 6.722751E+00
-2.000000 12.000000 -1.149741E+01
-2.000000 10.000000 -2.553109E+01
-2.000000 8.000000 -2.471618E+01
-2.000000 6.000000 -1.186797E+01
-2.000000 4.000000 -4.228199E+00
-2.000000 2.000000 -8.044532E+00
-2.000000 0.000000 -1.332125E+01
-2.000000 -2.000000 -1.467483E+01
-2.000000 -4.000000 -1.990088E+01
-2.000000 -6.000000 -3.381826E+01
-2.000000 -8.000000 -4.653492E+01
-2.000000 -10.000000 -5.399987E+01
-2.000000 -12.000000 -5.192310E+01
-2.000000 -14.000000 -4.642266E+01
-2.000000 -16.000000 -3.966528E+01
-2.000000 -18.000000 -3.494528E+01
-2.000000 -20.000000 -3.150213E+01
-2.000000 -22.000000 -2.667723E+01
-2.000000 -24.000000 -2.562530E+01
-2.000000 -26.000000 -2.845404E+01
-2.000000 -28.000000 -2.853780E+01
-2.000000 -30.000000 -3.053983E+01
-2.000000 -32.000000 -3.453766E+01
-2.000000 -34.000000 -3.382594E+01
-2.000000 -36.000000 -2.016401E+01
-2.000000 -38.000000 -4.843226E+00
-2.000000 -40.000000 1.212537E+01
0.000000 40.000000 -4.693716E+01
0.000000 38.000000 -2.847299E+01
0.000000 36.000000 -1.142520E+01
0.000000 34.000000 5.296604E+00
0.000000 32.000000 1.638062E+01
0.000000 30.000000 1.636709E+01
0.000000 28.000000 6.236451E+00
0.000000 26.000000 -2.525619E+00
0.000000 24.000000 -1.212127E+00
0.000000 22.000000 1.164932E+01
0.000000 20.000000 2.113912E+01
0.000000 18.000000 2.323530E+01
0.000000 16.000000 2.056477E+01
0.000000 14.000000 1.341306E+01
0.000000 12.000000 -2.099773E+00
0.000000 10.000000 -1.821366E+01
0.000000 8.000000 -1.944554E+01
0.000000 6.000000 -6.887046E+00
0.000000 4.000000 1.230396E+00
0.000000 2.000000 -2.507648E+00
0.000000 0.000000 -7.312913E+00
0.000000 -2.000000 -7.026999E+00
0.000000 -4.000000 -9.899048E+00
0.000000 -6.000000 -2.503483E+01
0.000000 -8.000000 -4.145841E+01
0.000000 -10.000000 -5.123193E+01
0.000000 -12.000000 -4.705453E+01
0.000000 -14.000000 -3.901922E+01
0.000000 -16.000000 -3.127208E+01
0.000000 -18.000000 -2.767017E+01
0.000000 -20.000000 -2.730138E+01
0.000000 -22.000000 -2.435625E+01
0.000000 -24.000000 -2.183140E+01
0.000000 -26.000000 -2.005801E+01
0.000000 -28.000000 -1.879225E+01
0.000000 -30.000000 -2.313883E+01
0.000000 -32.000000 -3.174392E+01
0.000000 -34.000000 -3.591052E+01
0.000000 -36.000000 -2.441895E+01
0.000000 -38.000000 -8.874129E+00
0.000000 -40.000000 9.233368E+00
2.000000 40.000000 -4.655356E+01
2.000000 38.000000 -2.692651E+01
2.000000 36.000000 -9.079527E+00
2.000000 34.000000 7.328449E+00
2.000000 32.000000 1.854499E+01
2.000000 30.000000 1.837980E+01
2.000000 28.000000 7.065135E+00
2.000000 26.000000 -4.819373E+00
2.000000 24.000000 -1.058475E+01
2.000000 22.000000 -3.584538E+00
2.000000 20.000000 3.489615E+00
2.000000 18.000000 7.333566E+00
2.000000 16.000000 1.017910E+01
2.000000 14.000000 9.178228E+00
2.000000 12.000000 -3.841839E+00
2.000000 10.000000 -2.019155E+01
2.000000 8.000000 -1.952624E+01
2.000000 6.000000 -5.621280E+00
2.000000 4.000000 2.750685E+00
2.000000 2.000000 -1.087481E+00
2.000000 0.000000 -3.175578E+00
2.000000 -2.000000 2.102871E+00
2.000000 -4.000000 5.724783E+00
2.000000 -6.000000 -5.828087E+00
2.000000 -8.000000 -2.545535E+01
2.000000 -10.000000 -4.155720E+01
2.000000 -12.000000 -4.334845E+01
2.000000 -14.000000 -3.545332E+01
2.000000 -16.000000 -2.413362E+01
2.000000 -18.000000 -1.913095E+01
2.000000 -20.000000 -1.979226E+01
2.000000 -22.000000 -1.930156E+01
2.000000 -24.000000 -1.635733E+01
2.000000 -26.000000 -1.267295E+01
2.000000 -28.000000 -1.306847E+01
2.000000 -30.000000 -2.060911E+01
2.000000 -32.000000 -3.320298E+01
2.000000 -34.000000 -4.129075E+01
2.000000 -36.000000 -3.118068E+01
2.000000 -38.000000 -1.417253E+01
2.000000 -40.000000 6.717406E+00
4.000000 40.000000 -4.719763E+01
4.000000 38.000000 -2.543498E+01
4.000000 36.000000 -5.355375E+00
4.000000 34.000000 1.368673E+01
4.000000 32.000000 2.611682E+01
4.000000 30.000000 2.618616E+01
4.000000 28.000000 1.414653E+01
4.000000 26.000000 -6.453857E-01
4.000000 24.000000 -1.260378E+01
4.000000 22.000000 -1.212007E+01
4.000000 20.000000 -8.609439E+00
4.000000 18.000000 -5.089841E+00
4.000000 16.000000 -9.114456E-01
4.000000 14.000000 -2.945395E-01
4.000000 12.000000 -9.661330E+00
4.000000 10.000000 -2.128707E+01
4.000000 8.000000 -1.775081E+01
4.000000 6.000000 -3.959200E+00
4.000000 4.000000 -7.063866E-02
4.000000 2.000000 -8.909500E+00
4.000000 0.000000 -1.111843E+01
4.000000 -2.000000 4.031277E-01
4.000000 -4.000000 1.300536E+01
4.000000 -6.000000 1.016523E+01
4.000000 -8.000000 -7.887343E+00
4.000000 -10.000000 -2.719648E+01
4.000000 -12.000000 -3.718910E+01
4.000000 -14.000000 -3.351329E+01
4.000000 -16.000000 -2.020574E+01
4.000000 -18.000000 -1.173585E+01
4.000000 -20.000000 -1.105672E+01
4.000000 -22.000000 -1.337371E+01
4.000000 -24.000000 -1.259829E+01
4.000000 -26.000000 -1.010955E+01
4.000000 -28.000000 -1.177132E+01
4.000000 -30.000000 -2.163550E+01
4.000000 -32.000000 -3.762104E+01
4.000000 -34.000000 -4.855412E+01
4.000000 -36.000000 -3.903537E+01
4.000000 -38.000000 -1.901576E+01
4.000000 -40.000000 5.599996E+00
6.000000 40.000000 -4.720422E+01
6.000000 38.000000 -2.292693E+01
6.000000 36.000000 -4.653196E-01
6.000000 34.000000 2.173034E+01
6.000000 32.000000 3.501853E+01
6.000000 30.000000 3.517926E+01
6.000000 28.000000 2.277664E+01
6.000000 26.000000 5.298737E+00
6.000000 24.000000 -9.925854E+00
6.000000 22.000000 -1.362149E+01
6.000000 20.000000 -1.353908E+01
6.000000 18.000000 -1.175440E+01
6.000000 16.000000 -8.244640E+00
6.000000 14.000000 -9.581858E+00
6.000000 12.000000 -1.749507E+01
6.000000 10.000000 -2.340661E+01
6.000000 8.000000 -1.410045E+01
6.000000 6.000000 -3.985405E-01
6.000000 4.000000 -4.637505E+00
6.000000 2.000000 -2.264759E+01
6.000000 0.000000 -2.987576E+01
6.000000 -2.000000 -1.654908E+01
6.000000 -4.000000 4.464045E+00
6.000000 -6.000000 1.225986E+01
6.000000 -8.000000 1.314245E+00
6.000000 -10.000000 -1.491934E+01
6.000000 -12.000000 -2.855069E+01
6.000000 -14.000000 -2.872057E+01
6.000000 -16.000000 -1.623190E+01
6.000000 -18.000000 -4.977135E+00
6.000000 -20.000000 -2.936163E+00
6.000000 -22.000000 -6.894583E+00
6.000000 -24.000000 -1.020662E+01
6.000000 -26.000000 -1.027904E+01
6.000000 -28.000000 -1.200805E+01
6.000000 -30.000000 -2.256183E+01
6.000000 -32.000000 -4.073092E+01
6.000000 -34.000000 -5.414895E+01
6.000000 -36.000000 -4.588438E+01
6.000000 -38.000000 -2.314342E+01
6.000000 -40.000000 4.514995E+00
8.000000 40.000000 -4.771693E+01
8.000000 38.000000 -1.986956E+01
8.000000 36.000000 5.348269E+00
8.000000 34.000000 2.895339E+01
8.000000 32.000000 4.196080E+01
8.000000 30.000000 4.171431E+01
8.000000 28.000000 2.883940E+01
8.000000 26.000000 1.084411E+01
8.000000 24.000000 -3.311065E+00
8.000000 22.000000 -6.753246E+00
8.000000 20.000000 -8.299590E+00
8.000000 18.000000 -1.195802E+01
8.000000 16.000000 -1.387837E+01
8.000000 14.000000 -1.914104E+01
8.000000 12.000000 -2.610124E+01
8.000000 10.000000 -2.476538E+01
8.000000 8.000000 -8.869016E+00
8.000000 6.000000 2.688570E+00
8.000000 4.000000 -1.197446E+01
8.000000 2.000000 -4.079779E+01
8.000000 0.000000 -5.644444E+01
8.000000 -2.000000 -4.565475E+01
8.000000 -4.000000 -1.973584E+01
8.000000 -6.000000 -1.326529E+00
8.000000 -8.000000 -9.090099E-01
8.000000 -10.000000 -9.978506E+00
8.000000 -12.000000 -2.296708E+01
8.000000 -14.000000 -2.345097E+01
8.000000 -16.000000 -1.095135E+01
8.000000 -18.000000 2.077553E+00
8.000000 -20.000000 4.625759E+00
8.000000 -22.000000 -3.925705E-01
8.000000 -24.000000 -7.944098E+00
8.000000 -26.000000 -1.170426E+01
8.000000 -28.000000 -1.288564E+01
8.000000 -30.000000 -2.053661E+01
8.000000 -32.000000 -3.659990E+01
8.000000 -34.000000 -5.208069E+01
8.000000 -36.000000 -4.875771E+01
8.000000 -38.000000 -2.691454E+01
8.000000 -40.000000 1.657524E+00
10.000000 40.000000 -4.785413E+01
10.000000 38.000000 -1.770833E+01
10.000000 36.000000 8.093653E+00
10.000000 34.000000 3.110339E+01
10.000000 32.000000 4.315982E+01
10.000000 30.000000 4.177945E+01
10.000000 28.000000 2.825799E+01
10.000000 26.000000 1.328539E+01
10.000000 24.000000 5.990233E+00
10.000000 22.000000 7.361163E+00
10.000000 20.000000 7.127949E+00
10.000000 18.000000 -2.099463E+00
10.000000 16.000000 -1.304594E+01
10.000000 14.000000 -2.380977E+01
10.000000 12.000000 -3.089948E+01
10.000000 10.000000 -2.607425E+01
10.000000 8.000000 -8.419667E+00
10.000000 6.000000 1.940754E+00
10.000000 4.000000 -1.879104E+01
10.000000 2.000000 -5.654127E+01
10.000000 0.000000 -8.270704E+01
10.000000 -2.000000 -7.855366E+01
10.000000 -4.000000 -5.202974E+01
10.000000 -6.000000 -2.580360E+01
10.000000 -8.000000 -1.536753E+01
10.000000 -10.000000 -1.777743E+01
10.000000 -12.000000 -2.875448E+01
10.000000 -14.000000 -2.622512E+01
10.000000 -16.000000 -9.267452E+00
10.000000 -18.000000 7.382051E+00
10.000000 -20.000000 1.134476E+01
10.000000 -22.000000 5.299702E+00
10.000000 -24.000000 -5.817174E+00
10.000000 -26.000000 -1.262429E+01
10.000000 -28.000000 -1.186003E+01
10.000000 -30.000000 -1.387509E+01
10.000000 -32.000000 -2.382413E+01
10.000000 -34.000000 -3.970686E+01
10.000000 -36.000000 -4.376934E+01
10.000000 -38.000000 -2.891080E+01
10.000000 -40.000000 -3.555733E+00
12.000000 40.000000 -4.769345E+01
12.000000 38.000000 -1.877587E+01
12.000000 36.000000 4.783353E+00
12.000000 34.000000 2.579819E+01
12.000000 32.000000 3.623195E+01
12.000000 30.000000 3.403313E+01
12.000000 28.000000 2.140177E+01
12.000000 26.000000 1.210735E+01
12.000000 24.000000 1.567529E+01
12.000000 22.000000 2.413306E+01
12.000000 20.000000 2.728959E+01
12.000000 18.000000 1.648897E+01
12.000000 16.000000 -2.167706E+00
12.000000 14.000000 -2.022797E+01
12.000000 12.000000 -3.179430E+01
12.000000 10.000000 -3.076741E+01
12.000000 8.000000 -1.364841E+01
12.000000 6.000000 -1.707573E-01
12.000000 4.000000 -1.819425E+01
12.000000 2.000000 -5.938371E+01
12.000000 0.000000 -9.667939E+01
12.000000 -2.000000 -1.062877E+02
12.000000 -4.000000 -8.744010E+01
12.000000 -6.000000 -6.021081E+01
12.000000 -8.000000 -4.370594E+01
12.000000 -10.000000 -4.107363E+01
12.000000 -12.000000 -4.969107E+01
12.000000 -14.000000 -4.166977E+01
12.000000 -16.000000 -1.597684E+01
12.000000 -18.000000 8.716337E+00
12.000000 -20.000000 1.797348E+01
12.000000 -22.000000 1.278634E+01
12.000000 -24.000000 -9.237652E-01
12.000000 -26.000000 -8.604347E+00
12.000000 -28.000000 -5.044729E+00
12.000000 -30.000000 -2.748964E+00
12.000000 -32.000000 -7.201365E+00
12.000000 -34.000000 -2.263764E+01
12.000000 -36.000000 -3.269004E+01
12.000000 -38.000000 -2.789518E+01
12.000000 -40.000000 -9.050300E+00
14.000000 40.000000 -4.953038E+01
14.000000 38.000000 -2.464347E+01
14.000000 36.000000 -3.716086E+00
14.000000 34.000000 1.423907E+01
14.000000 32.000000 2.247393E+01
14.000000 30.000000 2.070520E+01
14.000000 28.000000 1.189330E+01
14.000000 26.000000 9.798515E+00
14.000000 24.000000 2.222212E+01
14.000000 22.000000 3.613694E+01
14.000000 20.000000 4.198489E+01
14.000000 18.000000 3.233506E+01
14.000000 16.000000 1.234166E+01
14.000000 14.000000 -1.038951E+01
14.000000 12.000000 -2.866374E+01
14.000000 10.000000 -3.435685E+01
14.000000 8.000000 -1.643902E+01
14.000000 6.000000 4.005033E+00
14.000000 4.000000 -5.108166E+00
14.000000 2.000000 -4.618414E+01
14.000000 0.000000 -9.561042E+01
14.000000 -2.000000 -1.251534E+02
14.000000 -4.000000 -1.243469E+02
14.000000 -6.000000 -1.037224E+02
14.000000 -8.000000 -8.481150E+01
14.000000 -10.000000 -7.880155E+01
14.000000 -12.000000 -8.176995E+01
14.000000 -14.000000 -6.482907E+01
14.000000 -16.000000 -2.673976E+01
14.000000 -18.000000 9.909636E+00
14.000000 -20.000000 2.846894E+01
14.000000 -22.000000 2.634716E+01
14.000000 -24.000000 9.978102E+00
14.000000 -26.000000 -3.936596E-01
14.000000 -28.000000 5.067654E+00
14.000000 -30.000000 1.137439E+01
14.000000 -32.000000 1.000685E+01
14.000000 -34.000000 -5.829587E+00
14.000000 -36.000000 -2.063180E+01
14.000000 -38.000000 -2.519485E+01
14.000000 -40.000000 -1.385932E+01
16.000000 40.000000 -5.267603E+01
16.000000 38.000000 -3.352339E+01
16.000000 36.000000 -1.596902E+01
16.000000 34.000000 -1.063228E+00
16.000000 32.000000 6.875151E+00
16.000000 30.000000 6.579942E+00
16.000000 28.000000 8.604050E-01
16.000000 26.000000 2.806078E+00
16.000000 24.000000 1.745510E+01
16.000000 22.000000 3.236912E+01
16.000000 20.000000 3.884544E+01
16.000000 18.000000 3.346443E+01
16.000000 16.000000 2.078779E+01
16.000000 14.000000 2.218239E+00
16.000000 12.000000 -1.662568E+01
16.000000 10.000000 -2.528445E+01
16.000000 8.000000 -9.291155E+00
16.000000 6.000000 1.653061E+01
16.000000 4.000000 1.738600E+01
16.000000 2.000000 -2.180676E+01
16.000000 0.000000 -8.192723E+01
16.000000 -2.000000 -1.323819E+02
16.000000 -4.000000 -1.546209E+02
16.000000 -6.000000 -1.475184E+02
16.000000 -8.000000 -1.310562E+02
16.000000 -10.000000 -1.224963E+02
16.000000 -12.000000 -1.145535E+02
16.000000 -14.000000 -8.488469E+01
16.000000 -16.000000 -3.239499E+01
16.000000 -18.000000 1.717959E+01
16.000000 -20.000000 4.488464E+01
16.000000 -22.000000 4.588952E+01
16.000000 -24.000000 2.733697E+01
16.000000 -26.000000 1.250520E+01
16.000000 -28.000000 1.707371E+01
16.000000 -30.000000 2.474284E+01
16.000000 -32.000000 2.323184E+01
16.000000 -34.000000 6.456970E+00
16.000000 -36.000000 -1.165792E+01
16.000000 -38.000000 -2.327030E+01
16.000000 -40.000000 -1.931041E+01
18.000000 40.000000 -5.699666E+01
18.000000 38.000000 -4.341690E+01
18.000000 36.000000 -2.959419E+01
18.000000 34.000000 -1.641804E+01
18.000000 32.000000 -6.078672E+00
18.000000 30.000000 -4.005880E+00
18.000000 28.000000 -8.680864E+00
18.000000 26.000000 -8.572381E+00
18.000000 24.000000 1.389765E+00
18.000000 22.000000 1.408916E+01
18.000000 20.000000 2.029624E+01
18.000000 18.000000 2.051525E+01
18.000000 16.000000 1.933371E+01
18.000000 14.000000 1.244384E+01
18.000000 12.000000 -4.387665E-01
18.000000 10.000000 -9.602183E+00
18.000000 8.000000 9.754734E-01
18.000000 6.000000 2.718732E+01
18.000000 4.000000 3.560599E+01
18.000000 2.000000 2.620338E+00
18.000000 0.000000 -5.791712E+01
18.000000 -2.000000 -1.215861E+02
18.000000 -4.000000 -1.653358E+02
18.000000 -6.000000 -1.769202E+02
18.000000 -8.000000 -1.683009E+02
18.000000 -10.000000 -1.587387E+02
18.000000 -12.000000 -1.380297E+02
18.000000 -14.000000 -9.372942E+01
18.000000 -16.000000 -2.720780E+01
18.000000 -18.000000 3.211417E+01
18.000000 -20.000000 6.373936E+01
18.000000 -22.000000 6.565150E+01
18.000000 -24.000000 4.757526E+01
18.000000 -26.000000 3.132285E+01
18.000000 -28.000000 3.052027E+01
18.000000 -30.000000 3.255976E+01
18.000000 -32.000000 2.700799E+01
18.000000 -34.000000 8.998565E+00
18.000000 -36.000000 -9.705950E+00
18.000000 -38.000000 -2.439169E+01
18.000000 -40.000000 -2.589619E+01
20.000000 40.000000 -6.424469E+01
20.000000 38.000000 -5.410556E+01
20.000000 36.000000 -4.148941E+01
20.000000 34.000000 -2.790962E+01
20.000000 32.000000 -1.469379E+01
20.000000 30.000000 -9.835227E+00
20.000000 28.000000 -1.334975E+01
20.000000 26.000000 -1.701576E+01
20.000000 24.000000 -1.353057E+01
20.000000 22.000000 -2.789867E+00
20.000000 20.000000 3.698265E+00
20.000000 18.000000 6.694563E+00
20.000000 16.000000 1.128896E+01
20.000000 14.000000 1.310281E+01
20.000000 12.000000 6.503710E+00
20.000000 10.000000 -2.634912E+00
20.000000 8.000000 2.266327E+00
20.000000 6.000000 2.493340E+01
20.000000 4.000000 3.968736E+01
20.000000 2.000000 1.890124E+01
20.000000 0.000000 -3.055997E+01
20.000000 -2.000000 -9.401143E+01
20.000000 -4.000000 -1.501480E+02
20.000000 -6.000000 -1.807527E+02
20.000000 -8.000000 -1.837093E+02
20.000000 -10.000000 -1.759779E+02
20.000000 -12.000000 -1.457530E+02
20.000000 -14.000000 -9.137528E+01
20.000000 -16.000000 -1.772988E+01
20.000000 -18.000000 4.431369E+01
20.000000 -20.000000 7.520835E+01
20.000000 -22.000000 7.738503E+01
20.000000 -24.000000 6.273054E+01
20.000000 -26.000000 4.795697E+01
20.000000 -28.000000 4.090613E+01
20.000000 -30.000000 3.398637E+01
20.000000 -32.000000 2.156182E+01
20.000000 -34.000000 1.720160E+00
20.000000 -36.000000 -1.589506E+01
20.000000 -38.000000 -2.903810E+01
20.000000 -40.000000 -3.179698E+01
22.000000 40.000000 -7.288216E+01
22.000000 38.000000 -6.452346E+01
22.000000 36.000000 -5.080583E+01
22.000000 34.000000 -3.447158E+01
22.000000 32.000000 -1.794184E+01
22.000000 30.000000 -1.044200E+01
22.000000 28.000000 -1.384699E+01
22.000000 26.000000 -2.103554E+01
22.000000 24.000000 -2.229638E+01
22.000000 22.000000 -1.232550E+01
22.000000 20.000000 -4.412329E+00
22.000000 18.000000 1.429424E-01
22.000000 16.000000 6.062586E+00
22.000000 14.000000 1.014364E+01
22.000000 12.000000 5.423395E+00
22.000000 10.000000 -6.403151E+00
22.000000 8.000000 -5.928719E+00
22.000000 6.000000 1.332815E+01
22.000000 4.000000 3.320777E+01
22.000000 2.000000 2.615118E+01
22.000000 0.000000 -7.320763E+00
22.000000 -2.000000 -6.123614E+01
22.000000 -4.000000 -1.198696E+02
22.000000 -6.000000 -1.619053E+02
22.000000 -8.000000 -1.746312E+02
22.000000 -10.000000 -1.720053E+02
22.000000 -12.000000 -1.385775E+02
22.000000 -14.000000 -8.259343E+01
22.000000 -16.000000 -1.298084E+01
22.000000 -18.000000 4.347897E+01
22.000000 -20.000000 7.067333E+01
22.000000 -22.000000 7.388753E+01
22.000000 -24.000000 6.454577E+01
22.000000 -26.000000 5.343727E+01
22.000000 -28.000000 4.359487E+01
22.000000 -30.000000 2.907656E+01
22.000000 -32.000000 9.346488E+00
22.000000 -34.000000 -1.218628E+01
22.000000 -36.000000 -2.710746E+01
22.000000 -38.000000 -3.418922E+01
22.000000 -40.000000 -3.408912E+01
24.000000 40.000000 -8.106540E+01
24.000000 38.000000 -7.354935E+01
24.000000 36.000000 -5.739875E+01
24.000000 34.000000 -3.549232E+01
24.000000 32.000000 -1.379545E+01
24.000000 30.000000 -4.423174E+00
24.000000 28.000000 -1.077007E+01
24.000000 26.000000 -2.245007E+01
24.000000 24.000000 -2.766936E+01
24.000000 22.000000 -1.866459E+01
24.000000 20.000000 -7.764721E+00
24.000000 18.000000 9.487247E-01
24.000000 16.000000 9.256472E+00
24.000000 14.000000 1.256337E+01
24.000000 12.000000 4.875547E+00
24.000000 10.000000 -1.298944E+01
24.000000 8.000000 -1.723421E+01
24.000000 6.000000 -2.123556E+00
24.000000 4.000000 2.142386E+01
24.000000 2.000000 2.460993E+01
24.000000 0.000000 4.463842E+00
24.000000 -2.000000 -3.750061E+01
24.000000 -4.000000 -8.864512E+01
24.000000 -6.000000 -1.301813E+02
24.000000 -8.000000 -1.490865E+02
24.000000 -10.000000 -1.529242E+02
24.000000 -12.000000 -1.244513E+02
24.000000 -14.000000 -7.450811E+01
24.000000 -16.000000 -1.513311E+01
24.000000 -18.000000 3.118361E+01
24.000000 -20.000000 5.212445E+01
24.000000 -22.000000 5.502975E+01
24.000000 -24.000000 5.118708E+01
24.000000 -26.000000 4.636131E+01
24.000000 -28.000000 3.758551E+01
24.000000 -30.000000 1.874158E+01
24.000000 -32.000000 -6.092763E+00
24.000000 -34.000000 -2.770342E+01
24.000000 -36.000000 -3.781913E+01
24.000000 -38.000000 -3.717463E+01
24.000000 -40.000000 -3.288182E+01
26.000000 40.000000 -8.863342E+01
26.000000 38.000000 -8.113971E+01
26.000000 36.000000 -6.064276E+01
26.000000 34.000000 -3.032390E+01
26.000000 32.000000 -2.197485E+00
26.000000 30.000000 6.826689E+00
26.000000 28.000000 -5.155905E+00
26.000000 26.000000 -2.284053E+01
26.000000 24.000000 -3.311700E+01
26.000000 22.000000 -2.421401E+01
26.000000 20.000000 -6.916448E+00
26.000000 18.000000 9.102318E+00
26.000000 16.000000 2.120823E+01
26.000000 14.000000 2.504555E+01
26.000000 12.000000 1.435688E+01
26.000000 10.000000 -9.019184E+00
26.000000 8.000000 -1.959672E+01
26.000000 6.000000 -1.261108E+01
26.000000 4.000000 7.176924E+00
26.000000 2.000000 8.787220E+00
26.000000 0.000000 -7.475843E+00
26.000000 -2.000000 -3.763817E+01
26.000000 -4.000000 -7.190770E+01
26.000000 -6.000000 -1.017366E+02
26.000000 -8.000000 -1.203510E+02
26.000000 -10.000000 -1.262220E+02
26.000000 -12.000000 -1.094883E+02
26.000000 -14.000000 -7.084643E+01
26.000000 -16.000000 -2.356531E+01
26.000000 -18.000000 1.109085E+01
26.000000 -20.000000 2.590802E+01
26.000000 -22.000000 2.722985E+01
26.000000 -24.000000 2.795244E+01
26.000000 -26.000000 3.007898E+01
26.000000 -28.000000 2.555401E+01
26.000000 -30.000000 7.401507E+00
26.000000 -32.000000 -1.810948E+01
26.000000 -34.000000 -3.715689E+01
26.000000 -36.000000 -4.203067E+01
26.000000 -38.000000 -3.700180E+01
26.000000 -40.000000 -3.104710E+01
28.000000 40.000000 -9.429178E+01
28.000000 38.000000 -8.705424E+01
28.000000 36.000000 -6.187744E+01
28.000000 34.000000 -2.254686E+01
28.000000 32.000000 1.159348E+01
28.000000 30.000000 1.937954E+01
28.000000 28.000000 1.262772E+00
28.000000 26.000000 -2.340381E+01
28.000000 24.000000 -4.040844E+01
28.000000 22.000000 -3.111129E+01
28.000000 20.000000 -5.005530E+00
28.000000 18.000000 2.258813E+01
28.000000 16.000000 4.260717E+01
28.000000 14.000000 5.197928E+01
28.000000 12.000000 4.250733E+01
28.000000 10.000000 1.760727E+01
28.000000 8.000000 2.600193E-01
28.000000 6.000000 -4.889463E+00
28.000000 4.000000 -6.268879E+00
28.000000 2.000000 -2.268426E+01
28.000000 0.000000 -4.460581E+01
28.000000 -2.000000 -6.347802E+01
28.000000 -4.000000 -7.899665E+01
28.000000 -6.000000 -9.350470E+01
28.000000 -8.000000 -1.065623E+02
28.000000 -10.000000 -1.115115E+02
28.000000 -12.000000 -1.004790E+02
28.000000 -14.000000 -6.987371E+01
28.000000 -16.000000 -3.368823E+01
28.000000 -18.000000 -9.952071E+00
28.000000 -20.000000 -1.471344E+00
28.000000 -22.000000 -1.166710E+00
28.000000 -24.000000 3.640224E+00
28.000000 -26.000000 1.152903E+01
28.000000 -28.000000 1.160757E+01
28.000000 -30.000000 -2.277280E+00
28.000000 -32.000000 -2.372216E+01
28.000000 -34.000000 -3.742325E+01
28.000000 -36.000000 -3.764527E+01
28.000000 -38.000000 -3.270770E+01
28.000000 -40.000000 -2.911326E+01
30.000000 40.000000 -9.679134E+01
30.000000 38.000000 -8.943071E+01
30.000000 36.000000 -6.186560E+01
30.000000 34.000000 -1.666789E+01
30.000000 32.000000 2.221863E+01
30.000000 30.000000 3.043010E+01
30.000000 28.000000 7.984100E+00
30.000000 26.000000 -2.339653E+01
30.000000 24.000000 -4.725099E+01
30.000000 22.000000 -3.916204E+01
30.000000 20.000000 -7.162564E+00
30.000000 18.000000 3.187570E+01
30.000000 16.000000 6.176485E+01
30.000000 14.000000 8.033637E+01
30.000000 12.000000 7.819264E+01
30.000000 10.000000 5.862665E+01
30.000000 8.000000 3.614666E+01
30.000000 6.000000 1.513345E+01
30.000000 4.000000 -1.829498E+01
30.000000 2.000000 -5.778776E+01
30.000000 0.000000 -8.748933E+01
30.000000 -2.000000 -9.617982E+01
30.000000 -4.000000 -9.447313E+01
30.000000 -6.000000 -9.703333E+01
30.000000 -8.000000 -1.077667E+02
30.000000 -10.000000 -1.151262E+02
30.000000 -12.000000 -1.041151E+02
30.000000 -14.000000 -7.504024E+01
30.000000 -16.000000 -4.259141E+01
30.000000 -18.000000 -2.539509E+01
30.000000 -20.000000 -2.310203E+01
30.000000 -22.000000 -2.308284E+01
30.000000 -24.000000 -1.429562E+01
30.000000 -26.000000 -1.357915E+00
30.000000 -28.000000 2.126303E+00
30.000000 -30.000000 -7.164253E+00
30.000000 -32.000000 -2.320177E+01
30.000000 -34.000000 -3.177836E+01
30.000000 -36.000000 -2.923150E+01
30.000000 -38.000000 -2.632618E+01
30.000000 -40.000000 -2.635543E+01
32.000000 40.000000 -9.508319E+01
32.000000 38.000000 -8.706936E+01
32.000000 36.000000 -6.013887E+01
32.000000 34.000000 -1.366800E+01
32.000000 32.000000 2.828686E+01
32.000000 30.000000 3.757112E+01
32.000000 28.000000 1.298859E+01
32.000000 26.000000 -2.259255E+01
32.000000 24.000000 -5.109554E+01
32.000000 22.000000 -4.624238E+01
32.000000 20.000000 -1.639776E+01
32.000000 18.000000 2.433911E+01
32.000000 16.000000 5.909195E+01
32.000000 14.000000 8.758161E+01
32.000000 12.000000 9.915607E+01
32.000000 10.000000 9.172082E+01
32.000000 8.000000 6.739043E+01
32.000000 6.000000 3.306288E+01
32.000000 4.000000 -2.454753E+01
32.000000 2.000000 -8.053390E+01
32.000000 0.000000 -1.132040E+02
32.000000 -2.000000 -1.115610E+02
32.000000 -4.000000 -9.589414E+01
32.000000 -6.000000 -9.172002E+01
32.000000 -8.000000 -1.062622E+02
32.000000 -10.000000 -1.233690E+02
32.000000 -12.000000 -1.167289E+02
32.000000 -14.000000 -8.726970E+01
32.000000 -16.000000 -5.196543E+01
32.000000 -18.000000 -3.578213E+01
32.000000 -20.000000 -3.638585E+01
32.000000 -22.000000 -3.511015E+01
32.000000 -24.000000 -2.193183E+01
32.000000 -26.000000 -5.420159E+00
32.000000 -28.000000 1.657309E+00
32.000000 -30.000000 -2.354852E+00
32.000000 -32.000000 -1.448509E+01
32.000000 -34.000000 -2.216103E+01
32.000000 -36.000000 -2.132842E+01
32.000000 -38.000000 -2.191904E+01
32.000000 -40.000000 -2.474554E+01
34.000000 40.000000 -8.863656E+01
34.000000 38.000000 -8.057653E+01
34.000000 36.000000 -5.595681E+01
34.000000 34.000000 -1.243021E+01
34.000000 32.000000 2.809252E+01
34.000000 30.000000 3.619616E+01
34.000000 28.000000 1.176354E+01
34.000000 26.000000 -2.325830E+01
34.000000 24.000000 -5.252289E+01
34.000000 22.000000 -5.237274E+01
34.000000 20.000000 -3.129578E+01
34.000000 18.000000 1.555050E+00
34.000000 16.000000 3.565835E+01
34.000000 14.000000 7.072301E+01
34.000000 12.000000 9.538307E+01
34.000000 10.000000 1.003264E+02
34.000000 8.000000 7.836643E+01
34.000000 6.000000 3.969485E+01
34.000000 4.000000 -2.484891E+01
34.000000 2.000000 -8.526503E+01
34.000000 0.000000 -1.149676E+02
34.000000 -2.000000 -1.036696E+02
34.000000 -4.000000 -7.721646E+01
34.000000 -6.000000 -6.839783E+01
34.000000 -8.000000 -8.814786E+01
34.000000 -10.000000 -1.165873E+02
34.000000 -12.000000 -1.204671E+02
34.000000 -14.000000 -9.615346E+01
34.000000 -16.000000 -6.093602E+01
34.000000 -18.000000 -4.242669E+01
34.000000 -20.000000 -4.071212E+01
34.000000 -22.000000 -3.676213E+01
34.000000 -24.000000 -2.047250E+01
34.000000 -26.000000 -2.224391E+00
34.000000 -28.000000 8.125173E+00
34.000000 -30.000000 8.964131E+00
34.000000 -32.000000 -1.462363E+00
34.000000 -34.000000 -1.129720E+01
34.000000 -36.000000 -1.522717E+01
34.000000 -38.000000 -1.998974E+01
34.000000 -40.000000 -2.519821E+01
36.000000 40.000000 -7.805650E+01
36.000000 38.000000 -7.114290E+01
36.000000 36.000000 -5.008213E+01
36.000000 34.000000 -1.440002E+01
36.000000 32.000000 1.929434E+01
36.000000 30.000000 2.540525E+01
36.000000 28.000000 4.827442E+00
36.000000 26.000000 -2.382924E+01
36.000000 24.000000 -4.894389E+01
36.000000 22.000000 -5.379135E+01
36.000000 20.000000 -4.459123E+01
36.000000 18.000000 -2.478120E+01
36.000000 16.000000 4.375637E+00
36.000000 14.000000 3.932383E+01
36.000000 12.000000 6.976595E+01
36.000000 10.000000 8.226479E+01
36.000000 8.000000 6.793903E+01
36.000000 6.000000 3.493851E+01
36.000000 4.000000 -2.091623E+01
36.000000 2.000000 -7.187608E+01
36.000000 0.000000 -9.423349E+01
36.000000 -2.000000 -7.653355E+01
36.000000 -4.000000 -4.324394E+01
36.000000 -6.000000 -3.218345E+01
36.000000 -8.000000 -5.547137E+01
36.000000 -10.000000 -9.094706E+01
36.000000 -12.000000 -1.069086E+02
36.000000 -14.000000 -9.368290E+01
36.000000 -16.000000 -6.562054E+01
36.000000 -18.000000 -4.693301E+01
36.000000 -20.000000 -4.064530E+01
36.000000 -22.000000 -3.252848E+01
36.000000 -24.000000 -1.302301E+01
36.000000 -26.000000 7.749609E+00
36.000000 -28.000000 1.963174E+01
36.000000 -30.000000 2.126796E+01
36.000000 -32.000000 9.096783E+00
36.000000 -34.000000 -4.168001E+00
36.000000 -36.000000 -1.263224E+01
36.000000 -38.000000 -1.940010E+01
36.000000 -40.000000 -2.554034E+01
38.000000 40.000000 -6.585714E+01
38.000000 38.000000 -6.039114E+01
38.000000 36.000000 -4.431959E+01
38.000000 34.000000 -2.032081E+01
38.000000 32.000000 4.314163E+00
38.000000 30.000000 1.072917E+01
38.000000 28.000000 -2.586207E+00
38.000000 26.000000 -2.262684E+01
38.000000 24.000000 -4.070910E+01
38.000000 22.000000 -4.743957E+01
38.000000 20.000000 -4.694510E+01
38.000000 18.000000 -3.987272E+01
38.000000 16.000000 -1.918517E+01
38.000000 14.000000 1.078057E+01
38.000000 12.000000 3.943694E+01
38.000000 10.000000 5.319982E+01
38.000000 8.000000 4.507569E+01
38.000000 6.000000 2.155717E+01
38.000000 4.000000 -1.704384E+01
38.000000 2.000000 -4.989108E+01
38.000000 0.000000 -6.106587E+01
38.000000 -2.000000 -4.059258E+01
38.000000 -4.000000 -6.121316E+00
38.000000 -6.000000 3.288995E+00
38.000000 -8.000000 -2.145395E+01
38.000000 -10.000000 -5.790986E+01
38.000000 -12.000000 -8.279498E+01
38.000000 -14.000000 -8.218989E+01
38.000000 -16.000000 -6.552383E+01
38.000000 -18.000000 -5.036107E+01
38.000000 -20.000000 -3.991318E+01
38.000000 -22.000000 -2.637635E+01
38.000000 -24.000000 -2.796900E+00
38.000000 -26.000000 2.021993E+01
38.000000 -28.000000 3.329989E+01
38.000000 -30.000000 3.332741E+01
38.000000 -32.000000 1.636676E+01
38.000000 -34.000000 -1.888224E+00
38.000000 -36.000000 -1.380275E+01
38.000000 -38.000000 -1.998923E+01
38.000000 -40.000000 -2.488789E+01
40.000000 40.000000 -5.618666E+01
40.000000 38.000000 -5.138154E+01
40.000000 36.000000 -3.925362E+01
40.000000 34.000000 -2.481639E+01
40.000000 32.000000 -6.714563E+00
40.000000 30.000000 2.201075E+00
40.000000 28.000000 -4.640123E+00
40.000000 26.000000 -1.925655E+01
40.000000 24.000000 -3.218038E+01
40.000000 22.000000 -3.795425E+01
40.000000 20.000000 -3.941526E+01
40.000000 18.000000 -3.841848E+01
40.000000 16.000000 -2.360786E+01
40.000000 14.000000 1.285548E+00
40.000000 12.000000 2.231828E+01
40.000000 10.000000 2.726010E+01
40.000000 8.000000 1.703323E+01
40.000000 6.000000 6.293297E-02
40.000000 4.000000 -1.878853E+01
40.000000 2.000000 -2.833474E+01
40.000000 0.000000 -2.306258E+01
40.000000 -2.000000 -2.323842E+00
40.000000 -4.000000 2.389722E+01
40.000000 -6.000000 2.511065E+01
40.000000 -8.000000 -4.633732E-01
40.000000 -10.000000 -3.387157E+01
40.000000 -12.000000 -6.145320E+01
40.000000 -14.000000 -6.901835E+01
40.000000 -16.000000 -6.171998E+01
40.000000 -18.000000 -5.193355E+01
40.000000 -20.000000 -4.023646E+01
40.000000 -22.000000 -2.055146E+01
40.000000 -24.000000 8.471860E+00
40.000000 -26.000000 3.224615E+01
40.000000 -28.000000 4.478871E+01
40.000000 -30.000000 4.192132E+01
40.000000 -32.000000 2.051319E+01
40.000000 -34.000000 -8.927903E-01
40.000000 -36.000000 -1.493238E+01
40.000000 -38.000000 -2.091979E+01
40.000000 -40.000000 -2.490017E+01
42.000000 40.000000 -5.145724E+01
42.000000 38.000000 -4.673103E+01
42.000000 36.000000 -3.530140E+01
42.000000 34.000000 -2.125094E+01
42.000000 32.000000 -3.041627E+00
42.000000 30.000000 6.855471E+00
42.000000 28.000000 1.003639E+00
42.000000 26.000000 -1.271106E+01
42.000000 24.000000 -2.362428E+01
42.000000 22.000000 -2.795233E+01
42.000000 20.000000 -2.891801E+01
42.000000 18.000000 -2.936303E+01
42.000000 16.000000 -1.745696E+01
42.000000 14.000000 4.060779E+00
42.000000 12.000000 1.910304E+01
42.000000 10.000000 1.587303E+01
42.000000 8.000000 2.800746E+00
42.000000 6.000000 -1.017045E+01
42.000000 4.000000 -1.600789E+01
42.000000 2.000000 -1.071419E+01
42.000000 0.000000 3.451911E+00
42.000000 -2.000000 2.028108E+01
42.000000 -4.000000 3.442906E+01
42.000000 -6.000000 2.659240E+01
42.000000 -8.000000 1.873971E+00
42.000000 -10.000000 -2.585094E+01
42.000000 -12.000000 -4.994991E+01
42.000000 -14.000000 -6.012534E+01
42.000000 -16.000000 -5.915531E+01
42.000000 -18.000000 -5.488458E+01
42.000000 -20.000000 -4.372957E+01
42.000000 -22.000000 -1.819469E+01
42.000000 -24.000000 1.809595E+01
42.000000 -26.000000 4.452297E+01
42.000000 -28.000000 5.260400E+01
42.000000 -30.000000 4.491363E+01
42.000000 -32.000000 2.233689E+01
42.000000 -34.000000 1.340839E+00
42.000000 -36.000000 -1.341809E+01
42.000000 -38.000000 -2.084502E+01
42.000000 -40.000000 -2.593485E+01
44.000000 40.000000 -4.981519E+01
44.000000 38.000000 -4.494087E+01
44.000000 36.000000 -3.242058E+01
44.000000 34.000000 -1.134060E+01
44.000000 32.000000 1.261754E+01
44.000000 30.000000 2.237468E+01
44.000000 28.000000 1.368738E+01
44.000000 26.000000 -2.627273E+00
44.000000 24.000000 -1.367150E+01
44.000000 22.000000 -1.602851E+01
44.000000 20.000000 -1.774865E+01
44.000000 18.000000 -2.142908E+01
44.000000 16.000000 -1.296147E+01
44.000000 14.000000 7.423805E+00
44.000000 12.000000 2.300511E+01
44.000000 10.000000 2.239228E+01
44.000000 8.000000 1.140739E+01
44.000000 6.000000 1.452952E+00
44.000000 4.000000 -3.798137E+00
44.000000 2.000000 2.825403E-02
44.000000 0.000000 1.040177E+01
44.000000 -2.000000 1.927885E+01
44.000000 -4.000000 2.092376E+01
44.000000 -6.000000 7.682751E+00
44.000000 -8.000000 -1.162471E+01
44.000000 -10.000000 -2.966521E+01
44.000000 -12.000000 -4.489058E+01
44.000000 -14.000000 -5.405750E+01
44.000000 -16.000000 -5.789626E+01
44.000000 -18.000000 -5.872174E+01
44.000000 -20.000000 -4.856618E+01
44.000000 -22.000000 -2.019482E+01
44.000000 -24.000000 2.068180E+01
44.000000 -26.000000 4.877923E+01
44.000000 -28.000000 5.248819E+01
44.000000 -30.000000 4.158929E+01
44.000000 -32.000000 2.065092E+01
44.000000 -34.000000 2.388024E+00
44.000000 -36.000000 -1.102724E+01
44.000000 -38.000000 -1.853050E+01
44.000000 -40.000000 -2.431452E+01
46.000000 40.000000 -4.809294E+01
46.000000 38.000000 -4.282890E+01
46.000000 36.000000 -3.010385E+01
46.000000 34.000000 -3.171124E+00
46.000000 32.000000 2.651037E+01
46.000000 30.000000 3.849113E+01
46.000000 28.000000 2.857390E+01
46.000000 26.000000 9.379935E+00
46.000000 24.000000 -1.376288E+00
46.000000 22.000000 -2.140176E+00
46.000000 20.000000 -3.538874E+00
46.000000 18.000000 -9.360947E+00
46.000000 16.000000 -5.004719E+00
46.000000 14.000000 1.262580E+01
46.000000 12.000000 2.894546E+01
46.000000 10.000000 3.317572E+01
46.000000 8.000000 2.437570E+01
46.000000 6.000000 1.545121E+01
46.000000 4.000000 5.635186E+00
46.000000 2.000000 2.025645E+00
46.000000 0.000000 5.640855E+00
46.000000 -2.000000 7.542958E+00
46.000000 -4.000000 -1.282001E-01
46.000000 -6.000000 -1.631342E+01
46.000000 -8.000000 -2.982912E+01
46.000000 -10.000000 -3.960711E+01
46.000000 -12.000000 -4.331192E+01
46.000000 -14.000000 -4.702075E+01
46.000000 -16.000000 -5.262016E+01
46.000000 -18.000000 -5.854443E+01
46.000000 -20.000000 -5.121544E+01
46.000000 -22.000000 -2.472230E+01
46.000000 -24.000000 1.360160E+01
46.000000 -26.000000 3.919324E+01
46.000000 -28.000000 4.080505E+01
46.000000 -30.000000 2.993090E+01
46.000000 -32.000000 1.264063E+01
46.000000 -34.000000 -1.008778E-01
46.000000 -36.000000 -8.553070E+00
46.000000 -38.000000 -1.392823E+01
46.000000 -40.000000 -1.888853E+01
48.000000 40.000000 -4.586107E+01
48.000000 38.000000 -3.995776E+01
48.000000 36.000000 -2.800116E+01
48.000000 34.000000 -3.629951E-01
48.000000 32.000000 3.162956E+01
48.000000 30.000000 4.697016E+01
48.000000 28.000000 3.961894E+01
48.000000 26.000000 2.131309E+01
48.000000 24.000000 1.135948E+01
48.000000 22.000000 1.086672E+01
48.000000 20.000000 1.232577E+01
48.000000 18.000000 9.398566E+00
48.000000 16.000000 1.134090E+01
48.000000 14.000000 2.078052E+01
48.000000 12.000000 2.949137E+01
48.000000 10.000000 2.958050E+01
48.000000 8.000000 2.086516E+01
48.000000 6.000000 1.299586E+01
48.000000 4.000000 3.915502E+00
48.000000 2.000000 -5.627990E-01
48.000000 0.000000 1.636323E+00
48.000000 -2.000000 2.053078E+00
48.000000 -4.000000 -6.820454E+00
48.000000 -6.000000 -2.287813E+01
48.000000 -8.000000 -3.459993E+01
48.000000 -10.000000 -4.228039E+01
48.000000 -12.000000 -4.110276E+01
48.000000 -14.000000 -4.080992E+01
48.000000 -16.000000 -4.590417E+01
48.000000 -18.000000 -5.533414E+01
48.000000 -20.000000 -5.195571E+01
48.000000 -22.000000 -3.102953E+01
48.000000 -24.000000 -1.297939E+00
48.000000 -26.000000 1.874879E+01
48.000000 -28.000000 1.886283E+01
48.000000 -30.000000 1.000600E+01
48.000000 -32.000000 -1.098850E+00
48.000000 -34.000000 -5.122235E+00
48.000000 -36.000000 -5.501242E+00
48.000000 -38.000000 -8.045470E+00
48.000000 -40.000000 -1.168425E+01
50.000000 40.000000 -4.341815E+01
50.000000 38.000000 -3.705873E+01
50.000000 36.000000 -2.666473E+01
50.000000 34.000000 -2.620096E+00
50.000000 32.000000 2.820612E+01
50.000000 30.000000 4.596024E+01
50.000000 28.000000 4.357941E+01
50.000000 26.000000 2.904637E+01
50.000000 24.000000 1.822104E+01
50.000000 22.000000 1.802531E+01
50.000000 20.000000 2.299913E+01
50.000000 18.000000 2.599097E+01
50.000000 16.000000 3.035756E+01
50.000000 14.000000 3.205831E+01
50.000000 12.000000 2.819890E+01
50.000000 10.000000 1.701569E+01
50.000000 8.000000 5.118872E+00
50.000000 6.000000 -2.846418E+00
50.000000 4.000000 -7.444965E+00
50.000000 2.000000 -6.843217E+00
50.000000 0.000000 1.341667E-01
50.000000 -2.000000 7.003723E+00
50.000000 -4.000000 5.537093E+00
50.000000 -6.000000 -5.572928E+00
50.000000 -8.000000 -1.767388E+01
50.000000 -10.000000 -2.785536E+01
50.000000 -12.000000 -3.380232E+01
50.000000 -14.000000 -3.796166E+01
50.000000 -16.000000 -4.196829E+01
50.000000 -18.000000 -5.017567E+01
50.000000 -20.000000 -5.071899E+01
50.000000 -22.000000 -3.812142E+01
50.000000 -24.000000 -1.937402E+01
50.000000 -26.000000 -6.873995E+00
50.000000 -28.000000 -7.956887E+00
50.000000 -30.000000 -1.315440E+01
50.000000 -32.000000 -1.581408E+01
50.000000 -34.000000 -1.057311E+01
50.000000 -36.000000 -2.993117E+00
50.000000 -38.000000 -1.902481E+00
50.000000 -40.000000 -4.043670E+00
52.000000 40.000000 -3.951257E+01
52.000000 38.000000 -3.415606E+01
52.000000 36.000000 -2.790012E+01
52.000000 34.000000 -1.054833E+01
52.000000 32.000000 1.651202E+01
52.000000 30.000000 3.539530E+01
52.000000 28.000000 3.759478E+01
52.000000 26.000000 2.647309E+01
52.000000 24.000000 1.566800E+01
52.000000 22.000000 1.721383E+01
52.000000 20.000000 2.591332E+01
52.000000 18.000000 3.670782E+01
52.000000 16.000000 4.908584E+01
52.000000 14.000000 5.044123E+01
52.000000 12.000000 3.493204E+01
52.000000 10.000000 8.997168E+00
52.000000 8.000000 -9.419428E+00
52.000000 6.000000 -1.750788E+01
52.000000 4.000000 -1.641581E+01
52.000000 2.000000 -1.044225E+01
52.000000 0.000000 1.529777E+00
52.000000 -2.000000 1.697112E+01
52.000000 -4.000000 2.521525E+01
52.000000 -6.000000 2.005515E+01
52.000000 -8.000000 5.112334E+00
52.000000 -10.000000 -1.095925E+01
52.000000 -12.000000 -2.684098E+01
52.000000 -14.000000 -3.624988E+01
52.000000 -16.000000 -3.771862E+01
52.000000 -18.000000 -4.075846E+01
52.000000 -20.000000 -4.309860E+01
52.000000 -22.000000 -3.901180E+01
52.000000 -24.000000 -3.227797E+01
52.000000 -26.000000 -2.859196E+01
52.000000 -28.000000 -2.993592E+01
52.000000 -30.000000 -3.114038E+01
52.000000 -32.000000 -2.662347E+01
52.000000 -34.000000 -1.506879E+01
52.000000 -36.000000 -2.345314E+00
52.000000 -38.000000 1.869898E+00
52.000000 -40.000000 1.167414E+00
54.000000 40.000000 -3.552600E+01
54.000000 38.000000 -3.320601E+01
54.000000 36.000000 -3.241307E+01
54.000000 34.000000 -2.258762E+01
54.000000 32.000000 -3.503008E-01
54.000000 30.000000 1.835963E+01
54.000000 28.000000 2.358097E+01
54.000000 26.000000 1.652838E+01
54.000000 24.000000 9.428406E+00
54.000000 22.000000 1.339799E+01
54.000000 20.000000 2.482880E+01
54.000000 18.000000 4.219198E+01
54.000000 16.000000 6.234220E+01
54.000000 14.000000 6.878139E+01
54.000000 12.000000 4.800162E+01
54.000000 10.000000 1.161828E+01
54.000000 8.000000 -1.301385E+01
54.000000 6.000000 -2.159039E+01
54.000000 4.000000 -1.719896E+01
54.000000 2.000000 -6.520472E+00
54.000000 0.000000 9.820757E+00
54.000000 -2.000000 2.922076E+01
54.000000 -4.000000 4.306705E+01
54.000000 -6.000000 3.836946E+01
54.000000 -8.000000 1.646340E+01
54.000000 -10.000000 -7.331322E+00
54.000000 -12.000000 -2.946779E+01
54.000000 -14.000000 -3.841257E+01
54.000000 -16.000000 -3.317239E+01
54.000000 -18.000000 -2.765928E+01
54.000000 -20.000000 -2.616764E+01
54.000000 -22.000000 -2.644358E+01
54.000000 -24.000000 -2.989331E+01
54.000000 -26.000000 -3.483970E+01
54.000000 -28.000000 -3.782738E+01
54.000000 -30.000000 -3.743182E+01
54.000000 -32.000000 -3.097248E+01
54.000000 -34.000000 -1.798546E+01
54.000000 -36.000000 -4.756563E+00
54.000000 -38.000000 -2.759981E-01
54.000000 -40.000000 2.226059E-01
56.000000 40.000000 -3.332681E+01
56.000000 38.000000 -3.440774E+01
56.000000 36.000000 -3.630935E+01
56.000000 34.000000 -3.212046E+01
56.000000 32.000000 -1.467168E+01
56.000000 30.000000 3.102483E+00
56.000000 28.000000 1.079855E+01
56.000000 26.000000 1.048566E+01
56.000000 24.000000 9.250048E+00
56.000000 22.000000 1.323554E+01
56.000000 20.000000 2.216254E+01
56.000000 18.000000 3.911315E+01
56.000000 16.000000 6.183849E+01
56.000000 14.000000 7.358080E+01
56.000000 12.000000 5.782175E+01
56.000000 10.000000 2.420990E+01
56.000000 8.000000 -2.538460E+00
56.000000 6.000000 -1.286222E+01
56.000000 4.000000 -8.755392E+00
56.000000 2.000000 3.528830E+00
56.000000 0.000000 1.966639E+01
56.000000 -2.000000 3.602990E+01
56.000000 -4.000000 4.832638E+01
56.000000 -6.000000 4.088637E+01
56.000000 -8.000000 1.432631E+01
56.000000 -10.000000 -1.643244E+01
56.000000 -12.000000 -3.954905E+01
56.000000 -14.000000 -4.194831E+01
56.000000 -16.000000 -2.653564E+01
56.000000 -18.000000 -1.059039E+01
56.000000 -20.000000 -1.907460E+00
56.000000 -22.000000 -1.476697E+00
56.000000 -24.000000 -9.625461E+00
56.000000 -26.000000 -2.307699E+01
56.000000 -28.000000 -2.962781E+01
56.000000 -30.000000 -3.170444E+01
56.000000 -32.000000 -2.874186E+01
56.000000 -34.000000 -1.903802E+01
56.000000 -36.000000 -9.532635E+00
56.000000 -38.000000 -5.799409E+00
56.000000 -40.000000 -4.427831E+00
58.000000 40.000000 -3.192845E+01
58.000000 38.000000 -3.567703E+01
58.000000 36.000000 -4.002753E+01
58.000000 34.000000 -3.855168E+01
58.000000 32.000000 -2.228413E+01
58.000000 30.000000 -3.228585E+00
58.000000 28.000000 8.037433E+00
58.000000 26.000000 1.283825E+01
58.000000 24.000000 1.433661E+01
58.000000 22.000000 1.702204E+01
58.000000 20.000000 2.154923E+01
58.000000 18.000000 3.338137E+01
58.000000 16.000000 5.217977E+01
58.000000 14.000000 6.482545E+01
58.000000 12.000000 5.777491E+01
58.000000 10.000000 3.572739E+01
58.000000 8.000000 1.397841E+01
58.000000 6.000000 4.465717E+00
58.000000 4.000000 7.131315E+00
58.000000 2.000000 1.587336E+01
58.000000 0.000000 2.630648E+01
58.000000 -2.000000 3.493997E+01
58.000000 -4.000000 4.116491E+01
58.000000 -6.000000 3.194885E+01
58.000000 -8.000000 7.677385E+00
58.000000 -10.000000 -2.283114E+01
58.000000 -12.000000 -4.159174E+01
58.000000 -14.000000 -3.902982E+01
58.000000 -16.000000 -1.904741E+01
58.000000 -18.000000 2.005613E+00
58.000000 -20.000000 1.483538E+01
58.000000 -22.000000 1.730496E+01
58.000000 -24.000000 8.212680E+00
58.000000 -26.000000 -4.975292E+00
58.000000 -28.000000 -1.763681E+01
58.000000 -30.000000 -2.338121E+01
58.000000 -32.000000 -2.485649E+01
58.000000 -34.000000 -2.036774E+01
58.000000 -36.000000 -1.580185E+01
58.000000 -38.000000 -1.268773E+01
58.000000 -40.000000 -1.060700E+01
60.000000 40.000000 -3.228738E+01
60.000000 38.000000 -3.660282E+01
60.000000 36.000000 -4.128015E+01
60.000000 34.000000 -4.088961E+01
60.000000 32.000000 -2.608753E+01
60.000000 30.000000 -5.245145E+00
60.000000 28.000000 1.020152E+01
60.000000 26.000000 1.772606E+01
60.000000 24.000000 2.027413E+01
60.000000 22.000000 2.016575E+01
60.000000 20.000000 1.954755E+01
60.000000 18.000000 2.561781E+01
60.000000 16.000000 4.141182E+01
60.000000 14.000000 5.472556E+01
60.000000 12.000000 5.461809E+01
60.000000 10.000000 4.233594E+01
60.000000 8.000000 2.749431E+01
60.000000 6.000000 2.174034E+01
60.000000 4.000000 2.482782E+01
60.000000 2.000000 2.940081E+01
