-12.000000 4.000000 -4.226182E+01
-12.000000 2.000000 -1.049812E+01
-12.000000 0.000000 1.624428E+00
-12.000000 -2.000000 7.305771E+00
-12.000000 -4.000000 1.383109E+01
-12.000000 -6.000000 2.686988E+01
-12.000000 -8.000000 3.734949E+01
-12.000000 -10.000000 4.656045E+01
-12.000000 -12.000000 5.152909E+01
-12.000000 -14.000000 5.446131E+01
-12.000000 -16.000000 5.214127E+01
-12.000000 -18.000000 4.760460E+01
-12.000000 -20.000000 4.273524E+01
-12.000000 -22.000000 4.229580E+01
-12.000000 -24.000000 4.132118E+01
-12.000000 -26.000000 3.681336E+01
-12.000000 -28.000000 3.141862E+01
-12.000000 -30.000000 2.879226E+01
-12.000000 -32.000000 2.375117E+01
-12.000000 -34.000000 1.779778E+01
-12.000000 -36.000000 1.738978E+01
-12.000000 -38.000000 1.812344E+01
-12.000000 -40.000000 1.805152E+01
-10.000000 40.000000 4.422284E+01
-10.000000 38.000000 3.800768E+01
-10.000000 36.000000 3.284230E+01
-10.000000 34.000000 2.844565E+01
-10.000000 32.000000 1.976999E+01
-10.000000 30.000000 4.689857E+00
-10.000000 28.000000 -1.793747E+01
-10.000000 26.000000 -3.611374E+01
-10.000000 24.000000 -5.193458E+01
-10.000000 22.000000 -6.153317E+01
-10.000000 20.000000 -6.363841E+01
-10.000000 18.000000 -5.579257E+01
-10.000000 16.000000 -4.808869E+01
-10.000000 14.000000 -6.163907E+01
-10.000000 12.000000 -9.594120E+01
-10.000000 10.000000 -1.326608E+02
-10.000000 8.000000 -1.286197E+02
-10.000000 6.000000 -9.177927E+01
-10.000000 4.000000 -3.433311E+01
-10.000000 2.000000 2.382439E+00
-10.000000 0.000000 1.782373E+01
-10.000000 -2.000000 2.477411E+01
-10.000000 -4.000000 3.082901E+01
-10.000000 -6.000000 3.829607E+01
-10.000000 -8.000000 4.587430E+01
-10.000000 -10.000000 5.370702E+01
-10.000000 -12.000000 5.381037E+01
-10.000000 -14.000000 5.202943E+01
-10.000000 -16.000000 4.896383E+01
-10.000000 -18.000000 4.673910E+01
-10.000000 -20.000000 4.362747E+01
-10.000000 -22.000000 4.421650E+01
-10.000000 -24.000000 4.193782E+01
-10.000000 -26.000000 3.572346E+01
-10.000000 -28.000000 2.875708E+01
-10.000000 -30.000000 2.537570E+01
-10.000000 -32.000000 2.013914E+01
-10.000000 -34.000000 1.407590E+01
-10.000000 -36.000000 1.404028E+01
-10.000000 -38.000000 1.562252E+01
-10.000000 -40.000000 1.682722E+01
-8.000000 40.000000 6.194940E+01
-8.000000 38.000000 5.786393E+01
-8.000000 36.000000 5.117093E+01
-8.000000 34.000000 3.862387E+01
-8.000000 32.000000 1.853075E+01
-8.000000 30.000000 -6.832924E+00
-8.000000 28.000000 -3.664087E+01
-8.000000 26.000000 -5.864717E+01
-8.000000 24.000000 -7.534510E+01
-8.000000 22.000000 -7.706378E+01
-8.000000 20.000000 -6.856145E+01
-8.000000 18.000000 -4.636902E+01
-8.000000 16.000000 -2.928366E+01
-8.000000 14.000000 -3.873596E+01
-8.000000 12.000000 -6.940202E+01
-8.000000 10.000000 -1.019681E+02
-8.000000 8.000000 -1.004727E+02
-8.000000 6.000000 -6.851275E+01
-8.000000 4.000000 -1.993782E+01
-8.000000 2.000000 1.191042E+01
-8.000000 0.000000 2.671711E+01
-8.000000 -2.000000 3.531858E+01
-8.000000 -4.000000 4.072612E+01
-8.000000 -6.000000 4.068486E+01
-8.000000 -8.000000 4.391718E+01
-8.000000 -10.000000 4.815867E+01
-8.000000 -12.000000 4.525386E+01
-8.000000 -14.000000 3.968289E+01
-8.000000 -16.000000 3.757964E+01
-8.000000 -18.000000 3.872140E+01
-8.000000 -20.000000 3.754019E+01
-8.000000 -22.000000 3.847635E+01
-8.000000 -24.000000 3.642206E+01
-8.000000 -26.000000 3.125002E+01
-8.000000 -28.000000 2.461454E+01
-8.000000 -30.000000 2.102433E+01
-8.000000 -32.000000 1.720858E+01
-8.000000 -34.000000 1.254527E+01
-8.000000 -36.000000 1.331050E+01
-8.000000 -38.000000 1.613792E+01
-8.000000 -40.000000 1.799549E+01
-6.000000 40.000000 7.837128E+01
-6.000000 38.000000 7.645190E+01
-6.000000 36.000000 6.672773E+01
-6.000000 34.000000 4.456618E+01
-6.000000 32.000000 1.484032E+01
-6.000000 30.000000 -1.701011E+01
-6.000000 28.000000 -5.040005E+01
-6.000000 26.000000 -7.298049E+01
-6.000000 24.000000 -8.637505E+01
-6.000000 22.000000 -7.919691E+01
-6.000000 20.000000 -6.078216E+01
-6.000000 18.000000 -2.627877E+01
-6.000000 16.000000 -2.350761E+00
-6.000000 14.000000 -8.117920E+00
-6.000000 12.000000 -3.358218E+01
-6.000000 10.000000 -5.846812E+01
-6.000000 8.000000 -5.744380E+01
-6.000000 6.000000 -3.275305E+01
-6.000000 4.000000 -8.386192E-01
-6.000000 2.000000 1.778686E+01
-6.000000 0.000000 2.680914E+01
-6.000000 -2.000000 3.342110E+01
-6.000000 -4.000000 3.616168E+01
-6.000000 -6.000000 3.279851E+01
-6.000000 -8.000000 3.370539E+01
-6.000000 -10.000000 3.464321E+01
-6.000000 -12.000000 3.029214E+01
-6.000000 -14.000000 2.473575E+01
-6.000000 -16.000000 2.381315E+01
-6.000000 -18.000000 2.639608E+01
-6.000000 -20.000000 2.857248E+01
-6.000000 -22.000000 2.934839E+01
-6.000000 -24.000000 2.737125E+01
-6.000000 -26.000000 2.471332E+01
-6.000000 -28.000000 2.034373E+01
-6.000000 -30.000000 1.755858E+01
-6.000000 -32.000000 1.601617E+01
-6.000000 -34.000000 1.382562E+01
-6.000000 -36.000000 1.531474E+01
-6.000000 -38.000000 1.912683E+01
-6.000000 -40.000000 2.128004E+01
-4.000000 40.000000 8.946608E+01
-4.000000 38.000000 8.776091E+01
-4.000000 36.000000 7.578015E+01
-4.000000 34.000000 4.751103E+01
-4.000000 32.000000 1.241834E+01
-4.000000 30.000000 -2.129481E+01
-4.000000 28.000000 -5.199526E+01
-4.000000 26.000000 -7.020356E+01
-4.000000 24.000000 -7.714839E+01
-4.000000 22.000000 -6.222742E+01
-4.000000 20.000000 -3.733953E+01
-4.000000 18.000000 -2.060524E+00
-4.000000 16.000000 1.784000E+01
-4.000000 14.000000 1.504007E+01
-4.000000 12.000000 -2.043217E+00
-4.000000 10.000000 -1.595932E+01
-4.000000 8.000000 -1.244578E+01
-4.000000 6.000000 3.284765E+00
-4.000000 4.000000 1.493076E+01
-4.000000 2.000000 1.647138E+01
-4.000000 0.000000 1.754949E+01
-4.000000 -2.000000 2.050363E+01
-4.000000 -4.000000 2.059673E+01
-4.000000 -6.000000 1.868925E+01
-4.000000 -8.000000 2.022084E+01
-4.000000 -10.000000 2.048299E+01
-4.000000 -12.000000 1.716163E+01
-4.000000 -14.000000 1.356035E+01
-4.000000 -16.000000 1.242354E+01
-4.000000 -18.000000 1.520553E+01
-4.000000 -20.000000 2.055432E+01
-4.000000 -22.000000 2.209540E+01
-4.000000 -24.000000 1.986193E+01
-4.000000 -26.000000 1.975084E+01
-4.000000 -28.000000 1.813933E+01
-4.000000 -30.000000 1.656734E+01
-4.000000 -32.000000 1.673515E+01
-4.000000 -34.000000 1.777150E+01
-4.000000 -36.000000 2.019006E+01
-4.000000 -38.000000 2.383506E+01
-4.000000 -40.000000 2.591243E+01
-2.000000 40.000000 9.503642E+01
-2.000000 38.000000 9.115706E+01
-2.000000 36.000000 7.750465E+01
-2.000000 34.000000 4.760029E+01
-2.000000 32.000000 1.238165E+01
-2.000000 30.000000 -1.859461E+01
-2.000000 28.000000 -4.265197E+01
-2.000000 26.000000 -5.376249E+01
-2.000000 24.000000 -5.182069E+01
-2.000000 22.000000 -3.300241E+01
-2.000000 20.000000 -8.396707E+00
-2.000000 18.000000 1.670308E+01
-2.000000 16.000000 2.710555E+01
-2.000000 14.000000 2.609784E+01
-2.000000 12.000000 1.790174E+01
-2.000000 10.000000 1.411397E+01
-2.000000 8.000000 1.993277E+01
-2.000000 6.000000 2.938307E+01
-2.000000 4.000000 2.526338E+01
-2.000000 2.000000 1.104998E+01
-2.000000 0.000000 3.865532E+00
-2.000000 -2.000000 4.386493E+00
-2.000000 -4.000000 5.393684E+00
-2.000000 -6.000000 5.405148E+00
-2.000000 -8.000000 7.964473E+00
-2.000000 -10.000000 9.997623E+00
-2.000000 -12.000000 1.093869E+01
-2.000000 -14.000000 9.495497E+00
-2.000000 -16.000000 6.079110E+00
-2.000000 -18.000000 8.667967E+00
-2.000000 -20.000000 1.628716E+01
-2.000000 -22.000000 1.927087E+01
-2.000000 -24.000000 1.712270E+01
-2.000000 -26.000000 1.867540E+01
-2.000000 -28.000000 1.931588E+01
-2.000000 -30.000000 1.898939E+01
-2.000000 -32.000000 2.052084E+01
-2.000000 -34.000000 2.546380E+01
-2.000000 -36.000000 2.899553E+01
-2.000000 -38.000000 3.041016E+01
-2.000000 -40.000000 3.053108E+01
0.000000 40.000000 9.796563E+01
0.000000 38.000000 8.922952E+01
0.000000 36.000000 7.214990E+01
0.000000 34.000000 4.326596E+01
0.000000 32.000000 1.242407E+01
0.000000 30.000000 -1.199731E+01
0.000000 28.000000 -2.874053E+01
0.000000 26.000000 -3.298302E+01
0.000000 24.000000 -2.222081E+01
0.000000 22.000000 -2.978275E+00
0.000000 20.000000 1.633500E+01
0.000000 18.000000 2.654882E+01
0.000000 16.000000 2.689864E+01
0.000000 14.000000 2.652359E+01
0.000000 12.000000 2.485862E+01
0.000000 10.000000 2.675007E+01
0.000000 8.000000 3.214344E+01
0.000000 6.000000 3.682382E+01
0.000000 4.000000 2.608368E+01
0.000000 2.000000 5.737148E+00
0.000000 0.000000 -6.224496E+00
0.000000 -2.000000 -7.387089E+00
0.000000 -4.000000 -4.925045E+00
0.000000 -6.000000 -2.771767E+00
0.000000 -8.000000 3.728466E-01
0.000000 -10.000000 4.469589E+00
0.000000 -12.000000 1.099772E+01
0.000000 -14.000000 1.239974E+01
0.000000 -16.000000 7.096244E+00
0.000000 -18.000000 8.301894E+00
0.000000 -20.000000 1.657289E+01
0.000000 -22.000000 2.103114E+01
0.000000 -24.000000 2.106363E+01
0.000000 -26.000000 2.327727E+01
0.000000 -28.000000 2.426190E+01
0.000000 -30.000000 2.588892E+01
0.000000 -32.000000 2.951433E+01
0.000000 -34.000000 3.811183E+01
0.000000 -36.000000 4.198738E+01
0.000000 -38.000000 3.853094E+01
0.000000 -40.000000 3.327272E+01
2.000000 40.000000 9.950158E+01
2.000000 38.000000 8.389689E+01
2.000000 36.000000 6.184420E+01
2.000000 34.000000 3.440637E+01
2.000000 32.000000 1.042974E+01
2.000000 30.000000 -5.279115E+00
2.000000 28.000000 -1.456006E+01
2.000000 26.000000 -1.413129E+01
2.000000 24.000000 1.261287E+00
2.000000 22.000000 1.724612E+01
2.000000 20.000000 2.750443E+01
2.000000 18.000000 2.469931E+01
2.000000 16.000000 1.894050E+01
2.000000 14.000000 1.940197E+01
2.000000 12.000000 2.144674E+01
2.000000 10.000000 2.208988E+01
2.000000 8.000000 2.143979E+01
2.000000 6.000000 2.068570E+01
2.000000 4.000000 1.338559E+01
2.000000 2.000000 1.709792E+00
2.000000 0.000000 -8.548551E+00
2.000000 -2.000000 -1.059613E+01
2.000000 -4.000000 -7.946585E+00
2.000000 -6.000000 -3.472597E+00
2.000000 -8.000000 -9.202437E-01
2.000000 -10.000000 3.895944E+00
2.000000 -12.000000 1.442048E+01
2.000000 -14.000000 1.965530E+01
2.000000 -16.000000 1.634184E+01
2.000000 -18.000000 1.539112E+01
2.000000 -20.000000 2.076129E+01
2.000000 -22.000000 2.682033E+01
2.000000 -24.000000 3.077540E+01
2.000000 -26.000000 3.368906E+01
2.000000 -28.000000 3.417641E+01
2.000000 -30.000000 3.795727E+01
2.000000 -32.000000 4.468757E+01
2.000000 -34.000000 5.484473E+01
2.000000 -36.000000 5.582525E+01
2.000000 -38.000000 4.547395E+01
2.000000 -40.000000 3.227128E+01
4.000000 40.000000 1.002481E+02
4.000000 38.000000 7.771195E+01
4.000000 36.000000 5.049776E+01
4.000000 34.000000 2.312608E+01
4.000000 32.000000 5.620911E+00
4.000000 30.000000 -1.592803E+00
4.000000 28.000000 -4.314268E+00
4.000000 26.000000 -2.441534E+00
4.000000 24.000000 1.160966E+01
4.000000 22.000000 2.123574E+01
4.000000 20.000000 2.155348E+01
4.000000 18.000000 1.089468E+01
4.000000 16.000000 3.690122E+00
4.000000 14.000000 5.232375E+00
4.000000 12.000000 7.881150E+00
4.000000 10.000000 1.798258E+00
4.000000 8.000000 -9.383990E+00
4.000000 6.000000 -1.427727E+01
4.000000 4.000000 -1.036994E+01
4.000000 2.000000 -4.267884E+00
4.000000 0.000000 -3.212068E+00
4.000000 -2.000000 -1.019656E+00
4.000000 -4.000000 1.412081E+00
4.000000 -6.000000 3.748695E+00
4.000000 -8.000000 4.691511E+00
4.000000 -10.000000 9.079618E+00
4.000000 -12.000000 2.061242E+01
4.000000 -14.000000 2.895985E+01
4.000000 -16.000000 2.993393E+01
4.000000 -18.000000 2.855203E+01
4.000000 -20.000000 2.992891E+01
4.000000 -22.000000 3.694469E+01
4.000000 -24.000000 4.379464E+01
4.000000 -26.000000 4.760117E+01
4.000000 -28.000000 4.808360E+01
4.000000 -30.000000 5.283597E+01
4.000000 -32.000000 6.248662E+01
4.000000 -34.000000 7.138877E+01
4.000000 -36.000000 6.632704E+01
4.000000 -38.000000 4.847637E+01
4.000000 -40.000000 2.660857E+01
6.000000 40.000000 1.004064E+02
6.000000 38.000000 7.395019E+01
6.000000 36.000000 4.268285E+01
6.000000 34.000000 1.273323E+01
6.000000 32.000000 -1.877371E+00
6.000000 30.000000 -4.117210E+00
6.000000 28.000000 -3.265402E+00
6.000000 26.000000 -2.287180E+00
6.000000 24.000000 5.456614E+00
6.000000 22.000000 7.596349E+00
6.000000 20.000000 1.574128E+00
6.000000 18.000000 -1.029215E+01
6.000000 16.000000 -1.718210E+01
6.000000 14.000000 -1.665354E+01
6.000000 12.000000 -1.726515E+01
6.000000 10.000000 -3.115067E+01
6.000000 8.000000 -5.104444E+01
6.000000 6.000000 -5.694431E+01
6.000000 4.000000 -3.758452E+01
6.000000 2.000000 -1.042905E+01
6.000000 0.000000 8.395636E+00
6.000000 -2.000000 2.069292E+01
6.000000 -4.000000 2.482472E+01
6.000000 -6.000000 2.162071E+01
6.000000 -8.000000 1.819106E+01
6.000000 -10.000000 1.948020E+01
6.000000 -12.000000 2.923857E+01
6.000000 -14.000000 4.008523E+01
6.000000 -16.000000 4.629812E+01
6.000000 -18.000000 4.649430E+01
6.000000 -20.000000 4.498521E+01
6.000000 -22.000000 4.932219E+01
6.000000 -24.000000 5.647754E+01
6.000000 -26.000000 6.122360E+01
6.000000 -28.000000 6.114819E+01
6.000000 -30.000000 6.467845E+01
6.000000 -32.000000 7.422467E+01
6.000000 -34.000000 8.089382E+01
6.000000 -36.000000 7.053665E+01
6.000000 -38.000000 4.599277E+01
6.000000 -40.000000 1.663568E+01
8.000000 40.000000 1.006102E+02
8.000000 38.000000 7.258736E+01
8.000000 36.000000 3.836143E+01
8.000000 34.000000 4.053622E+00
8.000000 32.000000 -1.160152E+01
8.000000 30.000000 -1.377866E+01
8.000000 28.000000 -1.368499E+01
8.000000 26.000000 -1.507174E+01
8.000000 24.000000 -1.396002E+01
8.000000 22.000000 -1.511410E+01
8.000000 20.000000 -2.321106E+01
8.000000 18.000000 -3.390212E+01
8.000000 16.000000 -4.019148E+01
8.000000 14.000000 -4.303594E+01
8.000000 12.000000 -4.959259E+01
8.000000 10.000000 -6.943922E+01
8.000000 8.000000 -8.959047E+01
8.000000 6.000000 -9.145552E+01
8.000000 4.000000 -5.996802E+01
8.000000 2.000000 -1.681000E+01
8.000000 0.000000 2.034938E+01
8.000000 -2.000000 4.741019E+01
8.000000 -4.000000 5.757022E+01
8.000000 -6.000000 5.025870E+01
8.000000 -8.000000 3.727658E+01
8.000000 -10.000000 3.165579E+01
8.000000 -12.000000 4.047382E+01
8.000000 -14.000000 5.578050E+01
8.000000 -16.000000 6.867306E+01
8.000000 -18.000000 7.020369E+01
8.000000 -20.000000 6.429571E+01
8.000000 -22.000000 6.000285E+01
8.000000 -24.000000 6.225773E+01
8.000000 -26.000000 6.685015E+01
8.000000 -28.000000 6.650791E+01
8.000000 -30.000000 6.757032E+01
8.000000 -32.000000 7.428242E+01
8.000000 -34.000000 7.820253E+01
8.000000 -36.000000 6.437384E+01
8.000000 -38.000000 3.640910E+01
8.000000 -40.000000 3.934139E+00
10.000000 40.000000 1.007524E+02
10.000000 38.000000 7.060995E+01
10.000000 36.000000 3.408762E+01
10.000000 34.000000 -3.980738E+00
10.000000 32.000000 -2.262703E+01
10.000000 30.000000 -2.784241E+01
10.000000 28.000000 -3.088872E+01
10.000000 26.000000 -3.400135E+01
10.000000 24.000000 -3.579849E+01
10.000000 22.000000 -3.553997E+01
10.000000 20.000000 -4.308395E+01
10.000000 18.000000 -5.180184E+01
10.000000 16.000000 -5.703099E+01
10.000000 14.000000 -6.413583E+01
10.000000 12.000000 -7.646747E+01
10.000000 10.000000 -9.978067E+01
10.000000 8.000000 -1.179245E+02
10.000000 6.000000 -1.155972E+02
10.000000 4.000000 -7.706362E+01
10.000000 2.000000 -2.323436E+01
10.000000 0.000000 2.955405E+01
10.000000 -2.000000 7.179457E+01
10.000000 -4.000000 8.981418E+01
10.000000 -6.000000 7.922848E+01
10.000000 -8.000000 5.566795E+01
10.000000 -10.000000 4.280119E+01
10.000000 -12.000000 5.468780E+01
10.000000 -14.000000 7.896316E+01
10.000000 -16.000000 9.802377E+01
10.000000 -18.000000 9.669260E+01
10.000000 -20.000000 8.148375E+01
10.000000 -22.000000 6.280831E+01
10.000000 -24.000000 5.407130E+01
10.000000 -26.000000 5.669543E+01
10.000000 -28.000000 5.879921E+01
10.000000 -30.000000 5.971003E+01
10.000000 -32.000000 6.260415E+01
10.000000 -34.000000 6.277590E+01
10.000000 -36.000000 4.631227E+01
10.000000 -38.000000 1.990369E+01
10.000000 -40.000000 -9.599051E+00
12.000000 40.000000 9.834751E+01
12.000000 38.000000 6.623779E+01
12.000000 36.000000 2.871010E+01
12.000000 34.000000 -1.204387E+01
12.000000 32.000000 -3.422027E+01
12.000000 30.000000 -4.246304E+01
12.000000 28.000000 -4.657830E+01
12.000000 26.000000 -4.771156E+01
12.000000 24.000000 -4.766028E+01
12.000000 22.000000 -4.361703E+01
12.000000 20.000000 -4.885933E+01
12.000000 18.000000 -5.509440E+01
12.000000 16.000000 -5.954648E+01
12.000000 14.000000 -6.997325E+01
12.000000 12.000000 -8.798749E+01
12.000000 10.000000 -1.142996E+02
12.000000 8.000000 -1.333775E+02
12.000000 6.000000 -1.317012E+02
12.000000 4.000000 -9.266153E+01
12.000000 2.000000 -3.184474E+01
12.000000 0.000000 3.343319E+01
12.000000 -2.000000 8.741362E+01
12.000000 -4.000000 1.132525E+02
12.000000 -6.000000 9.869032E+01
12.000000 -8.000000 6.663007E+01
12.000000 -10.000000 4.874515E+01
12.000000 -12.000000 6.830677E+01
12.000000 -14.000000 1.061941E+02
12.000000 -16.000000 1.298678E+02
12.000000 -18.000000 1.189008E+02
12.000000 -20.000000 8.700220E+01
12.000000 -22.000000 5.206963E+01
12.000000 -24.000000 3.243073E+01
12.000000 -26.000000 3.187545E+01
12.000000 -28.000000 3.803852E+01
12.000000 -30.000000 4.206352E+01
12.000000 -32.000000 4.147350E+01
12.000000 -34.000000 3.803191E+01
12.000000 -36.000000 2.197708E+01
12.000000 -38.000000 6.426468E-01
12.000000 -40.000000 -2.398301E+01
14.000000 40.000000 9.206386E+01
14.000000 38.000000 5.902556E+01
14.000000 36.000000 2.193002E+01
14.000000 34.000000 -2.027590E+01
14.000000 32.000000 -4.535377E+01
14.000000 30.000000 -5.430567E+01
14.000000 28.000000 -5.440332E+01
14.000000 26.000000 -4.819093E+01
14.000000 24.000000 -4.026890E+01
14.000000 22.000000 -3.274641E+01
14.000000 20.000000 -3.652325E+01
14.000000 18.000000 -4.035210E+01
14.000000 16.000000 -4.406699E+01
14.000000 14.000000 -5.744192E+01
14.000000 12.000000 -8.333298E+01
14.000000 10.000000 -1.161689E+02
14.000000 8.000000 -1.394128E+02
14.000000 6.000000 -1.408736E+02
14.000000 4.000000 -1.061516E+02
14.000000 2.000000 -4.633558E+01
14.000000 0.000000 2.500897E+01
14.000000 -2.000000 8.829347E+01
14.000000 -4.000000 1.214533E+02
14.000000 -6.000000 1.052084E+02
14.000000 -8.000000 6.922606E+01
14.000000 -10.000000 5.104756E+01
14.000000 -12.000000 8.075382E+01
14.000000 -14.000000 1.312788E+02
14.000000 -16.000000 1.574479E+02
14.000000 -18.000000 1.312838E+02
14.000000 -20.000000 7.627884E+01
14.000000 -22.000000 2.810245E+01
14.000000 -24.000000 2.307651E+00
14.000000 -26.000000 -3.466272E-01
14.000000 -28.000000 8.637346E+00
14.000000 -30.000000 1.660751E+01
14.000000 -32.000000 1.379166E+01
14.000000 -34.000000 8.717190E+00
14.000000 -36.000000 -2.972870E+00
14.000000 -38.000000 -1.776295E+01
14.000000 -40.000000 -3.867142E+01
16.000000 40.000000 8.377858E+01
16.000000 38.000000 4.926950E+01
16.000000 36.000000 1.267206E+01
16.000000 34.000000 -2.903106E+01
16.000000 32.000000 -5.378840E+01
16.000000 30.000000 -5.947759E+01
16.000000 28.000000 -5.105201E+01
16.000000 26.000000 -3.265288E+01
16.000000 24.000000 -1.195044E+01
16.000000 22.000000 -5.492216E+00
16.000000 20.000000 -1.118251E+01
16.000000 18.000000 -1.445538E+01
16.000000 16.000000 -1.711694E+01
16.000000 14.000000 -3.352354E+01
16.000000 12.000000 -6.861107E+01
16.000000 10.000000 -1.113330E+02
16.000000 8.000000 -1.414214E+02
16.000000 6.000000 -1.468859E+02
16.000000 4.000000 -1.191442E+02
16.000000 2.000000 -6.752958E+01
16.000000 0.000000 3.090219E+00
16.000000 -2.000000 7.234271E+01
16.000000 -4.000000 1.112195E+02
16.000000 -6.000000 9.850816E+01
16.000000 -8.000000 6.782761E+01
16.000000 -10.000000 5.761481E+01
16.000000 -12.000000 9.932345E+01
16.000000 -14.000000 1.568643E+02
16.000000 -16.000000 1.766606E+02
16.000000 -18.000000 1.303348E+02
16.000000 -20.000000 5.304667E+01
16.000000 -22.000000 -5.295825E+00
16.000000 -24.000000 -3.183578E+01
16.000000 -26.000000 -3.287839E+01
16.000000 -28.000000 -2.300132E+01
16.000000 -30.000000 -1.339450E+01
16.000000 -32.000000 -1.563351E+01
16.000000 -34.000000 -1.894925E+01
16.000000 -36.000000 -2.580981E+01
16.000000 -38.000000 -3.482522E+01
16.000000 -40.000000 -5.203775E+01
18.000000 40.000000 7.537967E+01
18.000000 38.000000 3.842417E+01
18.000000 36.000000 1.730349E+00
18.000000 34.000000 -3.680526E+01
18.000000 32.000000 -5.618488E+01
18.000000 30.000000 -5.379058E+01
18.000000 28.000000 -3.357976E+01
18.000000 26.000000 -3.050985E+00
18.000000 24.000000 2.575291E+01
18.000000 22.000000 2.428139E+01
18.000000 20.000000 1.372470E+01
18.000000 18.000000 9.586260E+00
18.000000 16.000000 8.166160E+00
18.000000 14.000000 -1.016601E+01
18.000000 12.000000 -5.246826E+01
18.000000 10.000000 -1.047793E+02
18.000000 8.000000 -1.443220E+02
18.000000 6.000000 -1.576030E+02
18.000000 4.000000 -1.372563E+02
18.000000 2.000000 -9.132744E+01
18.000000 0.000000 -2.504570E+01
18.000000 -2.000000 4.348253E+01
18.000000 -4.000000 8.428541E+01
18.000000 -6.000000 8.172574E+01
18.000000 -8.000000 6.780926E+01
18.000000 -10.000000 7.559900E+01
18.000000 -12.000000 1.324531E+02
18.000000 -14.000000 1.901124E+02
18.000000 -16.000000 1.919686E+02
18.000000 -18.000000 1.204789E+02
18.000000 -20.000000 2.483264E+01
18.000000 -22.000000 -4.126125E+01
18.000000 -24.000000 -6.507402E+01
18.000000 -26.000000 -6.085947E+01
18.000000 -28.000000 -4.974630E+01
18.000000 -30.000000 -4.024720E+01
18.000000 -32.000000 -4.051782E+01
18.000000 -34.000000 -4.056347E+01
18.000000 -36.000000 -4.448474E+01
18.000000 -38.000000 -5.030769E+01
18.000000 -40.000000 -6.423619E+01
20.000000 40.000000 6.812807E+01
20.000000 38.000000 2.975285E+01
20.000000 36.000000 -7.034939E+00
20.000000 34.000000 -4.037794E+01
20.000000 32.000000 -5.008213E+01
20.000000 30.000000 -3.645346E+01
20.000000 28.000000 -5.075750E+00
20.000000 26.000000 3.013224E+01
20.000000 24.000000 5.208606E+01
20.000000 22.000000 3.854844E+01
20.000000 20.000000 2.450094E+01
20.000000 18.000000 2.088224E+01
20.000000 16.000000 2.038821E+01
20.000000 14.000000 2.317852E+00
20.000000 12.000000 -4.372391E+01
20.000000 10.000000 -1.033329E+02
20.000000 8.000000 -1.518924E+02
20.000000 6.000000 -1.729182E+02
20.000000 4.000000 -1.582882E+02
20.000000 2.000000 -1.157510E+02
20.000000 0.000000 -5.446560E+01
20.000000 -2.000000 1.104914E+01
20.000000 -4.000000 5.338979E+01
20.000000 -6.000000 6.515338E+01
20.000000 -8.000000 7.529514E+01
20.000000 -10.000000 1.077373E+02
20.000000 -12.000000 1.791387E+02
20.000000 -14.000000 2.323904E+02
20.000000 -16.000000 2.107100E+02
20.000000 -18.000000 1.117371E+02
20.000000 -20.000000 4.034710E-02
20.000000 -22.000000 -7.064289E+01
20.000000 -24.000000 -8.996251E+01
20.000000 -26.000000 -7.840253E+01
20.000000 -28.000000 -6.515733E+01
20.000000 -30.000000 -5.678258E+01
20.000000 -32.000000 -5.744401E+01
20.000000 -34.000000 -5.533961E+01
20.000000 -36.000000 -5.781824E+01
20.000000 -38.000000 -6.309234E+01
20.000000 -40.000000 -7.585065E+01
22.000000 40.000000 6.388539E+01
22.000000 38.000000 2.649594E+01
22.000000 36.000000 -9.372536E+00
22.000000 34.000000 -3.736845E+01
22.000000 32.000000 -3.745911E+01
22.000000 30.000000 -1.391959E+01
22.000000 28.000000 2.143219E+01
22.000000 26.000000 4.770369E+01
22.000000 24.000000 5.330106E+01
22.000000 22.000000 2.999152E+01
22.000000 20.000000 1.503909E+01
22.000000 18.000000 1.517783E+01
22.000000 16.000000 1.721806E+01
22.000000 14.000000 7.588978E-01
22.000000 12.000000 -4.704604E+01
22.000000 10.000000 -1.117275E+02
22.000000 8.000000 -1.663254E+02
22.000000 6.000000 -1.905980E+02
22.000000 4.000000 -1.779999E+02
22.000000 2.000000 -1.375602E+02
22.000000 0.000000 -7.893080E+01
22.000000 -2.000000 -1.431080E+01
22.000000 -4.000000 3.246204E+01
22.000000 -6.000000 6.016619E+01
22.000000 -8.000000 9.443114E+01
22.000000 -10.000000 1.518532E+02
22.000000 -12.000000 2.335926E+02
22.000000 -14.000000 2.799506E+02
22.000000 -16.000000 2.341160E+02
22.000000 -18.000000 1.100834E+02
22.000000 -20.000000 -1.435415E+01
22.000000 -22.000000 -8.646300E+01
22.000000 -24.000000 -1.004162E+02
22.000000 -26.000000 -8.052176E+01
22.000000 -28.000000 -6.605223E+01
22.000000 -30.000000 -6.081861E+01
22.000000 -32.000000 -6.481386E+01
22.000000 -34.000000 -6.313403E+01
22.000000 -36.000000 -6.625668E+01
22.000000 -38.000000 -7.233761E+01
22.000000 -40.000000 -8.584290E+01
24.000000 40.000000 6.464707E+01
24.000000 38.000000 2.958842E+01
24.000000 36.000000 -4.980545E+00
24.000000 34.000000 -2.978673E+01
24.000000 32.000000 -2.477839E+01
24.000000 30.000000 2.615131E+00
24.000000 28.000000 3.295666E+01
24.000000 26.000000 4.082367E+01
24.000000 24.000000 2.823910E+01
24.000000 22.000000 2.606094E+00
24.000000 20.000000 -8.543129E+00
24.000000 18.000000 -2.558479E+00
24.000000 16.000000 2.935087E+00
24.000000 14.000000 -1.214348E+01
24.000000 12.000000 -6.040371E+01
24.000000 10.000000 -1.291745E+02
24.000000 8.000000 -1.867133E+02
24.000000 6.000000 -2.113010E+02
24.000000 4.000000 -1.971340E+02
24.000000 2.000000 -1.545425E+02
24.000000 0.000000 -9.436670E+01
24.000000 -2.000000 -2.672087E+01
24.000000 -4.000000 2.833366E+01
24.000000 -6.000000 7.243346E+01
24.000000 -8.000000 1.239175E+02
24.000000 -10.000000 1.978838E+02
24.000000 -12.000000 2.850129E+02
24.000000 -14.000000 3.240777E+02
24.000000 -16.000000 2.597270E+02
24.000000 -18.000000 1.172451E+02
24.000000 -20.000000 -1.636384E+01
24.000000 -22.000000 -8.717535E+01
24.000000 -24.000000 -9.403503E+01
24.000000 -26.000000 -6.552066E+01
24.000000 -28.000000 -5.160773E+01
24.000000 -30.000000 -5.141117E+01
24.000000 -32.000000 -6.077036E+01
24.000000 -34.000000 -6.300813E+01
24.000000 -36.000000 -7.025814E+01
24.000000 -38.000000 -7.839148E+01
24.000000 -40.000000 -9.383135E+01
26.000000 40.000000 7.167168E+01
26.000000 38.000000 3.762286E+01
26.000000 36.000000 3.089493E+00
26.000000 34.000000 -2.171446E+01
26.000000 32.000000 -1.791417E+01
26.000000 30.000000 4.019714E+00
26.000000 28.000000 2.050006E+01
26.000000 26.000000 1.224960E+01
26.000000 24.000000 -1.306646E+01
26.000000 22.000000 -3.443554E+01
26.000000 20.000000 -3.733786E+01
26.000000 18.000000 -2.445058E+01
26.000000 16.000000 -1.611206E+01
26.000000 14.000000 -3.053992E+01
26.000000 12.000000 -7.840088E+01
26.000000 10.000000 -1.493478E+02
26.000000 8.000000 -2.062402E+02
26.000000 6.000000 -2.284672E+02
26.000000 4.000000 -2.105045E+02
26.000000 2.000000 -1.628644E+02
26.000000 0.000000 -9.771958E+01
26.000000 -2.000000 -2.402924E+01
26.000000 -4.000000 4.175893E+01
26.000000 -6.000000 9.877025E+01
26.000000 -8.000000 1.565177E+02
26.000000 -10.000000 2.344053E+02
26.000000 -12.000000 3.182606E+02
26.000000 -14.000000 3.487242E+02
26.000000 -16.000000 2.773693E+02
26.000000 -18.000000 1.306485E+02
26.000000 -20.000000 -7.406002E+00
26.000000 -22.000000 -7.574190E+01
26.000000 -24.000000 -7.346375E+01
26.000000 -26.000000 -3.911695E+01
26.000000 -28.000000 -2.564255E+01
26.000000 -30.000000 -2.900789E+01
26.000000 -32.000000 -4.396713E+01
26.000000 -34.000000 -5.341905E+01
26.000000 -36.000000 -6.843882E+01
26.000000 -38.000000 -8.156579E+01
26.000000 -40.000000 -1.005144E+02
28.000000 40.000000 8.184909E+01
28.000000 38.000000 4.758024E+01
28.000000 36.000000 1.183248E+01
28.000000 34.000000 -1.670007E+01
28.000000 32.000000 -2.012392E+01
28.000000 30.000000 -1.009630E+01
28.000000 28.000000 -8.772411E+00
28.000000 26.000000 -2.604548E+01
28.000000 24.000000 -5.561003E+01
28.000000 22.000000 -6.886733E+01
28.000000 20.000000 -6.330737E+01
28.000000 18.000000 -4.505159E+01
28.000000 16.000000 -3.508168E+01
28.000000 14.000000 -4.966883E+01
28.000000 12.000000 -9.662182E+01
28.000000 10.000000 -1.658519E+02
28.000000 8.000000 -2.176844E+02
28.000000 6.000000 -2.343625E+02
28.000000 4.000000 -2.094343E+02
28.000000 2.000000 -1.557043E+02
28.000000 0.000000 -8.617952E+01
28.000000 -2.000000 -6.819744E+00
28.000000 -4.000000 6.821255E+01
28.000000 -6.000000 1.297756E+02
28.000000 -8.000000 1.839569E+02
28.000000 -10.000000 2.533325E+02
28.000000 -12.000000 3.224579E+02
28.000000 -14.000000 3.437424E+02
28.000000 -16.000000 2.748168E+02
28.000000 -18.000000 1.386850E+02
28.000000 -20.000000 7.553089E+00
28.000000 -22.000000 -5.495102E+01
28.000000 -24.000000 -4.601927E+01
28.000000 -26.000000 -1.020892E+01
28.000000 -28.000000 4.237423E+00
28.000000 -30.000000 2.697067E-01
28.000000 -32.000000 -1.871650E+01
28.000000 -34.000000 -3.640939E+01
28.000000 -36.000000 -6.056755E+01
28.000000 -38.000000 -8.074403E+01
28.000000 -40.000000 -1.049961E+02
30.000000 40.000000 8.944313E+01
30.000000 38.000000 5.542240E+01
30.000000 36.000000 1.847248E+01
30.000000 34.000000 -1.707325E+01
30.000000 32.000000 -3.057627E+01
30.000000 30.000000 -3.249668E+01
30.000000 28.000000 -3.976795E+01
30.000000 26.000000 -5.677310E+01
30.000000 24.000000 -8.232962E+01
30.000000 22.000000 -8.739207E+01
30.000000 20.000000 -7.814505E+01
30.000000 18.000000 -5.899778E+01
30.000000 16.000000 -5.056654E+01
30.000000 14.000000 -6.728352E+01
30.000000 12.000000 -1.129377E+02
30.000000 10.000000 -1.752195E+02
30.000000 8.000000 -2.149260E+02
30.000000 6.000000 -2.210752E+02
30.000000 4.000000 -1.882166E+02
30.000000 2.000000 -1.319136E+02
30.000000 0.000000 -6.321266E+01
30.000000 -2.000000 1.662302E+01
30.000000 -4.000000 9.470862E+01
30.000000 -6.000000 1.530249E+02
30.000000 -8.000000 1.960886E+02
30.000000 -10.000000 2.484840E+02
30.000000 -12.000000 2.990398E+02
30.000000 -14.000000 3.126429E+02
30.000000 -16.000000 2.513899E+02
30.000000 -18.000000 1.339210E+02
30.000000 -20.000000 2.032366E+01
30.000000 -22.000000 -3.225074E+01
30.000000 -24.000000 -2.023246E+01
30.000000 -26.000000 1.451417E+01
30.000000 -28.000000 2.934474E+01
30.000000 -30.000000 2.632412E+01
30.000000 -32.000000 5.759012E+00
30.000000 -34.000000 -1.807075E+01
30.000000 -36.000000 -4.897258E+01
30.000000 -38.000000 -7.516671E+01
30.000000 -40.000000 -1.052488E+02
32.000000 40.000000 9.344368E+01
32.000000 38.000000 5.809484E+01
32.000000 36.000000 1.784016E+01
32.000000 34.000000 -2.549913E+01
32.000000 32.000000 -4.712109E+01
32.000000 30.000000 -5.545598E+01
32.000000 28.000000 -6.186916E+01
32.000000 26.000000 -6.969882E+01
32.000000 24.000000 -8.286067E+01
32.000000 22.000000 -8.019944E+01
32.000000 20.000000 -7.146931E+01
32.000000 18.000000 -5.774209E+01
32.000000 16.000000 -5.658444E+01
32.000000 14.000000 -7.893181E+01
32.000000 12.000000 -1.235204E+02
32.000000 10.000000 -1.749384E+02
32.000000 8.000000 -1.951182E+02
32.000000 6.000000 -1.847052E+02
32.000000 4.000000 -1.461452E+02
32.000000 2.000000 -9.521102E+01
32.000000 0.000000 -3.538681E+01
32.000000 -2.000000 3.597083E+01
32.000000 -4.000000 1.068427E+02
32.000000 -6.000000 1.560145E+02
32.000000 -8.000000 1.863715E+02
32.000000 -10.000000 2.224708E+02
32.000000 -12.000000 2.581064E+02
32.000000 -14.000000 2.653511E+02
32.000000 -16.000000 2.129476E+02
32.000000 -18.000000 1.155170E+02
32.000000 -20.000000 2.493583E+01
32.000000 -22.000000 -1.638253E+01
32.000000 -24.000000 -5.395025E+00
32.000000 -26.000000 2.506743E+01
32.000000 -28.000000 3.914198E+01
32.000000 -30.000000 3.822322E+01
32.000000 -32.000000 2.018444E+01
32.000000 -34.000000 -3.537901E+00
32.000000 -36.000000 -3.543697E+01
32.000000 -38.000000 -6.463998E+01
32.000000 -40.000000 -9.845766E+01
34.000000 40.000000 9.439602E+01
34.000000 38.000000 5.437247E+01
34.000000 36.000000 7.706470E+00
34.000000 34.000000 -4.114676E+01
34.000000 32.000000 -6.550966E+01
34.000000 30.000000 -7.305666E+01
34.000000 28.000000 -7.036230E+01
34.000000 26.000000 -6.290336E+01
34.000000 24.000000 -5.780786E+01
34.000000 22.000000 -4.747250E+01
34.000000 20.000000 -4.041795E+01
34.000000 18.000000 -3.543888E+01
34.000000 16.000000 -4.534375E+01
34.000000 14.000000 -7.598028E+01
34.000000 12.000000 -1.194080E+02
34.000000 10.000000 -1.584250E+02
34.000000 8.000000 -1.584333E+02
34.000000 6.000000 -1.312898E+02
34.000000 4.000000 -9.100389E+01
34.000000 2.000000 -5.312925E+01
34.000000 0.000000 -1.052178E+01
34.000000 -2.000000 4.253358E+01
34.000000 -4.000000 9.636229E+01
34.000000 -6.000000 1.317103E+02
34.000000 -8.000000 1.526316E+02
34.000000 -10.000000 1.797559E+02
34.000000 -12.000000 2.078007E+02
34.000000 -14.000000 2.112914E+02
34.000000 -16.000000 1.665758E+02
34.000000 -18.000000 8.851564E+01
34.000000 -20.000000 2.016910E+01
34.000000 -22.000000 -1.175217E+01
34.000000 -24.000000 -5.544729E+00
34.000000 -26.000000 1.624822E+01
34.000000 -28.000000 2.810434E+01
34.000000 -30.000000 3.059639E+01
34.000000 -32.000000 2.009477E+01
34.000000 -34.000000 4.714920E+00
34.000000 -36.000000 -2.144005E+01
34.000000 -38.000000 -5.004901E+01
34.000000 -40.000000 -8.418549E+01
36.000000 40.000000 9.003822E+01
36.000000 38.000000 4.486000E+01
36.000000 36.000000 -6.579983E+00
36.000000 34.000000 -5.665650E+01
36.000000 32.000000 -7.763093E+01
36.000000 30.000000 -7.782894E+01
36.000000 28.000000 -6.229101E+01
36.000000 26.000000 -3.992292E+01
36.000000 24.000000 -1.826205E+01
36.000000 22.000000 -7.631607E-01
36.000000 20.000000 6.808544E+00
36.000000 18.000000 2.911091E+00
36.000000 16.000000 -1.706195E+01
36.000000 14.000000 -5.340548E+01
36.000000 12.000000 -9.485352E+01
36.000000 10.000000 -1.225873E+02
36.000000 8.000000 -1.099384E+02
36.000000 6.000000 -7.424886E+01
36.000000 4.000000 -3.798950E+01
36.000000 2.000000 -1.790884E+01
36.000000 0.000000 3.219112E+00
36.000000 -2.000000 3.258321E+01
36.000000 -4.000000 6.426673E+01
36.000000 -6.000000 8.430109E+01
36.000000 -8.000000 9.967082E+01
36.000000 -10.000000 1.235303E+02
36.000000 -12.000000 1.509467E+02
36.000000 -14.000000 1.556919E+02
36.000000 -16.000000 1.196305E+02
36.000000 -18.000000 5.997182E+01
36.000000 -20.000000 1.077161E+01
36.000000 -22.000000 -1.437967E+01
36.000000 -24.000000 -1.496325E+01
36.000000 -26.000000 -4.122917E+00
36.000000 -28.000000 2.366714E+00
36.000000 -30.000000 6.942227E+00
36.000000 -32.000000 7.509710E+00
36.000000 -34.000000 5.723021E+00
36.000000 -36.000000 -9.533838E+00
36.000000 -38.000000 -3.400838E+01
36.000000 -40.000000 -6.655742E+01
38.000000 40.000000 8.174049E+01
38.000000 38.000000 3.358272E+01
38.000000 36.000000 -1.807613E+01
38.000000 34.000000 -6.345753E+01
38.000000 32.000000 -7.483662E+01
38.000000 30.000000 -6.408302E+01
38.000000 28.000000 -3.919727E+01
38.000000 26.000000 -1.053620E+01
38.000000 24.000000 2.001160E+01
38.000000 22.000000 4.182383E+01
38.000000 20.000000 5.102001E+01
38.000000 18.000000 4.227348E+01
38.000000 16.000000 1.859393E+01
38.000000 14.000000 -1.655663E+01
38.000000 12.000000 -5.251264E+01
38.000000 10.000000 -7.125924E+01
38.000000 8.000000 -5.769365E+01
38.000000 6.000000 -2.679817E+01
38.000000 4.000000 -1.408684E+00
38.000000 2.000000 1.563800E+00
38.000000 0.000000 2.629330E+00
38.000000 -2.000000 1.057805E+01
38.000000 -4.000000 2.189599E+01
38.000000 -6.000000 3.045627E+01
38.000000 -8.000000 4.081150E+01
38.000000 -10.000000 6.127979E+01
38.000000 -12.000000 9.196870E+01
38.000000 -14.000000 1.035651E+02
38.000000 -16.000000 7.952311E+01
38.000000 -18.000000 3.668140E+01
38.000000 -20.000000 2.102655E+00
38.000000 -22.000000 -1.900331E+01
38.000000 -24.000000 -2.750927E+01
38.000000 -26.000000 -2.813250E+01
38.000000 -28.000000 -2.828632E+01
38.000000 -30.000000 -2.284678E+01
38.000000 -32.000000 -1.119540E+01
38.000000 -34.000000 1.154913E+00
38.000000 -36.000000 -1.680004E+00
38.000000 -38.000000 -1.968841E+01
38.000000 -40.000000 -4.906841E+01
40.000000 40.000000 7.414864E+01
40.000000 38.000000 2.532243E+01
40.000000 36.000000 -2.315169E+01
40.000000 34.000000 -5.819979E+01
40.000000 32.000000 -5.473565E+01
40.000000 30.000000 -3.320404E+01
40.000000 28.000000 -7.473740E+00
40.000000 26.000000 1.603647E+01
40.000000 24.000000 4.549183E+01
40.000000 22.000000 6.663359E+01
40.000000 20.000000 7.691761E+01
40.000000 18.000000 7.055580E+01
40.000000 16.000000 5.077906E+01
40.000000 14.000000 2.300296E+01
40.000000 12.000000 -3.811792E+00
40.000000 10.000000 -1.662819E+01
40.000000 8.000000 -1.070991E+01
40.000000 6.000000 6.049930E+00
40.000000 4.000000 1.545654E+01
40.000000 2.000000 3.868628E+00
40.000000 0.000000 -9.344300E+00
40.000000 -2.000000 -1.549603E+01
40.000000 -4.000000 -1.865529E+01
40.000000 -6.000000 -1.755778E+01
40.000000 -8.000000 -1.207394E+01
40.000000 -10.000000 4.619967E+00
40.000000 -12.000000 3.988078E+01
40.000000 -14.000000 6.120894E+01
40.000000 -16.000000 5.158580E+01
40.000000 -18.000000 2.297827E+01
40.000000 -20.000000 -3.767388E+00
40.000000 -22.000000 -2.381577E+01
40.000000 -24.000000 -4.041282E+01
40.000000 -26.000000 -5.110852E+01
40.000000 -28.000000 -5.437084E+01
40.000000 -30.000000 -4.682551E+01
40.000000 -32.000000 -2.741923E+01
40.000000 -34.000000 -4.782780E+00
40.000000 -36.000000 2.013931E+00
40.000000 -38.000000 -9.805971E+00
40.000000 -40.000000 -3.379809E+01
42.000000 40.000000 6.905514E+01
42.000000 38.000000 2.315988E+01
42.000000 36.000000 -1.854676E+01
42.000000 34.000000 -4.013619E+01
42.000000 32.000000 -2.244901E+01
42.000000 30.000000 5.458622E+00
42.000000 28.000000 2.570160E+01
42.000000 26.000000 3.777960E+01
42.000000 24.000000 5.689834E+01
42.000000 22.000000 7.151334E+01
42.000000 20.000000 8.086776E+01
42.000000 18.000000 7.982172E+01
42.000000 16.000000 6.886185E+01
42.000000 14.000000 5.320054E+01
42.000000 12.000000 3.739111E+01
42.000000 10.000000 2.712426E+01
42.000000 8.000000 2.286940E+01
42.000000 6.000000 2.396613E+01
42.000000 4.000000 1.635764E+01
42.000000 2.000000 -4.806444E+00
42.000000 0.000000 -2.551569E+01
42.000000 -2.000000 -3.827396E+01
42.000000 -4.000000 -4.788460E+01
42.000000 -6.000000 -5.357394E+01
42.000000 -8.000000 -5.170214E+01
42.000000 -10.000000 -3.696785E+01
42.000000 -12.000000 1.776714E+00
42.000000 -14.000000 3.160569E+01
42.000000 -16.000000 3.502875E+01
42.000000 -18.000000 1.861112E+01
42.000000 -20.000000 -3.534815E+00
42.000000 -22.000000 -2.426000E+01
42.000000 -24.000000 -4.726362E+01
42.000000 -26.000000 -6.418179E+01
42.000000 -28.000000 -6.742735E+01
42.000000 -30.000000 -5.784601E+01
42.000000 -32.000000 -3.516445E+01
42.000000 -34.000000 -8.521677E+00
42.000000 -36.000000 2.604704E+00
42.000000 -38.000000 -4.834690E+00
42.000000 -40.000000 -2.314176E+01
44.000000 40.000000 6.719784E+01
44.000000 38.000000 2.907180E+01
44.000000 36.000000 -2.198330E+00
44.000000 34.000000 -1.111613E+01
44.000000 32.000000 1.390660E+01
44.000000 30.000000 4.067805E+01
44.000000 28.000000 5.213565E+01
44.000000 26.000000 5.175844E+01
44.000000 24.000000 5.631705E+01
44.000000 22.000000 6.156033E+01
44.000000 20.000000 6.813077E+01
44.000000 18.000000 7.168584E+01
44.000000 16.000000 6.978074E+01
44.000000 14.000000 6.547424E+01
44.000000 12.000000 5.837751E+01
44.000000 10.000000 4.845441E+01
44.000000 8.000000 3.557365E+01
44.000000 6.000000 2.447360E+01
44.000000 4.000000 6.620909E+00
44.000000 2.000000 -1.556048E+01
44.000000 0.000000 -3.579269E+01
44.000000 -2.000000 -4.969266E+01
44.000000 -4.000000 -6.124628E+01
44.000000 -6.000000 -7.099248E+01
44.000000 -8.000000 -7.166820E+01
44.000000 -10.000000 -5.864660E+01
44.000000 -12.000000 -2.017070E+01
44.000000 -14.000000 1.490842E+01
44.000000 -16.000000 2.889237E+01
44.000000 -18.000000 2.219164E+01
44.000000 -20.000000 4.473986E+00
44.000000 -22.000000 -1.574482E+01
44.000000 -24.000000 -4.277167E+01
44.000000 -26.000000 -6.233299E+01
44.000000 -28.000000 -6.424334E+01
44.000000 -30.000000 -5.411192E+01
44.000000 -32.000000 -3.289608E+01
44.000000 -34.000000 -8.617043E+00
44.000000 -36.000000 1.993834E+00
44.000000 -38.000000 -3.038677E+00
44.000000 -40.000000 -1.793028E+01
46.000000 40.000000 7.053690E+01
46.000000 38.000000 4.241968E+01
46.000000 36.000000 2.247496E+01
46.000000 34.000000 2.215872E+01
46.000000 32.000000 4.553707E+01
46.000000 30.000000 6.372110E+01
46.000000 28.000000 6.393892E+01
46.000000 26.000000 5.289841E+01
46.000000 24.000000 4.604428E+01
46.000000 22.000000 4.430329E+01
46.000000 20.000000 4.751998E+01
46.000000 18.000000 5.302334E+01
46.000000 16.000000 5.656495E+01
46.000000 14.000000 5.841191E+01
46.000000 12.000000 5.540149E+01
46.000000 10.000000 4.557695E+01
46.000000 8.000000 2.893532E+01
46.000000 6.000000 1.214127E+01
46.000000 4.000000 -6.462029E+00
46.000000 2.000000 -2.176635E+01
46.000000 0.000000 -3.573687E+01
46.000000 -2.000000 -4.819543E+01
46.000000 -4.000000 -6.048886E+01
46.000000 -6.000000 -7.140634E+01
46.000000 -8.000000 -7.281643E+01
46.000000 -10.000000 -6.213578E+01
46.000000 -12.000000 -2.663638E+01
46.000000 -14.000000 1.223446E+01
46.000000 -16.000000 3.290307E+01
46.000000 -18.000000 3.116958E+01
46.000000 -20.000000 1.843621E+01
46.000000 -22.000000 1.776876E-01
46.000000 -24.000000 -2.742484E+01
46.000000 -26.000000 -4.576160E+01
46.000000 -28.000000 -4.577991E+01
46.000000 -30.000000 -3.728681E+01
46.000000 -32.000000 -2.246215E+01
46.000000 -34.000000 -5.622957E+00
46.000000 -36.000000 1.865070E+00
46.000000 -38.000000 -2.566757E+00
46.000000 -40.000000 -1.716059E+01
48.000000 40.000000 7.954579E+01
48.000000 38.000000 6.028142E+01
48.000000 36.000000 4.865458E+01
48.000000 34.000000 5.017873E+01
48.000000 32.000000 6.391518E+01
48.000000 30.000000 6.890275E+01
48.000000 28.000000 5.875073E+01
48.000000 26.000000 4.215974E+01
48.000000 24.000000 3.101272E+01
48.000000 22.000000 2.645831E+01
48.000000 20.000000 2.597211E+01
48.000000 18.000000 3.005801E+01
48.000000 16.000000 3.579123E+01
48.000000 14.000000 4.028679E+01
48.000000 12.000000 3.810878E+01
48.000000 10.000000 2.742122E+01
48.000000 8.000000 1.189056E+01
48.000000 6.000000 -3.471232E+00
48.000000 4.000000 -1.503792E+01
48.000000 2.000000 -2.294513E+01
48.000000 0.000000 -3.184119E+01
48.000000 -2.000000 -4.105846E+01
48.000000 -4.000000 -5.118350E+01
48.000000 -6.000000 -5.980355E+01
48.000000 -8.000000 -6.064202E+01
48.000000 -10.000000 -5.357882E+01
48.000000 -12.000000 -2.145974E+01
48.000000 -14.000000 1.868209E+01
48.000000 -16.000000 4.241096E+01
48.000000 -18.000000 4.315702E+01
48.000000 -20.000000 3.427954E+01
48.000000 -22.000000 1.821962E+01
48.000000 -24.000000 -4.929508E+00
48.000000 -26.000000 -1.879614E+01
48.000000 -28.000000 -1.843822E+01
48.000000 -30.000000 -1.381990E+01
48.000000 -32.000000 -7.464888E+00
48.000000 -34.000000 1.084518E-01
48.000000 -36.000000 3.278711E+00
48.000000 -38.000000 -2.218460E+00
48.000000 -40.000000 -1.834073E+01
50.000000 40.000000 9.258382E+01
50.000000 38.000000 7.918539E+01
50.000000 36.000000 6.980796E+01
50.000000 34.000000 6.494952E+01
50.000000 32.000000 6.479244E+01
50.000000 30.000000 5.679187E+01
50.000000 28.000000 4.030560E+01
50.000000 26.000000 2.456831E+01
50.000000 24.000000 1.549636E+01
50.000000 22.000000 1.137078E+01
50.000000 20.000000 7.593952E+00
50.000000 18.000000 9.604794E+00
50.000000 16.000000 1.634054E+01
50.000000 14.000000 2.122706E+01
50.000000 12.000000 1.824984E+01
50.000000 10.000000 5.956923E+00
50.000000 8.000000 -6.212505E+00
50.000000 6.000000 -1.625522E+01
50.000000 4.000000 -1.800625E+01
50.000000 2.000000 -2.039980E+01
50.000000 0.000000 -2.613154E+01
50.000000 -2.000000 -3.107153E+01
50.000000 -4.000000 -3.649492E+01
50.000000 -6.000000 -4.127486E+01
50.000000 -8.000000 -4.129862E+01
50.000000 -10.000000 -3.685954E+01
50.000000 -12.000000 -1.050077E+01
50.000000 -14.000000 2.559351E+01
50.000000 -16.000000 4.952317E+01
50.000000 -18.000000 5.258865E+01
50.000000 -20.000000 4.623615E+01
50.000000 -22.000000 3.518802E+01
50.000000 -24.000000 1.989752E+01
50.000000 -26.000000 9.118205E+00
50.000000 -28.000000 6.932629E+00
50.000000 -30.000000 7.300076E+00
50.000000 -32.000000 8.045442E+00
50.000000 -34.000000 8.451032E+00
50.000000 -36.000000 6.082016E+00
50.000000 -38.000000 -1.805429E+00
50.000000 -40.000000 -1.827409E+01
52.000000 40.000000 1.063864E+02
52.000000 38.000000 9.422114E+01
52.000000 36.000000 8.114130E+01
52.000000 34.000000 6.462760E+01
52.000000 32.000000 5.027623E+01
52.000000 30.000000 3.326496E+01
52.000000 28.000000 1.647022E+01
52.000000 26.000000 6.699585E+00
52.000000 24.000000 3.786608E+00
52.000000 22.000000 2.820332E+00
52.000000 20.000000 -1.491911E+00
52.000000 18.000000 -8.505678E-01
52.000000 16.000000 4.948166E+00
52.000000 14.000000 8.934779E+00
52.000000 12.000000 6.423201E+00
52.000000 10.000000 -6.332214E+00
52.000000 8.000000 -1.802809E+01
52.000000 6.000000 -2.498899E+01
52.000000 4.000000 -2.188967E+01
52.000000 2.000000 -1.924342E+01
52.000000 0.000000 -1.976356E+01
52.000000 -2.000000 -2.005205E+01
52.000000 -4.000000 -2.005506E+01
52.000000 -6.000000 -2.091653E+01
52.000000 -8.000000 -2.085357E+01
52.000000 -10.000000 -1.659256E+01
52.000000 -12.000000 1.273774E+00
52.000000 -14.000000 2.850419E+01
52.000000 -16.000000 4.810925E+01
52.000000 -18.000000 5.230436E+01
52.000000 -20.000000 5.032391E+01
52.000000 -22.000000 4.679779E+01
52.000000 -24.000000 3.987872E+01
52.000000 -26.000000 3.044976E+01
52.000000 -28.000000 2.489415E+01
52.000000 -30.000000 2.231610E+01
52.000000 -32.000000 1.989354E+01
52.000000 -34.000000 1.579964E+01
52.000000 -36.000000 9.128064E+00
52.000000 -38.000000 -8.017712E-01
52.000000 -40.000000 -1.555299E+01
54.000000 40.000000 1.163618E+02
54.000000 38.000000 1.011826E+02
54.000000 36.000000 8.112033E+01
54.000000 34.000000 5.272275E+01
54.000000 32.000000 2.714071E+01
54.000000 30.000000 6.815821E+00
54.000000 28.000000 -5.183210E+00
54.000000 26.000000 -7.164011E+00
54.000000 24.000000 -1.926249E+00
54.000000 22.000000 2.178064E+00
54.000000 20.000000 -8.832455E-02
54.000000 18.000000 -1.582060E-01
54.000000 16.000000 3.861560E+00
54.000000 14.000000 7.403039E+00
54.000000 12.000000 6.132467E+00
54.000000 10.000000 -5.202359E+00
54.000000 8.000000 -1.767172E+01
54.000000 6.000000 -2.528954E+01
54.000000 4.000000 -2.328134E+01
54.000000 2.000000 -1.902471E+01
54.000000 0.000000 -1.589732E+01
54.000000 -2.000000 -1.134564E+01
54.000000 -4.000000 -6.171978E+00
54.000000 -6.000000 -3.646283E+00
54.000000 -8.000000 -3.634600E+00
54.000000 -10.000000 -1.818601E+00
54.000000 -12.000000 6.475600E+00
54.000000 -14.000000 2.316980E+01
54.000000 -16.000000 3.643048E+01
54.000000 -18.000000 4.075239E+01
54.000000 -20.000000 4.412328E+01
54.000000 -22.000000 4.898964E+01
54.000000 -24.000000 4.905741E+01
54.000000 -26.000000 4.198558E+01
54.000000 -28.000000 3.518171E+01
54.000000 -30.000000 3.097855E+01
54.000000 -32.000000 2.583185E+01
54.000000 -34.000000 1.970513E+01
54.000000 -36.000000 1.228538E+01
54.000000 -38.000000 1.917160E+00
54.000000 -40.000000 -1.025268E+01
56.000000 40.000000 1.167426E+02
56.000000 38.000000 9.784839E+01
56.000000 36.000000 7.405438E+01
56.000000 34.000000 3.633211E+01
56.000000 32.000000 6.116137E+00
56.000000 30.000000 -1.353232E+01
56.000000 28.000000 -2.048724E+01
56.000000 26.000000 -1.570877E+01
56.000000 24.000000 -2.375517E+00
56.000000 22.000000 6.176896E+00
56.000000 20.000000 6.343089E+00
56.000000 18.000000 6.488153E+00
56.000000 16.000000 9.733965E+00
56.000000 14.000000 1.530912E+01
56.000000 12.000000 1.571611E+01
56.000000 10.000000 6.749958E+00
56.000000 8.000000 -5.608755E+00
56.000000 6.000000 -1.601594E+01
56.000000 4.000000 -1.925773E+01
56.000000 2.000000 -1.783523E+01
56.000000 0.000000 -1.523490E+01
56.000000 -2.000000 -7.164905E+00
56.000000 -4.000000 2.527258E+00
56.000000 -6.000000 6.977507E+00
56.000000 -8.000000 6.089100E+00
56.000000 -10.000000 3.225897E+00
56.000000 -12.000000 3.516590E+00
56.000000 -14.000000 1.160207E+01
56.000000 -16.000000 1.790774E+01
56.000000 -18.000000 2.150666E+01
56.000000 -20.000000 2.932128E+01
56.000000 -22.000000 4.084636E+01
56.000000 -24.000000 4.569553E+01
56.000000 -26.000000 4.203556E+01
56.000000 -28.000000 3.662256E+01
56.000000 -30.000000 3.238376E+01
56.000000 -32.000000 2.662960E+01
56.000000 -34.000000 2.074100E+01
56.000000 -36.000000 1.440506E+01
56.000000 -38.000000 5.837225E+00
56.000000 -40.000000 -3.959896E+00
58.000000 40.000000 1.136540E+02
58.000000 38.000000 9.315483E+01
58.000000 36.000000 6.369553E+01
58.000000 34.000000 2.334692E+01
58.000000 32.000000 -5.894993E+00
58.000000 30.000000 -2.340508E+01
58.000000 28.000000 -2.796390E+01
58.000000 26.000000 -1.779598E+01
58.000000 24.000000 -1.500405E+00
58.000000 22.000000 6.693182E+00
58.000000 20.000000 9.043044E+00
