-26.000000 -28.000000 3.117179E+01
-26.000000 -30.000000 3.303189E+01
-26.000000 -32.000000 3.077426E+01
-26.000000 -34.000000 1.921266E+01
-26.000000 -36.000000 1.751942E+01
-26.000000 -38.000000 2.744170E+01
-26.000000 -40.000000 3.010264E+01
-24.000000 40.000000 2.521149E+01
-24.000000 38.000000 1.298631E+01
-24.000000 36.000000 3.519662E-01
-24.000000 34.000000 7.831199E-01
-24.000000 32.000000 1.778619E+01
-24.000000 30.000000 3.724293E+01
-24.000000 28.000000 3.302771E+01
-24.000000 26.000000 9.315030E+00
-24.000000 24.000000 -2.597619E+01
-24.000000 22.000000 -9.188049E+00
-24.000000 20.000000 3.277712E+01
-24.000000 18.000000 2.761459E+01
-24.000000 16.000000 -9.762373E+00
-24.000000 14.000000 -3.044930E+01
-24.000000 12.000000 -2.888910E+01
-24.000000 10.000000 -2.307226E+01
-24.000000 8.000000 4.730961E+00
-24.000000 6.000000 4.592506E+01
-24.000000 4.000000 7.427619E+01
-24.000000 2.000000 6.570597E+01
-24.000000 0.000000 5.060425E+01
-24.000000 -2.000000 4.809250E+01
-24.000000 -4.000000 5.766286E+01
-24.000000 -6.000000 5.573697E+01
-24.000000 -8.000000 3.525271E+01
-24.000000 -10.000000 1.172953E+01
-24.000000 -12.000000 -4.533195E+00
-24.000000 -14.000000 -6.563290E+00
-24.000000 -16.000000 -6.559572E+00
-24.000000 -18.000000 4.426212E+00
-24.000000 -20.000000 2.164294E+01
-24.000000 -22.000000 3.392473E+01
-24.000000 -24.000000 3.396929E+01
-24.000000 -26.000000 1.447156E+01
-24.000000 -28.000000 1.123799E+01
-24.000000 -30.000000 1.747352E+01
-24.000000 -32.000000 2.553603E+01
-24.000000 -34.000000 2.710633E+01
-24.000000 -36.000000 3.068469E+01
-24.000000 -38.000000 3.616431E+01
-24.000000 -40.000000 3.279180E+01
-22.000000 40.000000 2.319227E+01
-22.000000 38.000000 2.320707E+00
-22.000000 36.000000 -1.297775E+01
-22.000000 34.000000 -1.818295E+01
-22.000000 32.000000 -7.920938E+00
-22.000000 30.000000 6.591089E+00
-22.000000 28.000000 9.212623E+00
-22.000000 26.000000 2.555993E+00
-22.000000 24.000000 -1.850404E+01
-22.000000 22.000000 -3.166027E+01
-22.000000 20.000000 -4.179996E+01
-22.000000 18.000000 -5.285591E+01
-22.000000 16.000000 -5.037854E+01
-22.000000 14.000000 -3.803041E+01
-22.000000 12.000000 -2.286719E+01
-22.000000 10.000000 -2.156623E+01
-22.000000 8.000000 4.406878E+00
-22.000000 6.000000 5.451450E+01
-22.000000 4.000000 9.450674E+01
-22.000000 2.000000 9.087941E+01
-22.000000 0.000000 7.509757E+01
-22.000000 -2.000000 7.590893E+01
-22.000000 -4.000000 9.477312E+01
-22.000000 -6.000000 1.008549E+02
-22.000000 -8.000000 7.649687E+01
-22.000000 -10.000000 3.861293E+01
-22.000000 -12.000000 7.736285E+00
-22.000000 -14.000000 3.064632E-01
-22.000000 -16.000000 3.150588E+00
-22.000000 -18.000000 1.553442E+01
-22.000000 -20.000000 2.906121E+01
-22.000000 -22.000000 3.565851E+01
-22.000000 -24.000000 3.080274E+01
-22.000000 -26.000000 1.347690E+01
-22.000000 -28.000000 9.237249E+00
-22.000000 -30.000000 1.571349E+01
-22.000000 -32.000000 2.810204E+01
-22.000000 -34.000000 3.815765E+01
-22.000000 -36.000000 4.321161E+01
-22.000000 -38.000000 4.142250E+01
-22.000000 -40.000000 3.244579E+01
-20.000000 40.000000 2.163503E+01
-20.000000 38.000000 -2.910101E-01
-20.000000 36.000000 -1.839890E+01
-20.000000 34.000000 -3.395280E+01
-20.000000 32.000000 -3.283312E+01
-20.000000 30.000000 -2.128157E+01
-20.000000 28.000000 -1.312070E+01
-20.000000 26.000000 -7.777575E+00
-20.000000 24.000000 -1.861740E+01
-20.000000 22.000000 -3.531501E+01
-20.000000 20.000000 -4.978147E+01
-20.000000 18.000000 -5.317742E+01
-20.000000 16.000000 -3.351700E+01
-20.000000 14.000000 -5.347931E+00
-20.000000 12.000000 7.491263E+00
-20.000000 10.000000 -7.612307E+00
-20.000000 8.000000 6.886183E+00
-20.000000 6.000000 5.277687E+01
-20.000000 4.000000 8.999893E+01
-20.000000 2.000000 7.934659E+01
-20.000000 0.000000 4.930698E+01
-20.000000 -2.000000 4.743065E+01
-20.000000 -4.000000 8.410266E+01
-20.000000 -6.000000 1.093631E+02
-20.000000 -8.000000 8.980969E+01
-20.000000 -10.000000 4.298418E+01
-20.000000 -12.000000 8.752048E+00
-20.000000 -14.000000 7.396667E+00
-20.000000 -16.000000 1.494473E+01
-20.000000 -18.000000 2.488058E+01
-20.000000 -20.000000 3.277805E+01
-20.000000 -22.000000 3.508201E+01
-20.000000 -24.000000 2.912822E+01
-20.000000 -26.000000 1.828245E+01
-20.000000 -28.000000 2.129520E+01
-20.000000 -30.000000 3.070811E+01
-20.000000 -32.000000 3.938928E+01
-20.000000 -34.000000 4.950693E+01
-20.000000 -36.000000 5.187658E+01
-20.000000 -38.000000 4.219087E+01
-20.000000 -40.000000 2.893068E+01
-18.000000 40.000000 1.989376E+01
-18.000000 38.000000 1.282779E+00
-18.000000 36.000000 -2.017594E+01
-18.000000 34.000000 -4.083371E+01
-18.000000 32.000000 -4.223597E+01
-18.000000 30.000000 -2.923780E+01
-18.000000 28.000000 -1.737137E+01
-18.000000 26.000000 -1.282539E+01
-18.000000 24.000000 -2.338660E+01
-18.000000 22.000000 -3.146516E+01
-18.000000 20.000000 -2.940048E+01
-18.000000 18.000000 -1.280512E+01
-18.000000 16.000000 1.912729E+01
-18.000000 14.000000 4.961192E+01
-18.000000 12.000000 5.127891E+01
-18.000000 10.000000 2.500560E+01
-18.000000 8.000000 2.016203E+01
-18.000000 6.000000 4.811881E+01
-18.000000 4.000000 7.071186E+01
-18.000000 2.000000 4.785893E+01
-18.000000 0.000000 5.088317E+00
-18.000000 -2.000000 -4.017538E+00
-18.000000 -4.000000 3.648777E+01
-18.000000 -6.000000 7.685479E+01
-18.000000 -8.000000 7.656906E+01
-18.000000 -10.000000 4.219092E+01
-18.000000 -12.000000 1.442959E+01
-18.000000 -14.000000 1.372553E+01
-18.000000 -16.000000 1.855164E+01
-18.000000 -18.000000 2.580961E+01
-18.000000 -20.000000 2.951688E+01
-18.000000 -22.000000 3.003541E+01
-18.000000 -24.000000 2.912642E+01
-18.000000 -26.000000 2.407037E+01
-18.000000 -28.000000 3.399858E+01
-18.000000 -30.000000 4.687977E+01
-18.000000 -32.000000 4.878123E+01
-18.000000 -34.000000 5.717220E+01
-18.000000 -36.000000 5.763615E+01
-18.000000 -38.000000 4.131040E+01
-18.000000 -40.000000 2.463192E+01
-16.000000 40.000000 1.957012E+01
-16.000000 38.000000 7.506417E+00
-16.000000 36.000000 -1.538305E+01
-16.000000 34.000000 -3.595882E+01
-16.000000 32.000000 -3.533699E+01
-16.000000 30.000000 -1.879930E+01
-16.000000 28.000000 -4.610068E+00
-16.000000 26.000000 -5.814365E+00
-16.000000 24.000000 -2.054454E+01
-16.000000 22.000000 -1.847453E+01
-16.000000 20.000000 -1.594759E+00
-16.000000 18.000000 2.602034E+01
-16.000000 16.000000 6.068200E+01
-16.000000 14.000000 8.664515E+01
-16.000000 12.000000 7.990000E+01
-16.000000 10.000000 4.607294E+01
-16.000000 8.000000 2.501581E+01
-16.000000 6.000000 3.632955E+01
-16.000000 4.000000 4.878860E+01
-16.000000 2.000000 2.424292E+01
-16.000000 0.000000 -1.769600E+01
-16.000000 -2.000000 -3.312816E+01
-16.000000 -4.000000 -7.506386E+00
-16.000000 -6.000000 2.690974E+01
-16.000000 -8.000000 3.916623E+01
-16.000000 -10.000000 3.145511E+01
-16.000000 -12.000000 2.565871E+01
-16.000000 -14.000000 2.606199E+01
-16.000000 -16.000000 2.441435E+01
-16.000000 -18.000000 2.768076E+01
-16.000000 -20.000000 2.840842E+01
-16.000000 -22.000000 2.727163E+01
-16.000000 -24.000000 2.892937E+01
-16.000000 -26.000000 2.945071E+01
-16.000000 -28.000000 4.029280E+01
-16.000000 -30.000000 5.207417E+01
-16.000000 -32.000000 5.144470E+01
-16.000000 -34.000000 5.663350E+01
-16.000000 -36.000000 5.360198E+01
-16.000000 -38.000000 3.702724E+01
-16.000000 -40.000000 2.261100E+01
-14.000000 40.000000 1.961763E+01
-14.000000 38.000000 1.852765E+01
-14.000000 36.000000 1.079999E+00
-14.000000 34.000000 -1.640874E+01
-14.000000 32.000000 -1.672418E+01
-14.000000 30.000000 -3.597527E-01
-14.000000 28.000000 1.430794E+01
-14.000000 26.000000 1.196022E+01
-14.000000 24.000000 -6.491852E-02
-14.000000 22.000000 6.436445E+00
-14.000000 20.000000 2.298121E+01
-14.000000 18.000000 4.120351E+01
-14.000000 16.000000 6.444899E+01
-14.000000 14.000000 8.310381E+01
-14.000000 12.000000 7.707801E+01
-14.000000 10.000000 3.750280E+01
-14.000000 8.000000 2.133348E+00
-14.000000 6.000000 1.709675E+00
-14.000000 4.000000 2.585053E+01
-14.000000 2.000000 2.335524E+01
-14.000000 0.000000 -1.102749E+01
-14.000000 -2.000000 -3.290536E+01
-14.000000 -4.000000 -1.716290E+01
-14.000000 -6.000000 3.088624E+00
-14.000000 -8.000000 1.180620E+01
-14.000000 -10.000000 2.008619E+01
-14.000000 -12.000000 3.413865E+01
-14.000000 -14.000000 4.243757E+01
-14.000000 -16.000000 3.998127E+01
-14.000000 -18.000000 3.830470E+01
-14.000000 -20.000000 3.468097E+01
-14.000000 -22.000000 2.953723E+01
-14.000000 -24.000000 2.685176E+01
-14.000000 -26.000000 2.777836E+01
-14.000000 -28.000000 3.788587E+01
-14.000000 -30.000000 4.880772E+01
-14.000000 -32.000000 4.832476E+01
-14.000000 -34.000000 4.834635E+01
-14.000000 -36.000000 4.038998E+01
-14.000000 -38.000000 2.826995E+01
-14.000000 -40.000000 2.348727E+01
-12.000000 40.000000 2.179923E+01
-12.000000 38.000000 3.198978E+01
-12.000000 36.000000 2.625501E+01
-12.000000 34.000000 1.294929E+01
-12.000000 32.000000 6.056983E+00
-12.000000 30.000000 1.535553E+01
-12.000000 28.000000 2.494975E+01
-12.000000 26.000000 2.538576E+01
-12.000000 24.000000 2.269720E+01
-12.000000 22.000000 2.565024E+01
-12.000000 20.000000 2.959997E+01
-12.000000 18.000000 2.860156E+01
-12.000000 16.000000 3.706163E+01
-12.000000 14.000000 5.230318E+01
-12.000000 12.000000 5.919127E+01
-12.000000 10.000000 3.008843E+01
-12.000000 8.000000 -2.113142E+01
-12.000000 6.000000 -4.760614E+01
-12.000000 4.000000 5.203876E-01
-12.000000 2.000000 5.433315E+01
-12.000000 0.000000 2.862002E+01
-12.000000 -2.000000 -9.418459E+00
-12.000000 -4.000000 2.590431E+00
-12.000000 -6.000000 8.947083E+00
-12.000000 -8.000000 6.137040E+00
-12.000000 -10.000000 2.185333E+01
-12.000000 -12.000000 4.637242E+01
-12.000000 -14.000000 5.662366E+01
-12.000000 -16.000000 5.283609E+01
-12.000000 -18.000000 4.898985E+01
-12.000000 -20.000000 4.219489E+01
-12.000000 -22.000000 3.296987E+01
-12.000000 -24.000000 2.426248E+01
-12.000000 -26.000000 1.909819E+01
-12.000000 -28.000000 2.853640E+01
-12.000000 -30.000000 4.005491E+01
-12.000000 -32.000000 3.825384E+01
-12.000000 -34.000000 3.673164E+01
-12.000000 -36.000000 2.938241E+01
-12.000000 -38.000000 2.032116E+01
-12.000000 -40.000000 2.711657E+01
-10.000000 40.000000 2.878959E+01
-10.000000 38.000000 4.483731E+01
-10.000000 36.000000 4.661971E+01
-10.000000 34.000000 3.700088E+01
-10.000000 32.000000 2.698566E+01
-10.000000 30.000000 2.848114E+01
-10.000000 28.000000 2.852771E+01
-10.000000 26.000000 2.629459E+01
-10.000000 24.000000 2.350830E+01
-10.000000 22.000000 2.016767E+01
-10.000000 20.000000 1.899728E+01
-10.000000 18.000000 1.151604E+01
-10.000000 16.000000 1.244243E+01
-10.000000 14.000000 2.430035E+01
-10.000000 12.000000 3.996817E+01
-10.000000 10.000000 3.134688E+01
-10.000000 8.000000 -1.946762E+01
-10.000000 6.000000 -6.817307E+01
-10.000000 4.000000 -8.204138E+00
-10.000000 2.000000 9.850684E+01
-10.000000 0.000000 8.489239E+01
-10.000000 -2.000000 3.182574E+01
-10.000000 -4.000000 2.828565E+01
-10.000000 -6.000000 2.716544E+01
-10.000000 -8.000000 2.217065E+01
-10.000000 -10.000000 3.789697E+01
-10.000000 -12.000000 5.686689E+01
-10.000000 -14.000000 5.726388E+01
-10.000000 -16.000000 5.070585E+01
-10.000000 -18.000000 4.798288E+01
-10.000000 -20.000000 4.291068E+01
-10.000000 -22.000000 3.473353E+01
-10.000000 -24.000000 2.373370E+01
-10.000000 -26.000000 1.239998E+01
-10.000000 -28.000000 1.733118E+01
-10.000000 -30.000000 2.363845E+01
-10.000000 -32.000000 2.301318E+01
-10.000000 -34.000000 2.730052E+01
-10.000000 -36.000000 2.790682E+01
-10.000000 -38.000000 2.207882E+01
-10.000000 -40.000000 3.527683E+01
-8.000000 40.000000 3.430761E+01
-8.000000 38.000000 5.274553E+01
-8.000000 36.000000 5.751454E+01
-8.000000 34.000000 5.137449E+01
-8.000000 32.000000 4.326586E+01
-8.000000 30.000000 4.292354E+01
-8.000000 28.000000 3.299806E+01
-8.000000 26.000000 1.743608E+01
-8.000000 24.000000 4.545341E+00
-8.000000 22.000000 4.851761E-01
-8.000000 20.000000 5.752237E+00
-8.000000 18.000000 6.623302E+00
-8.000000 16.000000 1.247188E+01
-8.000000 14.000000 2.337761E+01
-8.000000 12.000000 3.341600E+01
-8.000000 10.000000 3.136754E+01
-8.000000 8.000000 1.524020E+01
-8.000000 6.000000 2.357883E-01
-8.000000 4.000000 3.699175E+01
-8.000000 2.000000 9.236933E+01
-8.000000 0.000000 8.040534E+01
-8.000000 -2.000000 4.849486E+01
-8.000000 -4.000000 4.310380E+01
-8.000000 -6.000000 4.586799E+01
-8.000000 -8.000000 4.396414E+01
-8.000000 -10.000000 4.960887E+01
-8.000000 -12.000000 5.475420E+01
-8.000000 -14.000000 4.530717E+01
-8.000000 -16.000000 3.736906E+01
-8.000000 -18.000000 3.753092E+01
-8.000000 -20.000000 3.605302E+01
-8.000000 -22.000000 3.181622E+01
-8.000000 -24.000000 2.578351E+01
-8.000000 -26.000000 1.629081E+01
-8.000000 -28.000000 1.358072E+01
-8.000000 -30.000000 1.114398E+01
-8.000000 -32.000000 1.479160E+01
-8.000000 -34.000000 2.591235E+01
-8.000000 -36.000000 3.532431E+01
-8.000000 -38.000000 3.472629E+01
-8.000000 -40.000000 4.639984E+01
-6.000000 40.000000 3.356266E+01
-6.000000 38.000000 5.231272E+01
-6.000000 36.000000 6.208409E+01
-6.000000 34.000000 6.248399E+01
-6.000000 32.000000 5.459615E+01
-6.000000 30.000000 5.421544E+01
-6.000000 28.000000 3.676262E+01
-6.000000 26.000000 8.222579E+00
-6.000000 24.000000 -9.476324E+00
-6.000000 22.000000 -6.251009E+00
-6.000000 20.000000 4.358801E+00
-6.000000 18.000000 1.342980E+01
-6.000000 16.000000 3.019847E+01
-6.000000 14.000000 4.389950E+01
-6.000000 12.000000 4.569445E+01
-6.000000 10.000000 4.839548E+01
-6.000000 8.000000 6.847064E+01
-6.000000 6.000000 8.557816E+01
-6.000000 4.000000 8.253505E+01
-6.000000 2.000000 5.745980E+01
-6.000000 0.000000 2.590799E+01
-6.000000 -2.000000 1.513841E+01
-6.000000 -4.000000 2.945501E+01
-6.000000 -6.000000 4.709419E+01
-6.000000 -8.000000 4.409707E+01
-6.000000 -10.000000 3.816046E+01
-6.000000 -12.000000 3.620028E+01
-6.000000 -14.000000 2.983213E+01
-6.000000 -16.000000 2.454517E+01
-6.000000 -18.000000 2.753884E+01
-6.000000 -20.000000 2.984399E+01
-6.000000 -22.000000 3.059360E+01
-6.000000 -24.000000 3.068507E+01
-6.000000 -26.000000 2.753180E+01
-6.000000 -28.000000 2.246075E+01
-6.000000 -30.000000 1.873896E+01
-6.000000 -32.000000 2.453951E+01
-6.000000 -34.000000 3.769006E+01
-6.000000 -36.000000 4.849699E+01
-6.000000 -38.000000 4.934985E+01
-6.000000 -40.000000 5.495234E+01
-4.000000 40.000000 2.894020E+01
-4.000000 38.000000 4.546211E+01
-4.000000 36.000000 5.888254E+01
-4.000000 34.000000 6.759420E+01
-4.000000 32.000000 6.088501E+01
-4.000000 30.000000 5.777436E+01
-4.000000 28.000000 3.804806E+01
-4.000000 26.000000 1.018273E+01
-4.000000 24.000000 -4.168890E+00
-4.000000 22.000000 2.821558E+00
-4.000000 20.000000 1.448859E+01
-4.000000 18.000000 2.669233E+01
-4.000000 16.000000 4.404103E+01
-4.000000 14.000000 5.862332E+01
-4.000000 12.000000 5.867610E+01
-4.000000 10.000000 7.361295E+01
-4.000000 8.000000 1.180085E+02
-4.000000 6.000000 1.416546E+02
-4.000000 4.000000 9.893221E+01
-4.000000 2.000000 1.905008E+01
-4.000000 0.000000 -3.445054E+01
-4.000000 -2.000000 -4.062641E+01
-4.000000 -4.000000 -5.508265E+00
-4.000000 -6.000000 2.827556E+01
-4.000000 -8.000000 1.991151E+01
-4.000000 -10.000000 7.781162E+00
-4.000000 -12.000000 1.043687E+01
-4.000000 -14.000000 1.470605E+01
-4.000000 -16.000000 1.579536E+01
-4.000000 -18.000000 2.308532E+01
-4.000000 -20.000000 3.054346E+01
-4.000000 -22.000000 3.575483E+01
-4.000000 -24.000000 3.960220E+01
-4.000000 -26.000000 4.071714E+01
-4.000000 -28.000000 3.813505E+01
-4.000000 -30.000000 3.919565E+01
-4.000000 -32.000000 4.487050E+01
-4.000000 -34.000000 5.839742E+01
-4.000000 -36.000000 6.530120E+01
-4.000000 -38.000000 6.104646E+01
-4.000000 -40.000000 5.980492E+01
-2.000000 40.000000 2.049697E+01
-2.000000 38.000000 3.811938E+01
-2.000000 36.000000 5.194070E+01
-2.000000 34.000000 6.243279E+01
-2.000000 32.000000 5.898975E+01
-2.000000 30.000000 5.477255E+01
-2.000000 28.000000 3.848882E+01
-2.000000 26.000000 1.805475E+01
-2.000000 24.000000 6.607685E+00
-2.000000 22.000000 1.138827E+01
-2.000000 20.000000 2.444476E+01
-2.000000 18.000000 3.560005E+01
-2.000000 16.000000 4.354308E+01
-2.000000 14.000000 4.833792E+01
-2.000000 12.000000 4.986140E+01
-2.000000 10.000000 7.941153E+01
-2.000000 8.000000 1.380240E+02
-2.000000 6.000000 1.601549E+02
-2.000000 4.000000 9.428242E+01
-2.000000 2.000000 -3.589312E+00
-2.000000 0.000000 -6.391870E+01
-2.000000 -2.000000 -6.511676E+01
-2.000000 -4.000000 -2.499382E+01
-2.000000 -6.000000 4.111231E+00
-2.000000 -8.000000 -5.915558E+00
-2.000000 -10.000000 -1.512225E+01
-2.000000 -12.000000 -3.231174E+00
-2.000000 -14.000000 6.877069E+00
-2.000000 -16.000000 1.050042E+01
-2.000000 -18.000000 2.292204E+01
-2.000000 -20.000000 3.582445E+01
-2.000000 -22.000000 4.151243E+01
-2.000000 -24.000000 4.787788E+01
-2.000000 -26.000000 5.177544E+01
-2.000000 -28.000000 5.155217E+01
-2.000000 -30.000000 5.694480E+01
-2.000000 -32.000000 6.018655E+01
-2.000000 -34.000000 7.546051E+01
-2.000000 -36.000000 8.056532E+01
-2.000000 -38.000000 7.002533E+01
-2.000000 -40.000000 6.179647E+01
0.000000 40.000000 1.243315E+01
0.000000 38.000000 3.248767E+01
0.000000 36.000000 4.346348E+01
0.000000 34.000000 4.716553E+01
0.000000 32.000000 4.344497E+01
0.000000 30.000000 4.338499E+01
0.000000 28.000000 3.474959E+01
0.000000 26.000000 1.715388E+01
0.000000 24.000000 5.301057E+00
0.000000 22.000000 8.739452E+00
0.000000 20.000000 1.963648E+01
0.000000 18.000000 2.566314E+01
0.000000 16.000000 3.024584E+01
0.000000 14.000000 2.723270E+01
0.000000 12.000000 2.821009E+01
0.000000 10.000000 6.381744E+01
0.000000 8.000000 1.296085E+02
0.000000 6.000000 1.520555E+02
0.000000 4.000000 8.132221E+01
0.000000 2.000000 -1.010034E+01
0.000000 0.000000 -5.853168E+01
0.000000 -2.000000 -4.824934E+01
0.000000 -4.000000 -1.389249E+01
0.000000 -6.000000 -1.877289E-01
0.000000 -8.000000 -6.386269E+00
0.000000 -10.000000 -6.291328E+00
0.000000 -12.000000 7.185577E+00
0.000000 -14.000000 1.235758E+01
0.000000 -16.000000 1.149656E+01
0.000000 -18.000000 2.621074E+01
0.000000 -20.000000 4.237743E+01
0.000000 -22.000000 4.894752E+01
0.000000 -24.000000 5.513900E+01
0.000000 -26.000000 5.680381E+01
0.000000 -28.000000 5.480650E+01
0.000000 -30.000000 5.880395E+01
0.000000 -32.000000 6.026791E+01
0.000000 -34.000000 7.573727E+01
0.000000 -36.000000 8.304503E+01
0.000000 -38.000000 7.380545E+01
0.000000 -40.000000 6.326861E+01
2.000000 40.000000 1.382839E+01
2.000000 38.000000 2.672295E+01
2.000000 36.000000 2.657152E+01
2.000000 34.000000 1.859430E+01
2.000000 32.000000 1.184531E+01
2.000000 30.000000 1.659681E+01
2.000000 28.000000 1.736633E+01
2.000000 26.000000 5.822985E+00
2.000000 24.000000 -6.762930E+00
2.000000 22.000000 -4.870733E+00
2.000000 20.000000 2.234217E+00
2.000000 18.000000 7.207535E+00
2.000000 16.000000 1.892335E+01
2.000000 14.000000 2.410945E+01
2.000000 12.000000 2.713780E+01
2.000000 10.000000 5.311405E+01
2.000000 8.000000 1.078202E+02
2.000000 6.000000 1.286947E+02
2.000000 4.000000 7.134114E+01
2.000000 2.000000 -6.438137E+00
2.000000 0.000000 -3.821764E+01
2.000000 -2.000000 -1.282926E+01
2.000000 -4.000000 2.192440E+01
2.000000 -6.000000 2.550355E+01
2.000000 -8.000000 1.739585E+01
2.000000 -10.000000 2.245233E+01
2.000000 -12.000000 2.833685E+01
2.000000 -14.000000 2.374112E+01
2.000000 -16.000000 1.727158E+01
2.000000 -18.000000 2.742909E+01
2.000000 -20.000000 4.527737E+01
2.000000 -22.000000 5.634733E+01
2.000000 -24.000000 6.203672E+01
2.000000 -26.000000 5.878600E+01
2.000000 -28.000000 4.983207E+01
2.000000 -30.000000 4.617668E+01
2.000000 -32.000000 4.505586E+01
2.000000 -34.000000 5.799306E+01
2.000000 -36.000000 6.947741E+01
2.000000 -38.000000 6.910677E+01
2.000000 -40.000000 6.688893E+01
4.000000 40.000000 1.996701E+01
4.000000 38.000000 1.736011E+01
4.000000 36.000000 2.004240E+00
4.000000 34.000000 -1.740026E+01
4.000000 32.000000 -2.553176E+01
4.000000 30.000000 -1.638221E+01
4.000000 28.000000 -7.032654E+00
4.000000 26.000000 -8.886978E+00
4.000000 24.000000 -1.877826E+01
4.000000 22.000000 -1.722797E+01
4.000000 20.000000 -8.011253E+00
4.000000 18.000000 7.046579E+00
4.000000 16.000000 2.817305E+01
4.000000 14.000000 4.472425E+01
4.000000 12.000000 4.861956E+01
4.000000 10.000000 5.273867E+01
4.000000 8.000000 8.335238E+01
4.000000 6.000000 1.008316E+02
4.000000 4.000000 6.428028E+01
4.000000 2.000000 -4.505482E-01
4.000000 0.000000 -2.174745E+01
4.000000 -2.000000 2.035529E+01
4.000000 -4.000000 6.128996E+01
4.000000 -6.000000 5.777651E+01
4.000000 -8.000000 4.474151E+01
4.000000 -10.000000 5.257267E+01
4.000000 -12.000000 4.766600E+01
4.000000 -14.000000 3.105205E+01
4.000000 -16.000000 1.769077E+01
4.000000 -18.000000 2.134205E+01
4.000000 -20.000000 4.123121E+01
4.000000 -22.000000 5.782938E+01
4.000000 -24.000000 6.590361E+01
4.000000 -26.000000 5.930903E+01
4.000000 -28.000000 4.199438E+01
4.000000 -30.000000 3.007118E+01
4.000000 -32.000000 2.174712E+01
4.000000 -34.000000 3.307392E+01
4.000000 -36.000000 5.074564E+01
4.000000 -38.000000 5.922903E+01
4.000000 -40.000000 6.997999E+01
6.000000 40.000000 2.174468E+01
6.000000 38.000000 8.448180E+00
6.000000 36.000000 -1.761176E+01
6.000000 34.000000 -4.641061E+01
6.000000 32.000000 -5.386291E+01
6.000000 30.000000 -3.726878E+01
6.000000 28.000000 -2.020039E+01
6.000000 26.000000 -1.753995E+01
6.000000 24.000000 -2.894982E+01
6.000000 22.000000 -2.544767E+01
6.000000 20.000000 -6.968809E+00
6.000000 18.000000 2.223838E+01
6.000000 16.000000 5.348838E+01
6.000000 14.000000 7.377583E+01
6.000000 12.000000 7.219209E+01
6.000000 10.000000 5.952834E+01
6.000000 8.000000 6.448822E+01
6.000000 6.000000 7.548221E+01
6.000000 4.000000 5.343137E+01
6.000000 2.000000 6.451237E+00
6.000000 0.000000 -4.910810E+00
6.000000 -2.000000 3.955732E+01
6.000000 -4.000000 8.070434E+01
6.000000 -6.000000 7.645695E+01
6.000000 -8.000000 6.318190E+01
6.000000 -10.000000 6.911319E+01
6.000000 -12.000000 5.681861E+01
6.000000 -14.000000 3.262526E+01
6.000000 -16.000000 1.176855E+01
6.000000 -18.000000 1.131941E+01
6.000000 -20.000000 3.017406E+01
6.000000 -22.000000 5.022178E+01
6.000000 -24.000000 6.203355E+01
6.000000 -26.000000 5.665962E+01
6.000000 -28.000000 3.599787E+01
6.000000 -30.000000 1.655378E+01
6.000000 -32.000000 1.036476E+00
6.000000 -34.000000 1.341298E+01
6.000000 -36.000000 3.650617E+01
6.000000 -38.000000 5.066435E+01
6.000000 -40.000000 6.941536E+01
8.000000 40.000000 2.128275E+01
8.000000 38.000000 5.715052E+00
8.000000 36.000000 -2.632430E+01
8.000000 34.000000 -6.013274E+01
8.000000 32.000000 -6.444014E+01
8.000000 30.000000 -3.951599E+01
8.000000 28.000000 -1.633609E+01
8.000000 26.000000 -1.393523E+01
8.000000 24.000000 -2.843375E+01
8.000000 22.000000 -1.984805E+01
8.000000 20.000000 4.688374E+00
8.000000 18.000000 3.488908E+01
8.000000 16.000000 6.820330E+01
8.000000 14.000000 8.587255E+01
8.000000 12.000000 7.534404E+01
8.000000 10.000000 5.059441E+01
8.000000 8.000000 4.247757E+01
8.000000 6.000000 5.715658E+01
8.000000 4.000000 5.067000E+01
8.000000 2.000000 1.486963E+01
8.000000 0.000000 8.467070E+00
8.000000 -2.000000 5.211014E+01
8.000000 -4.000000 8.994196E+01
8.000000 -6.000000 7.994986E+01
8.000000 -8.000000 5.866073E+01
8.000000 -10.000000 5.491871E+01
8.000000 -12.000000 4.835099E+01
8.000000 -14.000000 3.473431E+01
8.000000 -16.000000 1.872117E+01
8.000000 -18.000000 1.478004E+01
8.000000 -20.000000 2.226630E+01
8.000000 -22.000000 3.489856E+01
8.000000 -24.000000 4.327915E+01
8.000000 -26.000000 4.005417E+01
8.000000 -28.000000 2.369608E+01
8.000000 -30.000000 4.048582E+00
8.000000 -32.000000 -7.679722E+00
8.000000 -34.000000 7.420738E+00
8.000000 -36.000000 3.231935E+01
8.000000 -38.000000 4.870705E+01
8.000000 -40.000000 6.632740E+01
10.000000 40.000000 1.791394E+01
10.000000 38.000000 8.096125E+00
10.000000 36.000000 -2.025831E+01
10.000000 34.000000 -4.883394E+01
10.000000 32.000000 -5.075885E+01
10.000000 30.000000 -2.692757E+01
10.000000 28.000000 -5.690760E+00
10.000000 26.000000 -2.123398E+00
10.000000 24.000000 -9.429739E+00
10.000000 22.000000 3.494066E+00
10.000000 20.000000 2.170975E+01
10.000000 18.000000 3.406765E+01
10.000000 16.000000 5.264902E+01
10.000000 14.000000 6.121331E+01
10.000000 12.000000 4.546798E+01
10.000000 10.000000 1.636234E+01
10.000000 8.000000 1.859205E+01
10.000000 6.000000 5.271398E+01
10.000000 4.000000 6.256065E+01
10.000000 2.000000 2.365404E+01
10.000000 0.000000 1.114341E+01
10.000000 -2.000000 6.414441E+01
10.000000 -4.000000 1.102421E+02
10.000000 -6.000000 7.996608E+01
10.000000 -8.000000 2.941314E+01
10.000000 -10.000000 1.252560E+01
10.000000 -12.000000 2.242131E+01
10.000000 -14.000000 3.847552E+01
10.000000 -16.000000 4.394171E+01
10.000000 -18.000000 3.609523E+01
10.000000 -20.000000 2.476490E+01
10.000000 -22.000000 1.968770E+01
10.000000 -24.000000 1.567416E+01
10.000000 -26.000000 8.980413E+00
10.000000 -28.000000 1.838207E-01
10.000000 -30.000000 -7.198318E+00
10.000000 -32.000000 -5.642250E+00
10.000000 -34.000000 1.312985E+01
10.000000 -36.000000 3.850211E+01
10.000000 -38.000000 5.230972E+01
10.000000 -40.000000 6.276887E+01
12.000000 40.000000 1.040386E+01
12.000000 38.000000 1.361238E+01
12.000000 36.000000 5.716410E-01
12.000000 34.000000 -1.467973E+01
12.000000 32.000000 -1.982707E+01
12.000000 30.000000 -8.935493E+00
12.000000 28.000000 1.579778E+00
12.000000 26.000000 7.164668E+00
12.000000 24.000000 1.111230E+01
12.000000 22.000000 2.183611E+01
12.000000 20.000000 2.713076E+01
12.000000 18.000000 2.043289E+01
12.000000 16.000000 2.093928E+01
12.000000 14.000000 1.877907E+01
12.000000 12.000000 3.216402E+00
12.000000 10.000000 -1.819791E+01
12.000000 8.000000 6.339697E+00
12.000000 6.000000 5.534888E+01
12.000000 4.000000 6.457652E+01
12.000000 2.000000 2.298918E+01
12.000000 0.000000 1.284295E+01
12.000000 -2.000000 7.584292E+01
12.000000 -4.000000 1.290702E+02
12.000000 -6.000000 7.404881E+01
12.000000 -8.000000 -1.064062E+01
12.000000 -10.000000 -4.122601E+01
12.000000 -12.000000 -8.280310E+00
12.000000 -14.000000 4.778706E+01
12.000000 -16.000000 8.356054E+01
12.000000 -18.000000 7.205352E+01
12.000000 -20.000000 3.940602E+01
12.000000 -22.000000 1.370165E+01
12.000000 -24.000000 -7.102097E+00
12.000000 -26.000000 -2.008648E+01
12.000000 -28.000000 -2.105840E+01
12.000000 -30.000000 -1.548114E+01
12.000000 -32.000000 -4.155964E+00
12.000000 -34.000000 2.005247E+01
12.000000 -36.000000 4.790148E+01
12.000000 -38.000000 5.529431E+01
12.000000 -40.000000 5.670345E+01
14.000000 40.000000 1.327636E+00
14.000000 38.000000 2.354467E+01
14.000000 36.000000 2.635565E+01
14.000000 34.000000 2.022888E+01
14.000000 32.000000 1.038100E+01
14.000000 30.000000 8.372876E+00
14.000000 28.000000 6.185673E+00
14.000000 26.000000 4.293106E+00
14.000000 24.000000 8.801178E+00
14.000000 22.000000 1.740456E+01
14.000000 20.000000 1.894920E+01
14.000000 18.000000 1.135923E+01
14.000000 16.000000 6.690393E+00
14.000000 14.000000 -5.916533E+00
14.000000 12.000000 -2.792346E+01
14.000000 10.000000 -4.219893E+01
14.000000 8.000000 -6.127455E+00
14.000000 6.000000 4.151622E+01
14.000000 4.000000 4.196818E+01
14.000000 2.000000 6.818762E+00
14.000000 0.000000 1.188040E+01
14.000000 -2.000000 7.824390E+01
14.000000 -4.000000 1.257825E+02
14.000000 -6.000000 6.243276E+01
14.000000 -8.000000 -3.796088E+01
14.000000 -10.000000 -7.787928E+01
14.000000 -12.000000 -1.939928E+01
14.000000 -14.000000 7.288526E+01
14.000000 -16.000000 1.343714E+02
14.000000 -18.000000 1.165807E+02
14.000000 -20.000000 6.180348E+01
14.000000 -22.000000 1.789324E+01
14.000000 -24.000000 -1.854298E+01
14.000000 -26.000000 -3.558007E+01
14.000000 -28.000000 -3.191751E+01
14.000000 -30.000000 -2.268896E+01
14.000000 -32.000000 -1.060717E+01
14.000000 -34.000000 1.864443E+01
14.000000 -36.000000 4.927557E+01
14.000000 -38.000000 5.196775E+01
14.000000 -40.000000 4.776929E+01
16.000000 40.000000 -1.326856E+01
16.000000 38.000000 3.255722E+01
16.000000 36.000000 4.904841E+01
16.000000 34.000000 4.637803E+01
16.000000 32.000000 3.228834E+01
16.000000 30.000000 2.036353E+01
16.000000 28.000000 7.363224E+00
16.000000 26.000000 -7.240467E+00
16.000000 24.000000 -9.904970E+00
16.000000 22.000000 -9.615135E-02
16.000000 20.000000 3.973671E+00
16.000000 18.000000 7.132108E+00
16.000000 16.000000 1.158270E+01
16.000000 14.000000 -1.909407E+00
16.000000 12.000000 -3.509624E+01
16.000000 10.000000 -5.678492E+01
16.000000 8.000000 -3.015877E+01
16.000000 6.000000 5.271748E+00
16.000000 4.000000 3.484795E+00
16.000000 2.000000 -2.088484E+01
16.000000 0.000000 -5.024508E+00
16.000000 -2.000000 5.818260E+01
16.000000 -4.000000 9.546910E+01
16.000000 -6.000000 3.987009E+01
16.000000 -8.000000 -4.872188E+01
16.000000 -10.000000 -7.727441E+01
16.000000 -12.000000 9.444785E+00
16.000000 -14.000000 1.276052E+02
16.000000 -16.000000 1.943065E+02
16.000000 -18.000000 1.628888E+02
16.000000 -20.000000 8.478646E+01
16.000000 -22.000000 2.161277E+01
16.000000 -24.000000 -2.469451E+01
16.000000 -26.000000 -4.315719E+01
16.000000 -28.000000 -4.219251E+01
16.000000 -30.000000 -3.450395E+01
16.000000 -32.000000 -2.369736E+01
16.000000 -34.000000 5.237387E+00
16.000000 -36.000000 3.538986E+01
16.000000 -38.000000 4.090494E+01
16.000000 -40.000000 4.019126E+01
18.000000 40.000000 -3.506812E+01
18.000000 38.000000 2.796962E+01
18.000000 36.000000 5.875325E+01
18.000000 34.000000 6.248477E+01
18.000000 32.000000 4.299857E+01
18.000000 30.000000 2.046841E+01
18.000000 28.000000 3.444176E-01
18.000000 26.000000 -1.646326E+01
18.000000 24.000000 -1.984022E+01
18.000000 22.000000 -9.589100E+00
18.000000 20.000000 -5.817554E+00
18.000000 18.000000 2.268143E+00
18.000000 16.000000 1.834048E+01
18.000000 14.000000 1.533510E+01
18.000000 12.000000 -2.505226E+01
18.000000 10.000000 -6.840816E+01
18.000000 8.000000 -6.323999E+01
18.000000 6.000000 -3.508647E+01
18.000000 4.000000 -2.607997E+01
18.000000 2.000000 -4.189256E+01
18.000000 0.000000 -3.396933E+01
18.000000 -2.000000 1.536909E+01
18.000000 -4.000000 4.461270E+01
18.000000 -6.000000 8.264278E+00
18.000000 -8.000000 -5.600654E+01
18.000000 -10.000000 -6.102237E+01
18.000000 -12.000000 5.924296E+01
18.000000 -14.000000 1.975196E+02
18.000000 -16.000000 2.542687E+02
18.000000 -18.000000 2.014981E+02
18.000000 -20.000000 1.015758E+02
18.000000 -22.000000 1.986548E+01
18.000000 -24.000000 -3.193950E+01
18.000000 -26.000000 -5.484023E+01
18.000000 -28.000000 -5.737645E+01
18.000000 -30.000000 -4.995213E+01
18.000000 -32.000000 -3.967495E+01
18.000000 -34.000000 -1.535430E+01
18.000000 -36.000000 1.308922E+01
18.000000 -38.000000 2.581224E+01
18.000000 -40.000000 3.433427E+01
20.000000 40.000000 -5.966702E+01
20.000000 38.000000 2.876186E+00
20.000000 36.000000 4.532742E+01
20.000000 34.000000 6.166354E+01
20.000000 32.000000 4.057481E+01
20.000000 30.000000 1.407385E+01
20.000000 28.000000 -6.419374E+00
20.000000 26.000000 -1.638438E+01
20.000000 24.000000 -1.441231E+01
20.000000 22.000000 -7.209528E+00
20.000000 20.000000 -3.918510E+00
20.000000 18.000000 2.978804E+00
20.000000 16.000000 2.107683E+01
20.000000 14.000000 2.257932E+01
20.000000 12.000000 -2.053888E+01
20.000000 10.000000 -8.190434E+01
20.000000 8.000000 -9.600815E+01
20.000000 6.000000 -7.101134E+01
20.000000 4.000000 -4.659266E+01
20.000000 2.000000 -5.388892E+01
20.000000 0.000000 -5.756742E+01
20.000000 -2.000000 -2.601342E+01
20.000000 -4.000000 3.160513E+00
20.000000 -6.000000 -9.808463E+00
20.000000 -8.000000 -5.716967E+01
20.000000 -10.000000 -4.825953E+01
20.000000 -12.000000 9.644838E+01
20.000000 -14.000000 2.451305E+02
20.000000 -16.000000 2.868704E+02
20.000000 -18.000000 2.119286E+02
20.000000 -20.000000 9.841653E+01
20.000000 -22.000000 1.117884E+01
20.000000 -24.000000 -3.640499E+01
20.000000 -26.000000 -6.104245E+01
20.000000 -28.000000 -6.524685E+01
20.000000 -30.000000 -5.846131E+01
20.000000 -32.000000 -5.512389E+01
20.000000 -34.000000 -3.570744E+01
20.000000 -36.000000 -6.653358E+00
20.000000 -38.000000 9.447344E+00
20.000000 -40.000000 2.651690E+01
22.000000 40.000000 -8.684932E+01
22.000000 38.000000 -3.341677E+01
22.000000 36.000000 2.107687E+01
22.000000 34.000000 4.936140E+01
22.000000 32.000000 3.344497E+01
22.000000 30.000000 1.204050E+01
22.000000 28.000000 -3.901009E+00
22.000000 26.000000 -1.167751E+01
22.000000 24.000000 -1.156017E+01
22.000000 22.000000 -9.383430E+00
22.000000 20.000000 -6.465326E+00
22.000000 18.000000 1.484947E+00
22.000000 16.000000 1.876632E+01
22.000000 14.000000 1.829931E+01
22.000000 12.000000 -2.490410E+01
22.000000 10.000000 -9.476210E+01
22.000000 8.000000 -1.217392E+02
22.000000 6.000000 -1.014722E+02
22.000000 4.000000 -6.577387E+01
22.000000 2.000000 -5.948040E+01
22.000000 0.000000 -5.546876E+01
22.000000 -2.000000 -3.008638E+01
22.000000 -4.000000 8.376398E-01
22.000000 -6.000000 -4.847612E+00
22.000000 -8.000000 -4.085452E+01
22.000000 -10.000000 -2.639856E+01
22.000000 -12.000000 1.060516E+02
22.000000 -14.000000 2.362649E+02
22.000000 -16.000000 2.618709E+02
22.000000 -18.000000 1.814568E+02
22.000000 -20.000000 7.229979E+01
22.000000 -22.000000 -3.752053E+00
22.000000 -24.000000 -3.590791E+01
22.000000 -26.000000 -4.729818E+01
22.000000 -28.000000 -5.222554E+01
22.000000 -30.000000 -5.391793E+01
22.000000 -32.000000 -6.338010E+01
22.000000 -34.000000 -4.802037E+01
22.000000 -36.000000 -1.899170E+01
22.000000 -38.000000 -5.092823E+00
22.000000 -40.000000 1.475240E+01
24.000000 40.000000 -1.177107E+02
24.000000 38.000000 -7.125151E+01
24.000000 36.000000 9.712926E+00
24.000000 34.000000 4.366104E+01
24.000000 32.000000 2.934008E+01
24.000000 30.000000 1.218547E+01
24.000000 28.000000 -1.310695E+00
24.000000 26.000000 -1.378162E+01
24.000000 24.000000 -1.950039E+01
24.000000 22.000000 -2.018629E+01
24.000000 20.000000 -1.962881E+01
24.000000 18.000000 -1.157941E+01
24.000000 16.000000 9.528714E+00
24.000000 14.000000 1.355891E+01
24.000000 12.000000 -2.229830E+01
24.000000 10.000000 -9.541399E+01
24.000000 8.000000 -1.292033E+02
24.000000 6.000000 -1.055714E+02
24.000000 4.000000 -6.340854E+01
24.000000 2.000000 -5.183115E+01
24.000000 0.000000 -4.172630E+01
24.000000 -2.000000 -9.470438E+00
24.000000 -4.000000 2.402179E+01
24.000000 -6.000000 1.847693E+01
24.000000 -8.000000 -1.241392E+01
24.000000 -10.000000 -3.340312E+00
24.000000 -12.000000 9.030428E+01
24.000000 -14.000000 1.835477E+02
24.000000 -16.000000 1.949563E+02
24.000000 -18.000000 1.244708E+02
24.000000 -20.000000 3.322303E+01
24.000000 -22.000000 -2.357959E+01
24.000000 -24.000000 -3.525336E+01
24.000000 -26.000000 -2.605512E+01
24.000000 -28.000000 -2.703104E+01
24.000000 -30.000000 -3.777643E+01
24.000000 -32.000000 -5.536859E+01
24.000000 -34.000000 -4.671924E+01
24.000000 -36.000000 -2.466846E+01
24.000000 -38.000000 -1.416202E+01
24.000000 -40.000000 1.150816E+00
26.000000 40.000000 -1.446312E+02
26.000000 38.000000 -1.023813E+02
26.000000 36.000000 1.904844E+01
26.000000 34.000000 5.543047E+01
26.000000 32.000000 3.455802E+01
26.000000 30.000000 1.086860E+01
26.000000 28.000000 -9.383111E+00
26.000000 26.000000 -2.585302E+01
26.000000 24.000000 -3.434249E+01
26.000000 22.000000 -3.323498E+01
26.000000 20.000000 -3.375647E+01
26.000000 18.000000 -2.639857E+01
26.000000 16.000000 -1.143370E+00
26.000000 14.000000 1.302785E+01
26.000000 12.000000 -1.084214E+01
26.000000 10.000000 -7.616425E+01
26.000000 8.000000 -1.068988E+02
26.000000 6.000000 -7.458544E+01
26.000000 4.000000 -3.256827E+01
26.000000 2.000000 -3.016998E+01
26.000000 0.000000 -2.879495E+01
26.000000 -2.000000 1.245769E+01
26.000000 -4.000000 5.651365E+01
26.000000 -6.000000 5.218538E+01
26.000000 -8.000000 9.235661E+00
26.000000 -10.000000 -3.272310E+00
26.000000 -12.000000 4.906815E+01
26.000000 -14.000000 1.123085E+02
26.000000 -16.000000 1.170025E+02
26.000000 -18.000000 6.348805E+01
26.000000 -20.000000 -4.146929E+00
26.000000 -22.000000 -4.117880E+01
26.000000 -24.000000 -3.601151E+01
26.000000 -26.000000 -1.452434E+01
26.000000 -28.000000 -5.972491E+00
26.000000 -30.000000 -1.555605E+01
26.000000 -32.000000 -3.663617E+01
26.000000 -34.000000 -3.462716E+01
26.000000 -36.000000 -2.235989E+01
26.000000 -38.000000 -1.782346E+01
26.000000 -40.000000 -1.049888E+01
28.000000 40.000000 -1.437642E+02
28.000000 38.000000 -1.006418E+02
28.000000 36.000000 2.463352E+01
28.000000 34.000000 6.435388E+01
28.000000 32.000000 4.291954E+01
28.000000 30.000000 1.230122E+01
28.000000 28.000000 -1.560932E+01
28.000000 26.000000 -3.457280E+01
28.000000 24.000000 -4.587776E+01
28.000000 22.000000 -4.066460E+01
28.000000 20.000000 -3.327432E+01
28.000000 18.000000 -2.000161E+01
28.000000 16.000000 1.552801E+00
28.000000 14.000000 1.246307E+01
28.000000 12.000000 -1.240205E+01
28.000000 10.000000 -6.718631E+01
28.000000 8.000000 -8.254305E+01
28.000000 6.000000 -3.877220E+01
28.000000 4.000000 9.204027E+00
28.000000 2.000000 1.247927E+01
28.000000 0.000000 9.683302E+00
28.000000 -2.000000 4.967948E+01
28.000000 -4.000000 9.261358E+01
28.000000 -6.000000 7.469476E+01
28.000000 -8.000000 4.670075E+00
28.000000 -10.000000 -3.743794E+01
28.000000 -12.000000 -1.069931E+01
28.000000 -14.000000 3.796559E+01
28.000000 -16.000000 4.495461E+01
28.000000 -18.000000 1.125958E+01
28.000000 -20.000000 -3.287302E+01
28.000000 -22.000000 -5.365027E+01
28.000000 -24.000000 -3.767078E+01
28.000000 -26.000000 -1.076665E+01
28.000000 -28.000000 8.497580E+00
28.000000 -30.000000 2.995165E+00
28.000000 -32.000000 -2.082776E+01
28.000000 -34.000000 -1.803902E+01
28.000000 -36.000000 -1.025626E+01
28.000000 -38.000000 -1.513226E+01
28.000000 -40.000000 -1.688714E+01
30.000000 40.000000 -1.140496E+02
30.000000 38.000000 -6.312202E+01
30.000000 36.000000 2.115278E+01
30.000000 34.000000 5.414470E+01
30.000000 32.000000 4.039223E+01
30.000000 30.000000 1.809885E+01
30.000000 28.000000 -6.767057E+00
30.000000 26.000000 -3.254257E+01
30.000000 24.000000 -4.904829E+01
30.000000 22.000000 -3.732332E+01
30.000000 20.000000 -1.768932E+01
30.000000 18.000000 1.576345E+00
30.000000 16.000000 1.631195E+01
30.000000 14.000000 1.054391E+01
30.000000 12.000000 -2.875546E+01
30.000000 10.000000 -8.321526E+01
30.000000 8.000000 -8.280050E+01
30.000000 6.000000 -2.453114E+01
30.000000 4.000000 4.144730E+01
30.000000 2.000000 6.322570E+01
30.000000 0.000000 7.472587E+01
30.000000 -2.000000 1.064620E+02
30.000000 -4.000000 1.292967E+02
30.000000 -6.000000 8.389731E+01
30.000000 -8.000000 -9.395387E+00
30.000000 -10.000000 -7.937403E+01
30.000000 -12.000000 -7.488513E+01
30.000000 -14.000000 -3.922069E+01
30.000000 -16.000000 -2.150320E+01
30.000000 -18.000000 -2.955393E+01
30.000000 -20.000000 -4.893751E+01
30.000000 -22.000000 -5.621421E+01
30.000000 -24.000000 -3.640808E+01
30.000000 -26.000000 -6.973571E+00
30.000000 -28.000000 1.557713E+01
30.000000 -30.000000 1.181378E+01
30.000000 -32.000000 -8.526101E+00
30.000000 -34.000000 -2.502154E+00
30.000000 -36.000000 3.133334E+00
30.000000 -38.000000 -7.219305E+00
30.000000 -40.000000 -1.733759E+01
32.000000 40.000000 -8.073003E+01
32.000000 38.000000 -2.446699E+01
32.000000 36.000000 2.166099E+01
32.000000 34.000000 3.432808E+01
32.000000 32.000000 2.312809E+01
32.000000 30.000000 1.802229E+01
32.000000 28.000000 8.747930E+00
32.000000 26.000000 -1.863086E+01
32.000000 24.000000 -3.700663E+01
32.000000 22.000000 -2.093147E+01
32.000000 20.000000 2.759102E+00
32.000000 18.000000 1.657280E+01
32.000000 16.000000 2.343968E+01
32.000000 14.000000 6.055839E+00
32.000000 12.000000 -4.239975E+01
32.000000 10.000000 -1.037743E+02
32.000000 8.000000 -8.962970E+01
32.000000 6.000000 -1.385575E+01
32.000000 4.000000 6.744685E+01
32.000000 2.000000 9.752805E+01
32.000000 0.000000 1.127886E+02
32.000000 -2.000000 1.396040E+02
32.000000 -4.000000 1.491714E+02
32.000000 -6.000000 8.817044E+01
32.000000 -8.000000 -1.548330E+01
32.000000 -10.000000 -1.010510E+02
32.000000 -12.000000 -1.224763E+02
32.000000 -14.000000 -1.045993E+02
32.000000 -16.000000 -7.644346E+01
32.000000 -18.000000 -5.716278E+01
32.000000 -20.000000 -5.232147E+01
32.000000 -22.000000 -4.914013E+01
32.000000 -24.000000 -3.038297E+01
32.000000 -26.000000 -3.265505E+00
32.000000 -28.000000 1.535866E+01
32.000000 -30.000000 1.572374E+01
32.000000 -32.000000 4.448506E+00
32.000000 -34.000000 8.473872E+00
32.000000 -36.000000 8.597051E+00
32.000000 -38.000000 -1.442826E+00
32.000000 -40.000000 -1.682465E+01
34.000000 40.000000 -5.444511E+01
34.000000 38.000000 -9.478116E+00
34.000000 36.000000 1.225118E+01
34.000000 34.000000 8.573069E+00
34.000000 32.000000 -1.577962E+00
34.000000 30.000000 5.812578E+00
34.000000 28.000000 1.533231E+01
34.000000 26.000000 3.868425E+00
34.000000 24.000000 -6.730869E+00
34.000000 22.000000 3.040202E+00
34.000000 20.000000 1.655180E+01
34.000000 18.000000 1.856537E+01
34.000000 16.000000 1.763090E+01
34.000000 14.000000 2.380669E+00
34.000000 12.000000 -3.992112E+01
34.000000 10.000000 -9.779293E+01
34.000000 8.000000 -6.905528E+01
34.000000 6.000000 2.225735E+01
34.000000 4.000000 1.031047E+02
34.000000 2.000000 1.101815E+02
34.000000 0.000000 9.986089E+01
34.000000 -2.000000 1.247591E+02
34.000000 -4.000000 1.403343E+02
34.000000 -6.000000 8.075950E+01
34.000000 -8.000000 -2.426180E+01
34.000000 -10.000000 -1.124059E+02
34.000000 -12.000000 -1.483787E+02
34.000000 -14.000000 -1.419437E+02
34.000000 -16.000000 -1.087546E+02
34.000000 -18.000000 -7.144511E+01
34.000000 -20.000000 -4.926243E+01
34.000000 -22.000000 -4.045482E+01
34.000000 -24.000000 -2.538684E+01
34.000000 -26.000000 -4.582487E+00
34.000000 -28.000000 1.053981E+01
34.000000 -30.000000 1.429093E+01
34.000000 -32.000000 1.088922E+01
34.000000 -34.000000 1.314362E+01
34.000000 -36.000000 8.779245E+00
34.000000 -38.000000 3.011627E-01
34.000000 -40.000000 -1.808548E+01
36.000000 40.000000 -3.570034E+01
36.000000 38.000000 -1.895995E+01
36.000000 36.000000 -1.648471E+01
36.000000 34.000000 -2.651503E+01
36.000000 32.000000 -2.751011E+01
36.000000 30.000000 -1.129535E+01
36.000000 28.000000 9.162516E+00
36.000000 26.000000 1.665007E+01
36.000000 24.000000 1.880218E+01
36.000000 22.000000 1.931701E+01
36.000000 20.000000 2.132388E+01
36.000000 18.000000 1.847478E+01
36.000000 16.000000 1.807080E+01
36.000000 14.000000 1.114738E+01
36.000000 12.000000 -1.701183E+01
36.000000 10.000000 -5.343103E+01
36.000000 8.000000 -1.488120E+01
36.000000 6.000000 7.595797E+01
36.000000 4.000000 1.382429E+02
36.000000 2.000000 1.116224E+02
36.000000 0.000000 6.794913E+01
36.000000 -2.000000 7.766086E+01
36.000000 -4.000000 9.936537E+01
36.000000 -6.000000 5.456557E+01
36.000000 -8.000000 -3.802046E+01
36.000000 -10.000000 -1.189123E+02
36.000000 -12.000000 -1.591064E+02
36.000000 -14.000000 -1.624087E+02
36.000000 -16.000000 -1.286242E+02
36.000000 -18.000000 -8.263721E+01
36.000000 -20.000000 -5.100842E+01
36.000000 -22.000000 -3.771474E+01
36.000000 -24.000000 -2.560918E+01
36.000000 -26.000000 -8.644130E+00
36.000000 -28.000000 2.011043E+00
36.000000 -30.000000 2.574414E+00
36.000000 -32.000000 4.452307E+00
36.000000 -34.000000 8.185921E+00
36.000000 -36.000000 6.510993E+00
36.000000 -38.000000 1.337870E+00
36.000000 -40.000000 -1.797445E+01
38.000000 40.000000 -2.437973E+01
38.000000 38.000000 -3.975815E+01
38.000000 36.000000 -5.649762E+01
38.000000 34.000000 -6.685547E+01
38.000000 32.000000 -5.188788E+01
38.000000 30.000000 -2.391413E+01
38.000000 28.000000 5.422115E-01
38.000000 26.000000 1.232771E+01
38.000000 24.000000 1.756031E+01
38.000000 22.000000 1.873577E+01
38.000000 20.000000 2.307993E+01
38.000000 18.000000 2.789015E+01
38.000000 16.000000 4.077425E+01
38.000000 14.000000 4.431966E+01
38.000000 12.000000 2.545499E+01
38.000000 10.000000 3.501769E+00
38.000000 8.000000 3.702523E+01
38.000000 6.000000 1.106289E+02
38.000000 4.000000 1.458029E+02
38.000000 2.000000 9.897880E+01
38.000000 0.000000 4.078538E+01
38.000000 -2.000000 2.849560E+01
38.000000 -4.000000 3.988728E+01
38.000000 -6.000000 1.256224E+01
38.000000 -8.000000 -5.453732E+01
38.000000 -10.000000 -1.173710E+02
38.000000 -12.000000 -1.527003E+02
38.000000 -14.000000 -1.667775E+02
38.000000 -16.000000 -1.417290E+02
38.000000 -18.000000 -9.924224E+01
38.000000 -20.000000 -6.609785E+01
38.000000 -22.000000 -4.673516E+01
38.000000 -24.000000 -3.151616E+01
38.000000 -26.000000 -1.505567E+01
38.000000 -28.000000 -1.125678E+01
38.000000 -30.000000 -1.640558E+01
38.000000 -32.000000 -1.175428E+01
38.000000 -34.000000 -4.241355E+00
38.000000 -36.000000 1.313204E+00
38.000000 -38.000000 3.913362E-01
38.000000 -40.000000 -1.519193E+01
40.000000 40.000000 -2.302614E+01
40.000000 38.000000 -6.542693E+01
40.000000 36.000000 -9.727890E+01
40.000000 34.000000 -1.006177E+02
40.000000 32.000000 -6.578557E+01
40.000000 30.000000 -2.561766E+01
40.000000 28.000000 -2.595740E+00
40.000000 26.000000 5.147907E+00
40.000000 24.000000 7.830128E+00
40.000000 22.000000 1.694967E+01
40.000000 20.000000 3.351874E+01
40.000000 18.000000 5.250294E+01
40.000000 16.000000 7.747157E+01
40.000000 14.000000 8.589598E+01
40.000000 12.000000 6.410113E+01
40.000000 10.000000 3.410177E+01
40.000000 8.000000 4.912027E+01
40.000000 6.000000 1.026190E+02
40.000000 4.000000 1.178929E+02
40.000000 2.000000 6.201523E+01
40.000000 0.000000 1.045182E+00
40.000000 -2.000000 -2.212258E+01
40.000000 -4.000000 -1.972683E+01
40.000000 -6.000000 -3.154298E+01
40.000000 -8.000000 -6.937849E+01
40.000000 -10.000000 -1.059365E+02
40.000000 -12.000000 -1.270403E+02
40.000000 -14.000000 -1.451779E+02
40.000000 -16.000000 -1.415818E+02
40.000000 -18.000000 -1.174678E+02
40.000000 -20.000000 -9.113751E+01
40.000000 -22.000000 -6.662821E+01
40.000000 -24.000000 -4.344065E+01
40.000000 -26.000000 -2.738676E+01
40.000000 -28.000000 -2.739025E+01
40.000000 -30.000000 -3.325037E+01
40.000000 -32.000000 -2.692476E+01
40.000000 -34.000000 -1.292606E+01
40.000000 -36.000000 -3.010565E+00
40.000000 -38.000000 -3.836770E+00
40.000000 -40.000000 -1.698910E+01
42.000000 40.000000 -3.316503E+01
42.000000 38.000000 -8.835607E+01
42.000000 36.000000 -1.232229E+02
42.000000 34.000000 -1.136662E+02
42.000000 32.000000 -6.117636E+01
42.000000 30.000000 -1.545302E+01
42.000000 28.000000 1.775113E+00
42.000000 26.000000 5.491194E+00
42.000000 24.000000 5.098408E+00
42.000000 22.000000 1.978255E+01
42.000000 20.000000 4.598911E+01
42.000000 18.000000 7.217297E+01
42.000000 16.000000 9.566028E+01
42.000000 14.000000 9.964378E+01
42.000000 12.000000 6.955840E+01
42.000000 10.000000 2.592211E+01
42.000000 8.000000 2.572372E+01
42.000000 6.000000 6.405503E+01
42.000000 4.000000 7.337612E+01
42.000000 2.000000 2.176842E+01
42.000000 0.000000 -3.700163E+01
42.000000 -2.000000 -6.390819E+01
42.000000 -4.000000 -6.461942E+01
42.000000 -6.000000 -6.402147E+01
42.000000 -8.000000 -7.781905E+01
42.000000 -10.000000 -8.772189E+01
42.000000 -12.000000 -9.198583E+01
42.000000 -14.000000 -1.093343E+02
42.000000 -16.000000 -1.297684E+02
42.000000 -18.000000 -1.328597E+02
42.000000 -20.000000 -1.175199E+02
42.000000 -22.000000 -8.905107E+01
42.000000 -24.000000 -5.535766E+01
42.000000 -26.000000 -3.920527E+01
42.000000 -28.000000 -4.000078E+01
42.000000 -30.000000 -4.463442E+01
42.000000 -32.000000 -3.533528E+01
42.000000 -34.000000 -1.432091E+01
42.000000 -36.000000 -3.802232E+00
42.000000 -38.000000 -9.976952E+00
42.000000 -40.000000 -2.814094E+01
44.000000 40.000000 -4.834961E+01
44.000000 38.000000 -9.573345E+01
44.000000 36.000000 -1.209933E+02
44.000000 34.000000 -1.024598E+02
44.000000 32.000000 -4.388466E+01
44.000000 30.000000 7.547698E-01
44.000000 28.000000 1.254784E+01
44.000000 26.000000 8.348671E+00
44.000000 24.000000 -1.727778E+00
44.000000 22.000000 5.684952E+00
44.000000 20.000000 2.910640E+01
44.000000 18.000000 5.399305E+01
44.000000 16.000000 7.195300E+01
44.000000 14.000000 7.291871E+01
44.000000 12.000000 4.314271E+01
44.000000 10.000000 6.851050E-01
44.000000 8.000000 -5.556459E-01
44.000000 6.000000 2.812543E+01
44.000000 4.000000 3.715978E+01
44.000000 2.000000 -3.685352E+00
44.000000 0.000000 -5.260044E+01
44.000000 -2.000000 -7.601458E+01
44.000000 -4.000000 -7.417566E+01
