-10.000000 36.000000 3.814105E+01
-10.000000 34.000000 4.215053E+01
-10.000000 32.000000 3.999192E+01
-10.000000 30.000000 3.111505E+01
-10.000000 28.000000 1.924685E+01
-10.000000 26.000000 1.118791E+01
-10.000000 24.000000 2.203253E+01
-10.000000 22.000000 3.059249E+01
-10.000000 20.000000 2.296331E+01
-10.000000 18.000000 3.372939E+00
-10.000000 16.000000 -5.757045E+00
-10.000000 14.000000 -3.210732E+00
-10.000000 12.000000 1.199759E+00
-10.000000 10.000000 -3.173580E-01
-10.000000 8.000000 -1.079115E+01
-10.000000 6.000000 -2.532505E+01
-10.000000 4.000000 -4.200551E+01
-10.000000 2.000000 -6.076480E+01
-10.000000 0.000000 -6.974422E+01
-10.000000 -2.000000 -6.338762E+01
-10.000000 -4.000000 -4.754729E+01
-10.000000 -6.000000 -2.775079E+01
-10.000000 -8.000000 -2.119836E+01
-10.000000 -10.000000 -2.851297E+01
-10.000000 -12.000000 -4.449317E+01
-10.000000 -14.000000 -6.141660E+01
-10.000000 -16.000000 -7.307989E+01
-10.000000 -18.000000 -7.455161E+01
-10.000000 -20.000000 -6.364244E+01
-10.000000 -22.000000 -4.488836E+01
-10.000000 -24.000000 -2.838165E+01
-10.000000 -26.000000 -2.057744E+01
-10.000000 -28.000000 -1.135394E+01
-10.000000 -30.000000 -3.041458E-02
-10.000000 -32.000000 5.067093E+00
-10.000000 -34.000000 3.116615E+00
-10.000000 -36.000000 -2.200702E+00
-10.000000 -38.000000 -2.704691E+00
-10.000000 -40.000000 1.645505E+00
-8.000000 40.000000 2.746573E+01
-8.000000 38.000000 2.894006E+01
-8.000000 36.000000 2.870639E+01
-8.000000 34.000000 3.297283E+01
-8.000000 32.000000 3.385572E+01
-8.000000 30.000000 2.525468E+01
-8.000000 28.000000 1.207661E+01
-8.000000 26.000000 4.715168E+00
-8.000000 24.000000 1.795909E+01
-8.000000 22.000000 2.970343E+01
-8.000000 20.000000 2.418470E+01
-8.000000 18.000000 4.799327E+00
-8.000000 16.000000 -2.223841E+00
-8.000000 14.000000 1.342812E+00
-8.000000 12.000000 5.877934E+00
-8.000000 10.000000 5.142164E+00
-8.000000 8.000000 -3.703419E+00
-8.000000 6.000000 -1.753473E+01
-8.000000 4.000000 -3.818577E+01
-8.000000 2.000000 -6.172713E+01
-8.000000 0.000000 -7.591039E+01
-8.000000 -2.000000 -7.154351E+01
-8.000000 -4.000000 -5.603471E+01
-8.000000 -6.000000 -3.630914E+01
-8.000000 -8.000000 -2.820133E+01
-8.000000 -10.000000 -3.374755E+01
-8.000000 -12.000000 -4.685548E+01
-8.000000 -14.000000 -6.094152E+01
-8.000000 -16.000000 -7.080747E+01
-8.000000 -18.000000 -7.192711E+01
-8.000000 -20.000000 -6.189387E+01
-8.000000 -22.000000 -4.575570E+01
-8.000000 -24.000000 -3.012510E+01
-8.000000 -26.000000 -2.415429E+01
-8.000000 -28.000000 -1.810895E+01
-8.000000 -30.000000 -6.037570E+00
-8.000000 -32.000000 1.310176E+00
-8.000000 -34.000000 -5.682068E-01
-8.000000 -36.000000 -5.114823E+00
-8.000000 -38.000000 -5.780136E+00
-8.000000 -40.000000 -1.420277E+00
-6.000000 40.000000 2.790709E+01
-6.000000 38.000000 2.195612E+01
-6.000000 36.000000 1.467345E+01
-6.000000 34.000000 1.678527E+01
-6.000000 32.000000 1.971907E+01
-6.000000 30.000000 1.125087E+01
-6.000000 28.000000 -2.961110E+00
-6.000000 26.000000 -9.195607E+00
-6.000000 24.000000 6.559191E+00
-6.000000 22.000000 2.464314E+01
-6.000000 20.000000 2.410755E+01
-6.000000 18.000000 7.993094E+00
-6.000000 16.000000 2.271396E+00
-6.000000 14.000000 3.475624E+00
-6.000000 12.000000 3.958078E+00
-6.000000 10.000000 1.684721E+00
-6.000000 8.000000 -4.781462E+00
-6.000000 6.000000 -1.539207E+01
-6.000000 4.000000 -3.454673E+01
-6.000000 2.000000 -5.715438E+01
-6.000000 0.000000 -7.235292E+01
-6.000000 -2.000000 -6.934164E+01
-6.000000 -4.000000 -5.591160E+01
-6.000000 -6.000000 -3.862461E+01
-6.000000 -8.000000 -2.959159E+01
-6.000000 -10.000000 -3.274965E+01
-6.000000 -12.000000 -4.251645E+01
-6.000000 -14.000000 -5.421865E+01
-6.000000 -16.000000 -6.339577E+01
-6.000000 -18.000000 -6.403007E+01
-6.000000 -20.000000 -5.533823E+01
-6.000000 -22.000000 -4.131669E+01
-6.000000 -24.000000 -2.836840E+01
-6.000000 -26.000000 -2.437332E+01
-6.000000 -28.000000 -2.135720E+01
-6.000000 -30.000000 -1.127183E+01
-6.000000 -32.000000 -3.776258E+00
-6.000000 -34.000000 -3.901553E+00
-6.000000 -36.000000 -5.682096E+00
-6.000000 -38.000000 -6.199944E+00
-6.000000 -40.000000 -2.256580E+00
-4.000000 40.000000 2.942829E+01
-4.000000 38.000000 1.678194E+01
-4.000000 36.000000 3.843111E+00
-4.000000 34.000000 2.398424E+00
-4.000000 32.000000 4.592375E+00
-4.000000 30.000000 -4.526739E+00
-4.000000 28.000000 -2.028446E+01
-4.000000 26.000000 -2.614005E+01
-4.000000 24.000000 -1.021296E+01
-4.000000 22.000000 1.237776E+01
-4.000000 20.000000 1.704656E+01
-4.000000 18.000000 6.705340E+00
-4.000000 16.000000 2.784802E+00
-4.000000 14.000000 1.769377E+00
-4.000000 12.000000 -2.950521E+00
-4.000000 10.000000 -7.410767E+00
-4.000000 8.000000 -9.817957E+00
-4.000000 6.000000 -1.513088E+01
-4.000000 4.000000 -3.069921E+01
-4.000000 2.000000 -5.161065E+01
-4.000000 0.000000 -6.487755E+01
-4.000000 -2.000000 -6.236621E+01
-4.000000 -4.000000 -5.067668E+01
-4.000000 -6.000000 -3.429789E+01
-4.000000 -8.000000 -2.394299E+01
-4.000000 -10.000000 -2.484160E+01
-4.000000 -12.000000 -3.263105E+01
-4.000000 -14.000000 -4.261783E+01
-4.000000 -16.000000 -5.288033E+01
-4.000000 -18.000000 -5.418536E+01
-4.000000 -20.000000 -4.754668E+01
-4.000000 -22.000000 -3.570602E+01
-4.000000 -24.000000 -2.620697E+01
-4.000000 -26.000000 -2.272048E+01
-4.000000 -28.000000 -1.821880E+01
-4.000000 -30.000000 -1.039941E+01
-4.000000 -32.000000 -5.056460E+00
-4.000000 -34.000000 -4.492397E+00
-4.000000 -36.000000 -4.657898E+00
-4.000000 -38.000000 -4.540119E+00
-4.000000 -40.000000 -2.052895E+00
-2.000000 40.000000 2.733634E+01
-2.000000 38.000000 1.307040E+01
-2.000000 36.000000 1.077467E+00
-2.000000 34.000000 -3.003996E+00
-2.000000 32.000000 -3.038242E+00
-2.000000 30.000000 -1.317012E+01
-2.000000 28.000000 -3.005274E+01
-2.000000 26.000000 -3.691470E+01
-2.000000 24.000000 -2.429774E+01
-2.000000 22.000000 -1.036248E+00
-2.000000 20.000000 6.477397E+00
-2.000000 18.000000 -9.449768E-02
-2.000000 16.000000 -3.363396E+00
-2.000000 14.000000 -6.123917E+00
-2.000000 12.000000 -1.527920E+01
-2.000000 10.000000 -2.318391E+01
-2.000000 8.000000 -2.365817E+01
-2.000000 6.000000 -2.442171E+01
-2.000000 4.000000 -3.320543E+01
-2.000000 2.000000 -4.862308E+01
-2.000000 0.000000 -5.575815E+01
-2.000000 -2.000000 -5.055889E+01
-2.000000 -4.000000 -3.905012E+01
-2.000000 -6.000000 -2.357952E+01
-2.000000 -8.000000 -1.369118E+01
-2.000000 -10.000000 -1.474962E+01
-2.000000 -12.000000 -2.232581E+01
-2.000000 -14.000000 -3.112125E+01
-2.000000 -16.000000 -4.270067E+01
-2.000000 -18.000000 -4.502451E+01
-2.000000 -20.000000 -3.909930E+01
-2.000000 -22.000000 -2.992018E+01
-2.000000 -24.000000 -2.267378E+01
-2.000000 -26.000000 -1.854635E+01
-2.000000 -28.000000 -1.229757E+01
-2.000000 -30.000000 -3.782934E+00
-2.000000 -32.000000 1.400806E+00
-2.000000 -34.000000 4.978857E-01
-2.000000 -36.000000 -1.759258E+00
-2.000000 -38.000000 -2.707576E+00
-2.000000 -40.000000 -3.057457E+00
0.000000 40.000000 2.242868E+01
0.000000 38.000000 1.086129E+01
0.000000 36.000000 4.507877E+00
0.000000 34.000000 2.263773E+00
0.000000 32.000000 1.192434E+00
0.000000 30.000000 -1.110941E+01
0.000000 28.000000 -3.033357E+01
0.000000 26.000000 -3.927982E+01
0.000000 24.000000 -3.059214E+01
0.000000 22.000000 -1.019343E+01
0.000000 20.000000 -3.836546E+00
0.000000 18.000000 -9.003686E+00
0.000000 16.000000 -1.274606E+01
0.000000 14.000000 -1.712345E+01
0.000000 12.000000 -2.823071E+01
0.000000 10.000000 -3.994475E+01
0.000000 8.000000 -4.326388E+01
0.000000 6.000000 -4.349973E+01
0.000000 4.000000 -4.435380E+01
0.000000 2.000000 -5.003440E+01
0.000000 0.000000 -4.919149E+01
0.000000 -2.000000 -3.798154E+01
0.000000 -4.000000 -2.357152E+01
0.000000 -6.000000 -9.350456E+00
0.000000 -8.000000 -3.074251E+00
0.000000 -10.000000 -6.063145E+00
0.000000 -12.000000 -1.420873E+01
0.000000 -14.000000 -2.334867E+01
0.000000 -16.000000 -3.463640E+01
0.000000 -18.000000 -3.785341E+01
0.000000 -20.000000 -3.261067E+01
0.000000 -22.000000 -2.481229E+01
0.000000 -24.000000 -1.739153E+01
0.000000 -26.000000 -1.230207E+01
0.000000 -28.000000 -5.086956E+00
0.000000 -30.000000 5.554122E+00
0.000000 -32.000000 1.143081E+01
0.000000 -34.000000 8.234800E+00
0.000000 -36.000000 2.152060E+00
0.000000 -38.000000 -1.779850E+00
0.000000 -40.000000 -4.423803E+00
2.000000 40.000000 1.931228E+01
2.000000 38.000000 1.123964E+01
2.000000 36.000000 1.024345E+01
2.000000 34.000000 1.301865E+01
2.000000 32.000000 1.249460E+01
2.000000 30.000000 -2.408470E+00
2.000000 28.000000 -2.378306E+01
2.000000 26.000000 -3.359256E+01
2.000000 24.000000 -2.712026E+01
2.000000 22.000000 -1.335561E+01
2.000000 20.000000 -1.249477E+01
2.000000 18.000000 -1.975133E+01
2.000000 16.000000 -2.353034E+01
2.000000 14.000000 -2.733444E+01
2.000000 12.000000 -3.606788E+01
2.000000 10.000000 -4.762258E+01
2.000000 8.000000 -5.489237E+01
2.000000 6.000000 -5.788938E+01
2.000000 4.000000 -5.634880E+01
2.000000 2.000000 -5.652181E+01
2.000000 0.000000 -4.992322E+01
2.000000 -2.000000 -3.195043E+01
2.000000 -4.000000 -1.218094E+01
2.000000 -6.000000 2.769810E+00
2.000000 -8.000000 5.358046E+00
2.000000 -10.000000 1.188068E-01
2.000000 -12.000000 -1.044435E+01
2.000000 -14.000000 -2.124900E+01
2.000000 -16.000000 -3.118938E+01
2.000000 -18.000000 -3.397608E+01
2.000000 -20.000000 -2.919333E+01
2.000000 -22.000000 -2.071988E+01
2.000000 -24.000000 -1.186836E+01
2.000000 -26.000000 -6.454056E+00
2.000000 -28.000000 2.304245E+00
2.000000 -30.000000 1.436371E+01
2.000000 -32.000000 1.901707E+01
2.000000 -34.000000 1.406357E+01
2.000000 -36.000000 5.504865E+00
2.000000 -38.000000 -3.636093E-01
2.000000 -40.000000 -3.294073E+00
4.000000 40.000000 2.004127E+01
4.000000 38.000000 1.447373E+01
4.000000 36.000000 1.627090E+01
4.000000 34.000000 2.252350E+01
4.000000 32.000000 2.224271E+01
4.000000 30.000000 6.777021E+00
4.000000 28.000000 -1.279637E+01
4.000000 26.000000 -2.124311E+01
4.000000 24.000000 -1.562442E+01
4.000000 22.000000 -8.989954E+00
4.000000 20.000000 -1.455109E+01
4.000000 18.000000 -2.646690E+01
4.000000 16.000000 -3.183985E+01
4.000000 14.000000 -3.578374E+01
4.000000 12.000000 -4.131738E+01
4.000000 10.000000 -5.016854E+01
4.000000 8.000000 -5.852458E+01
4.000000 6.000000 -6.386906E+01
4.000000 4.000000 -6.302833E+01
4.000000 2.000000 -5.948133E+01
4.000000 0.000000 -4.833400E+01
4.000000 -2.000000 -2.683981E+01
4.000000 -4.000000 -4.574411E+00
4.000000 -6.000000 9.968966E+00
4.000000 -8.000000 9.647163E+00
4.000000 -10.000000 1.629156E+00
4.000000 -12.000000 -1.228703E+01
4.000000 -14.000000 -2.496309E+01
4.000000 -16.000000 -3.438738E+01
4.000000 -18.000000 -3.568376E+01
4.000000 -20.000000 -2.936972E+01
4.000000 -22.000000 -1.936840E+01
4.000000 -24.000000 -9.378593E+00
4.000000 -26.000000 -2.295977E+00
4.000000 -28.000000 7.795186E+00
4.000000 -30.000000 1.975889E+01
4.000000 -32.000000 2.292966E+01
4.000000 -34.000000 1.736654E+01
4.000000 -36.000000 8.018742E+00
4.000000 -38.000000 2.507105E+00
4.000000 -40.000000 9.006634E-01
6.000000 40.000000 2.382240E+01
6.000000 38.000000 2.004661E+01
6.000000 36.000000 2.147746E+01
6.000000 34.000000 2.725743E+01
6.000000 32.000000 2.677665E+01
6.000000 30.000000 1.278346E+01
6.000000 28.000000 -2.732527E+00
6.000000 26.000000 -9.285585E+00
6.000000 24.000000 -3.617591E+00
6.000000 22.000000 -9.125819E-01
6.000000 20.000000 -9.006098E+00
6.000000 18.000000 -2.279520E+01
6.000000 16.000000 -2.982634E+01
6.000000 14.000000 -3.471684E+01
6.000000 12.000000 -3.942962E+01
6.000000 10.000000 -4.523540E+01
6.000000 8.000000 -5.223476E+01
6.000000 6.000000 -6.001596E+01
6.000000 4.000000 -6.150388E+01
6.000000 2.000000 -5.547591E+01
6.000000 0.000000 -4.069177E+01
6.000000 -2.000000 -1.926738E+01
6.000000 -4.000000 3.380489E-01
6.000000 -6.000000 1.065806E+01
6.000000 -8.000000 6.355318E+00
6.000000 -10.000000 -5.962889E+00
6.000000 -12.000000 -2.131640E+01
6.000000 -14.000000 -3.393963E+01
6.000000 -16.000000 -4.274105E+01
6.000000 -18.000000 -4.328553E+01
6.000000 -20.000000 -3.470155E+01
6.000000 -22.000000 -2.279207E+01
6.000000 -24.000000 -1.049356E+01
6.000000 -26.000000 2.452607E-01
6.000000 -28.000000 1.115174E+01
6.000000 -30.000000 2.317712E+01
6.000000 -32.000000 2.675118E+01
6.000000 -34.000000 2.066304E+01
6.000000 -36.000000 1.068976E+01
6.000000 -38.000000 5.863394E+00
6.000000 -40.000000 5.964783E+00
8.000000 40.000000 2.968375E+01
8.000000 38.000000 2.705828E+01
8.000000 36.000000 2.552063E+01
8.000000 34.000000 2.863787E+01
8.000000 32.000000 2.772824E+01
8.000000 30.000000 1.490910E+01
8.000000 28.000000 1.088520E+00
8.000000 26.000000 -5.600218E+00
8.000000 24.000000 2.297993E-01
8.000000 22.000000 5.020622E+00
8.000000 20.000000 9.763680E-01
8.000000 18.000000 -9.059716E+00
8.000000 16.000000 -1.657613E+01
8.000000 14.000000 -2.173211E+01
8.000000 12.000000 -2.544309E+01
8.000000 10.000000 -2.862972E+01
8.000000 8.000000 -3.610990E+01
8.000000 6.000000 -4.659776E+01
8.000000 4.000000 -5.178261E+01
8.000000 2.000000 -4.689987E+01
8.000000 0.000000 -3.157745E+01
8.000000 -2.000000 -1.220490E+01
8.000000 -4.000000 2.501255E+00
8.000000 -6.000000 7.298326E+00
8.000000 -8.000000 -1.804739E+00
8.000000 -10.000000 -1.860664E+01
8.000000 -12.000000 -3.331693E+01
8.000000 -14.000000 -4.491010E+01
8.000000 -16.000000 -5.304014E+01
8.000000 -18.000000 -5.292682E+01
8.000000 -20.000000 -4.171027E+01
8.000000 -22.000000 -2.728838E+01
8.000000 -24.000000 -1.277216E+01
8.000000 -26.000000 -5.226741E-01
8.000000 -28.000000 1.051653E+01
8.000000 -30.000000 2.428607E+01
8.000000 -32.000000 3.050131E+01
8.000000 -34.000000 2.523837E+01
8.000000 -36.000000 1.547789E+01
8.000000 -38.000000 1.031842E+01
8.000000 -40.000000 1.099253E+01
10.000000 40.000000 3.577689E+01
10.000000 38.000000 3.340394E+01
10.000000 36.000000 2.978654E+01
10.000000 34.000000 3.131874E+01
10.000000 32.000000 2.923907E+01
10.000000 30.000000 1.551995E+01
10.000000 28.000000 -1.011925E+00
10.000000 26.000000 -1.023568E+01
10.000000 24.000000 -3.853678E+00
10.000000 22.000000 7.261806E+00
10.000000 20.000000 9.024837E+00
10.000000 18.000000 2.610697E+00
10.000000 16.000000 -4.382094E+00
10.000000 14.000000 -8.607093E+00
10.000000 12.000000 -1.074948E+01
10.000000 10.000000 -1.127110E+01
10.000000 8.000000 -1.819939E+01
10.000000 6.000000 -2.878374E+01
10.000000 4.000000 -3.660233E+01
10.000000 2.000000 -3.625630E+01
10.000000 0.000000 -2.432230E+01
10.000000 -2.000000 -7.768385E+00
10.000000 -4.000000 4.526020E+00
10.000000 -6.000000 6.522263E+00
10.000000 -8.000000 -5.603962E+00
10.000000 -10.000000 -2.390626E+01
10.000000 -12.000000 -3.858318E+01
10.000000 -14.000000 -5.069764E+01
10.000000 -16.000000 -5.901735E+01
10.000000 -18.000000 -5.795960E+01
10.000000 -20.000000 -4.398621E+01
10.000000 -22.000000 -2.718872E+01
10.000000 -24.000000 -1.343153E+01
10.000000 -26.000000 -3.579974E+00
10.000000 -28.000000 6.337619E+00
10.000000 -30.000000 2.122589E+01
10.000000 -32.000000 3.101783E+01
10.000000 -34.000000 2.980036E+01
10.000000 -36.000000 2.239274E+01
10.000000 -38.000000 1.598866E+01
10.000000 -40.000000 1.553832E+01
12.000000 40.000000 3.872705E+01
12.000000 38.000000 3.750907E+01
12.000000 36.000000 3.585024E+01
12.000000 34.000000 3.846105E+01
12.000000 32.000000 3.400548E+01
12.000000 30.000000 1.666192E+01
12.000000 28.000000 -5.027941E+00
12.000000 26.000000 -1.750396E+01
12.000000 24.000000 -1.046698E+01
12.000000 22.000000 4.878300E+00
12.000000 20.000000 7.921683E+00
12.000000 18.000000 8.641090E-01
12.000000 16.000000 -5.450561E+00
12.000000 14.000000 -7.562469E+00
12.000000 12.000000 -6.206931E+00
12.000000 10.000000 -1.611023E+00
12.000000 8.000000 -1.908381E+00
12.000000 6.000000 -8.660351E+00
12.000000 4.000000 -1.794923E+01
12.000000 2.000000 -2.409980E+01
12.000000 0.000000 -1.886628E+01
12.000000 -2.000000 -6.251221E+00
12.000000 -4.000000 5.976530E+00
12.000000 -6.000000 9.478073E+00
12.000000 -8.000000 -2.657850E+00
12.000000 -10.000000 -2.013012E+01
12.000000 -12.000000 -3.584798E+01
12.000000 -14.000000 -4.814048E+01
12.000000 -16.000000 -5.532141E+01
12.000000 -18.000000 -5.299934E+01
12.000000 -20.000000 -3.810786E+01
12.000000 -22.000000 -2.147166E+01
12.000000 -24.000000 -1.143939E+01
12.000000 -26.000000 -5.758317E+00
12.000000 -28.000000 2.439182E+00
12.000000 -30.000000 1.660478E+01
12.000000 -32.000000 2.884066E+01
12.000000 -34.000000 3.249915E+01
12.000000 -36.000000 2.779639E+01
12.000000 -38.000000 2.012395E+01
12.000000 -40.000000 1.884024E+01
14.000000 40.000000 3.704644E+01
14.000000 38.000000 3.996933E+01
14.000000 36.000000 4.424743E+01
14.000000 34.000000 4.908784E+01
14.000000 32.000000 4.044913E+01
14.000000 30.000000 1.671364E+01
14.000000 28.000000 -9.509003E+00
14.000000 26.000000 -2.437448E+01
14.000000 24.000000 -1.739203E+01
14.000000 22.000000 -1.542423E+00
14.000000 20.000000 -1.667733E+00
14.000000 18.000000 -1.394204E+01
14.000000 16.000000 -2.150384E+01
14.000000 14.000000 -2.106374E+01
14.000000 12.000000 -1.310176E+01
14.000000 10.000000 8.455772E-01
14.000000 8.000000 1.283014E+01
14.000000 6.000000 1.544728E+01
14.000000 4.000000 8.782681E+00
14.000000 2.000000 -3.263567E+00
14.000000 0.000000 -8.177935E+00
14.000000 -2.000000 -4.573433E+00
14.000000 -4.000000 5.157352E+00
14.000000 -6.000000 1.147272E+01
14.000000 -8.000000 -9.019890E-01
14.000000 -10.000000 -1.887233E+01
14.000000 -12.000000 -3.400149E+01
14.000000 -14.000000 -4.230334E+01
14.000000 -16.000000 -4.521110E+01
14.000000 -18.000000 -3.953428E+01
14.000000 -20.000000 -2.583860E+01
14.000000 -22.000000 -1.321631E+01
14.000000 -24.000000 -8.130621E+00
14.000000 -26.000000 -7.561926E+00
14.000000 -28.000000 -1.674691E+00
14.000000 -30.000000 1.192352E+01
14.000000 -32.000000 2.678154E+01
14.000000 -34.000000 3.413329E+01
14.000000 -36.000000 3.094270E+01
14.000000 -38.000000 2.227257E+01
14.000000 -40.000000 2.096708E+01
16.000000 40.000000 3.420618E+01
16.000000 38.000000 4.173470E+01
16.000000 36.000000 5.157788E+01
16.000000 34.000000 5.757096E+01
16.000000 32.000000 4.412185E+01
16.000000 30.000000 1.308132E+01
16.000000 28.000000 -1.722428E+01
16.000000 26.000000 -3.295544E+01
16.000000 24.000000 -2.457572E+01
16.000000 22.000000 -8.702628E+00
16.000000 20.000000 -1.302730E+01
16.000000 18.000000 -3.309112E+01
16.000000 16.000000 -4.353225E+01
16.000000 14.000000 -4.018344E+01
16.000000 12.000000 -2.445892E+01
16.000000 10.000000 1.985550E-03
16.000000 8.000000 2.407351E+01
16.000000 6.000000 4.013593E+01
16.000000 4.000000 4.110524E+01
16.000000 2.000000 2.744732E+01
16.000000 0.000000 1.243125E+01
16.000000 -2.000000 2.546659E+00
16.000000 -4.000000 4.742241E+00
16.000000 -6.000000 9.420374E+00
16.000000 -8.000000 -5.787212E+00
16.000000 -10.000000 -2.782518E+01
16.000000 -12.000000 -4.279295E+01
16.000000 -14.000000 -4.494406E+01
16.000000 -16.000000 -3.961741E+01
16.000000 -18.000000 -2.596226E+01
16.000000 -20.000000 -1.163589E+01
16.000000 -22.000000 -3.068233E+00
16.000000 -24.000000 -2.643365E+00
16.000000 -26.000000 -7.668633E+00
16.000000 -28.000000 -5.511960E+00
16.000000 -30.000000 7.240291E+00
16.000000 -32.000000 2.484420E+01
16.000000 -34.000000 3.518678E+01
16.000000 -36.000000 3.310977E+01
16.000000 -38.000000 2.345045E+01
16.000000 -40.000000 2.167658E+01
18.000000 40.000000 3.379471E+01
18.000000 38.000000 4.224413E+01
18.000000 36.000000 5.289411E+01
18.000000 34.000000 5.864727E+01
18.000000 32.000000 4.178721E+01
18.000000 30.000000 5.728901E+00
18.000000 28.000000 -2.853741E+01
18.000000 26.000000 -4.412462E+01
18.000000 24.000000 -3.165009E+01
18.000000 22.000000 -1.410824E+01
18.000000 20.000000 -1.975355E+01
18.000000 18.000000 -4.304689E+01
18.000000 16.000000 -5.525146E+01
18.000000 14.000000 -5.005262E+01
18.000000 12.000000 -3.098336E+01
18.000000 10.000000 -2.280087E+00
18.000000 8.000000 2.715551E+01
18.000000 6.000000 5.327170E+01
18.000000 4.000000 6.472073E+01
18.000000 2.000000 5.597982E+01
18.000000 0.000000 3.652348E+01
18.000000 -2.000000 1.631508E+01
18.000000 -4.000000 8.054300E+00
18.000000 -6.000000 5.375128E+00
18.000000 -8.000000 -1.458463E+01
18.000000 -10.000000 -4.429141E+01
18.000000 -12.000000 -6.332284E+01
18.000000 -14.000000 -6.277808E+01
18.000000 -16.000000 -4.669322E+01
18.000000 -18.000000 -2.089459E+01
18.000000 -20.000000 -7.695742E-01
18.000000 -22.000000 7.949342E+00
18.000000 -24.000000 5.194349E+00
18.000000 -26.000000 -3.398717E+00
18.000000 -28.000000 -3.748987E+00
18.000000 -30.000000 6.465581E+00
18.000000 -32.000000 2.311879E+01
18.000000 -34.000000 3.338025E+01
18.000000 -36.000000 3.159495E+01
18.000000 -38.000000 2.238652E+01
18.000000 -40.000000 2.109405E+01
20.000000 40.000000 3.398887E+01
20.000000 38.000000 4.050218E+01
20.000000 36.000000 4.956345E+01
20.000000 34.000000 5.352336E+01
20.000000 32.000000 3.524444E+01
20.000000 30.000000 -1.730362E+00
20.000000 28.000000 -3.635324E+01
20.000000 26.000000 -5.005274E+01
20.000000 24.000000 -3.438930E+01
20.000000 22.000000 -1.510608E+01
20.000000 20.000000 -1.879819E+01
20.000000 18.000000 -4.077532E+01
20.000000 16.000000 -5.381930E+01
20.000000 14.000000 -5.107242E+01
20.000000 12.000000 -3.448268E+01
20.000000 10.000000 -9.281931E+00
20.000000 8.000000 1.899804E+01
20.000000 6.000000 4.871768E+01
20.000000 4.000000 6.987388E+01
20.000000 2.000000 7.082312E+01
20.000000 0.000000 5.444055E+01
20.000000 -2.000000 3.075001E+01
20.000000 -4.000000 1.665071E+01
20.000000 -6.000000 8.156881E+00
20.000000 -8.000000 -1.728468E+01
20.000000 -10.000000 -5.664393E+01
20.000000 -12.000000 -8.404038E+01
20.000000 -14.000000 -8.719018E+01
20.000000 -16.000000 -6.550772E+01
20.000000 -18.000000 -2.854163E+01
20.000000 -20.000000 1.963994E+00
20.000000 -22.000000 1.585877E+01
20.000000 -24.000000 1.309814E+01
20.000000 -26.000000 3.047660E+00
20.000000 -28.000000 1.869964E+00
20.000000 -30.000000 9.522403E+00
20.000000 -32.000000 2.166875E+01
20.000000 -34.000000 2.753769E+01
20.000000 -36.000000 2.461153E+01
20.000000 -38.000000 1.893446E+01
20.000000 -40.000000 2.106461E+01
22.000000 40.000000 3.152555E+01
22.000000 38.000000 3.620632E+01
22.000000 36.000000 4.508669E+01
22.000000 34.000000 4.852287E+01
22.000000 32.000000 3.091436E+01
22.000000 30.000000 -3.815994E+00
22.000000 28.000000 -3.489577E+01
22.000000 26.000000 -4.508390E+01
22.000000 24.000000 -2.922034E+01
22.000000 22.000000 -8.748126E+00
22.000000 20.000000 -1.083707E+01
22.000000 18.000000 -3.254076E+01
22.000000 16.000000 -4.688011E+01
22.000000 14.000000 -4.956826E+01
22.000000 12.000000 -3.969270E+01
22.000000 10.000000 -2.286725E+01
22.000000 8.000000 -2.514858E-01
22.000000 6.000000 2.824253E+01
22.000000 4.000000 5.744997E+01
22.000000 2.000000 6.884248E+01
22.000000 0.000000 6.135322E+01
22.000000 -2.000000 4.343773E+01
22.000000 -4.000000 3.168942E+01
22.000000 -6.000000 2.126329E+01
22.000000 -8.000000 -1.035586E+01
22.000000 -10.000000 -5.990597E+01
22.000000 -12.000000 -9.864583E+01
22.000000 -14.000000 -1.101860E+02
22.000000 -16.000000 -9.047600E+01
22.000000 -18.000000 -4.685677E+01
22.000000 -20.000000 -4.650092E+00
22.000000 -22.000000 1.771911E+01
22.000000 -24.000000 2.000255E+01
22.000000 -26.000000 1.125807E+01
22.000000 -28.000000 8.958110E+00
22.000000 -30.000000 1.395437E+01
22.000000 -32.000000 2.025798E+01
22.000000 -34.000000 1.943433E+01
22.000000 -36.000000 1.437403E+01
22.000000 -38.000000 1.439848E+01
22.000000 -40.000000 2.179986E+01
24.000000 40.000000 2.554099E+01
24.000000 38.000000 3.005882E+01
24.000000 36.000000 4.099558E+01
24.000000 34.000000 4.774524E+01
24.000000 32.000000 3.355859E+01
24.000000 30.000000 3.114426E+00
24.000000 28.000000 -2.458528E+01
24.000000 26.000000 -3.269505E+01
24.000000 24.000000 -1.735482E+01
24.000000 22.000000 2.040264E+00
24.000000 20.000000 8.631095E-01
24.000000 18.000000 -1.945492E+01
24.000000 16.000000 -3.580742E+01
24.000000 14.000000 -4.376242E+01
24.000000 12.000000 -4.231598E+01
24.000000 10.000000 -3.564264E+01
24.000000 8.000000 -2.044510E+01
24.000000 6.000000 3.789122E+00
24.000000 4.000000 3.646749E+01
24.000000 2.000000 5.418844E+01
24.000000 0.000000 5.437970E+01
24.000000 -2.000000 4.858448E+01
24.000000 -4.000000 4.672327E+01
24.000000 -6.000000 3.673564E+01
24.000000 -8.000000 -3.442026E+00
24.000000 -10.000000 -6.366880E+01
24.000000 -12.000000 -1.140050E+02
24.000000 -14.000000 -1.325927E+02
24.000000 -16.000000 -1.155127E+02
24.000000 -18.000000 -6.904432E+01
24.000000 -20.000000 -1.805833E+01
24.000000 -22.000000 1.396557E+01
24.000000 -24.000000 2.476734E+01
24.000000 -26.000000 2.141125E+01
24.000000 -28.000000 1.972726E+01
24.000000 -30.000000 2.226634E+01
24.000000 -32.000000 2.121234E+01
24.000000 -34.000000 1.250743E+01
24.000000 -36.000000 4.578840E+00
24.000000 -38.000000 9.302778E+00
24.000000 -40.000000 2.130470E+01
26.000000 40.000000 1.660942E+01
26.000000 38.000000 2.339670E+01
26.000000 36.000000 3.756609E+01
26.000000 34.000000 5.043354E+01
26.000000 32.000000 4.327772E+01
26.000000 30.000000 1.818932E+01
26.000000 28.000000 -8.494343E+00
26.000000 26.000000 -1.820380E+01
26.000000 24.000000 -4.792058E+00
26.000000 22.000000 1.151303E+01
26.000000 20.000000 1.144636E+01
26.000000 18.000000 -5.182955E+00
26.000000 16.000000 -2.066884E+01
26.000000 14.000000 -3.030909E+01
26.000000 12.000000 -3.429951E+01
26.000000 10.000000 -3.428240E+01
26.000000 8.000000 -2.410932E+01
26.000000 6.000000 -5.960199E+00
26.000000 4.000000 1.918191E+01
26.000000 2.000000 3.104084E+01
26.000000 0.000000 3.266121E+01
26.000000 -2.000000 3.899605E+01
26.000000 -4.000000 4.988326E+01
26.000000 -6.000000 4.156683E+01
26.000000 -8.000000 -6.338470E+00
26.000000 -10.000000 -7.497760E+01
26.000000 -12.000000 -1.311143E+02
26.000000 -14.000000 -1.515898E+02
26.000000 -16.000000 -1.352732E+02
26.000000 -18.000000 -8.886823E+01
26.000000 -20.000000 -3.478413E+01
26.000000 -22.000000 4.420812E+00
26.000000 -24.000000 2.388154E+01
26.000000 -26.000000 2.861251E+01
26.000000 -28.000000 3.056116E+01
26.000000 -30.000000 3.298827E+01
26.000000 -32.000000 2.554456E+01
26.000000 -34.000000 1.058852E+01
26.000000 -36.000000 3.809071E-01
26.000000 -38.000000 5.908100E+00
26.000000 -40.000000 1.917098E+01
28.000000 40.000000 5.714886E+00
28.000000 38.000000 1.678937E+01
28.000000 36.000000 3.566998E+01
28.000000 34.000000 5.511312E+01
28.000000 32.000000 5.482585E+01
28.000000 30.000000 3.410748E+01
28.000000 28.000000 7.910309E+00
28.000000 26.000000 -5.578373E+00
28.000000 24.000000 3.566167E+00
28.000000 22.000000 1.734356E+01
28.000000 20.000000 1.901090E+01
28.000000 18.000000 6.571518E+00
28.000000 16.000000 -5.321180E+00
28.000000 14.000000 -1.345823E+01
28.000000 12.000000 -1.777227E+01
28.000000 10.000000 -1.642487E+01
28.000000 8.000000 -7.267977E+00
28.000000 6.000000 3.814129E+00
28.000000 4.000000 1.106927E+01
28.000000 2.000000 6.510414E+00
28.000000 0.000000 3.814278E+00
28.000000 -2.000000 1.868460E+01
28.000000 -4.000000 4.028521E+01
28.000000 -6.000000 3.395003E+01
28.000000 -8.000000 -1.871544E+01
28.000000 -10.000000 -9.132248E+01
28.000000 -12.000000 -1.460525E+02
28.000000 -14.000000 -1.631961E+02
28.000000 -16.000000 -1.456567E+02
28.000000 -18.000000 -1.022930E+02
28.000000 -20.000000 -5.263144E+01
28.000000 -22.000000 -1.277702E+01
28.000000 -24.000000 1.491016E+01
28.000000 -26.000000 2.944361E+01
28.000000 -28.000000 3.621807E+01
28.000000 -30.000000 3.968558E+01
28.000000 -32.000000 3.092399E+01
28.000000 -34.000000 1.490517E+01
28.000000 -36.000000 4.218248E+00
28.000000 -38.000000 6.590313E+00
28.000000 -40.000000 1.670793E+01
30.000000 40.000000 -5.646843E+00
30.000000 38.000000 1.011447E+01
30.000000 36.000000 3.441477E+01
30.000000 34.000000 5.825929E+01
30.000000 32.000000 6.099530E+01
30.000000 30.000000 4.310030E+01
30.000000 28.000000 1.896734E+01
30.000000 26.000000 4.294461E+00
30.000000 24.000000 1.073018E+01
30.000000 22.000000 2.256833E+01
30.000000 20.000000 2.408526E+01
30.000000 18.000000 1.225863E+01
30.000000 16.000000 9.670906E-01
30.000000 14.000000 -5.116715E+00
30.000000 12.000000 -3.717992E+00
30.000000 10.000000 7.029093E+00
30.000000 8.000000 1.870847E+01
30.000000 6.000000 2.364729E+01
30.000000 4.000000 1.312832E+01
30.000000 2.000000 -7.632380E+00
30.000000 0.000000 -1.687452E+01
30.000000 -2.000000 1.264658E+00
30.000000 -4.000000 2.901040E+01
30.000000 -6.000000 2.210245E+01
30.000000 -8.000000 -3.660218E+01
30.000000 -10.000000 -1.124481E+02
30.000000 -12.000000 -1.611905E+02
30.000000 -14.000000 -1.695111E+02
30.000000 -16.000000 -1.463864E+02
30.000000 -18.000000 -1.079741E+02
30.000000 -20.000000 -6.796124E+01
30.000000 -22.000000 -3.234763E+01
30.000000 -24.000000 1.534529E+00
30.000000 -26.000000 2.495937E+01
30.000000 -28.000000 3.590421E+01
30.000000 -30.000000 4.097890E+01
30.000000 -32.000000 3.551048E+01
30.000000 -34.000000 2.247271E+01
30.000000 -36.000000 1.218653E+01
30.000000 -38.000000 9.600014E+00
30.000000 -40.000000 1.459743E+01
32.000000 40.000000 -1.447265E+01
32.000000 38.000000 3.650896E+00
32.000000 36.000000 2.896952E+01
32.000000 34.000000 5.331894E+01
32.000000 32.000000 5.738302E+01
32.000000 30.000000 4.235375E+01
32.000000 28.000000 2.171368E+01
32.000000 26.000000 8.110361E+00
32.000000 24.000000 1.465512E+01
32.000000 22.000000 2.574127E+01
32.000000 20.000000 2.479274E+01
32.000000 18.000000 9.408270E+00
32.000000 16.000000 -3.257155E+00
32.000000 14.000000 -6.242137E+00
32.000000 12.000000 5.033875E+00
32.000000 10.000000 2.768678E+01
32.000000 8.000000 4.389943E+01
32.000000 6.000000 4.570382E+01
32.000000 4.000000 2.346348E+01
32.000000 2.000000 -9.241038E+00
32.000000 0.000000 -2.495490E+01
32.000000 -2.000000 -6.933521E+00
32.000000 -4.000000 2.252564E+01
32.000000 -6.000000 1.236544E+01
32.000000 -8.000000 -5.321247E+01
32.000000 -10.000000 -1.330618E+02
32.000000 -12.000000 -1.754569E+02
32.000000 -14.000000 -1.724916E+02
32.000000 -16.000000 -1.415979E+02
32.000000 -18.000000 -1.063682E+02
32.000000 -20.000000 -7.510604E+01
32.000000 -22.000000 -4.478014E+01
32.000000 -24.000000 -9.244321E+00
32.000000 -26.000000 1.799242E+01
32.000000 -28.000000 3.118277E+01
32.000000 -30.000000 3.882396E+01
32.000000 -32.000000 3.759296E+01
32.000000 -34.000000 2.830034E+01
32.000000 -36.000000 1.857325E+01
32.000000 -38.000000 1.163523E+01
32.000000 -40.000000 1.216969E+01
34.000000 40.000000 -1.961936E+01
34.000000 38.000000 -3.676121E+00
34.000000 36.000000 1.678930E+01
34.000000 34.000000 3.884128E+01
34.000000 32.000000 4.365975E+01
34.000000 30.000000 3.041259E+01
34.000000 28.000000 1.310614E+01
34.000000 26.000000 2.026493E+00
34.000000 24.000000 1.104119E+01
34.000000 22.000000 2.428404E+01
34.000000 20.000000 2.181936E+01
34.000000 18.000000 3.314490E+00
34.000000 16.000000 -8.930537E+00
34.000000 14.000000 -8.132633E+00
34.000000 12.000000 1.103080E+01
34.000000 10.000000 4.131680E+01
34.000000 8.000000 6.003978E+01
34.000000 6.000000 6.105528E+01
34.000000 4.000000 3.382305E+01
34.000000 2.000000 -4.240026E+00
34.000000 0.000000 -2.309024E+01
34.000000 -2.000000 -6.554735E+00
34.000000 -4.000000 2.113167E+01
34.000000 -6.000000 6.578960E+00
34.000000 -8.000000 -6.330497E+01
34.000000 -10.000000 -1.442855E+02
34.000000 -12.000000 -1.818069E+02
34.000000 -14.000000 -1.707699E+02
34.000000 -16.000000 -1.347087E+02
34.000000 -18.000000 -9.958493E+01
34.000000 -20.000000 -7.246239E+01
34.000000 -22.000000 -4.581143E+01
34.000000 -24.000000 -1.284232E+01
34.000000 -26.000000 1.371828E+01
34.000000 -28.000000 2.774899E+01
34.000000 -30.000000 3.556070E+01
34.000000 -32.000000 3.501251E+01
34.000000 -34.000000 2.724972E+01
34.000000 -36.000000 1.839200E+01
34.000000 -38.000000 9.930620E+00
34.000000 -40.000000 8.071568E+00
36.000000 40.000000 -2.388656E+01
36.000000 38.000000 -1.313104E+01
36.000000 36.000000 1.908628E+00
36.000000 34.000000 1.936638E+01
36.000000 32.000000 2.270626E+01
36.000000 30.000000 1.032354E+01
36.000000 28.000000 -5.122678E+00
36.000000 26.000000 -1.398938E+01
36.000000 24.000000 -2.904312E+00
36.000000 22.000000 1.583643E+01
36.000000 20.000000 1.876908E+01
36.000000 18.000000 3.636453E+00
36.000000 16.000000 -6.964956E+00
36.000000 14.000000 -4.798723E+00
36.000000 12.000000 1.403602E+01
36.000000 10.000000 4.320829E+01
36.000000 8.000000 6.059958E+01
36.000000 6.000000 6.180220E+01
36.000000 4.000000 3.859579E+01
36.000000 2.000000 3.200790E+00
36.000000 0.000000 -1.480013E+01
36.000000 -2.000000 -2.252306E+00
36.000000 -4.000000 1.760765E+01
36.000000 -6.000000 -5.091457E-01
36.000000 -8.000000 -6.732022E+01
36.000000 -10.000000 -1.413849E+02
36.000000 -12.000000 -1.722657E+02
36.000000 -14.000000 -1.580592E+02
36.000000 -16.000000 -1.221374E+02
36.000000 -18.000000 -8.838980E+01
36.000000 -20.000000 -6.300728E+01
36.000000 -22.000000 -3.802808E+01
36.000000 -24.000000 -8.416890E+00
36.000000 -26.000000 1.585034E+01
36.000000 -28.000000 2.872025E+01
36.000000 -30.000000 3.163519E+01
36.000000 -32.000000 2.579138E+01
36.000000 -34.000000 1.612936E+01
36.000000 -36.000000 9.311655E+00
36.000000 -38.000000 3.628407E+00
36.000000 -40.000000 2.222258E+00
38.000000 40.000000 -2.869823E+01
38.000000 38.000000 -2.377145E+01
38.000000 36.000000 -1.292627E+01
38.000000 34.000000 -9.474163E-01
38.000000 32.000000 1.216150E+00
38.000000 30.000000 -9.221802E+00
38.000000 28.000000 -2.588429E+01
38.000000 26.000000 -3.644349E+01
38.000000 24.000000 -2.561540E+01
38.000000 22.000000 -1.825480E-01
38.000000 20.000000 1.375655E+01
38.000000 18.000000 6.982974E+00
38.000000 16.000000 -1.999462E+00
38.000000 14.000000 -1.610645E+00
38.000000 12.000000 1.156365E+01
38.000000 10.000000 3.430734E+01
38.000000 8.000000 5.069779E+01
38.000000 6.000000 5.667525E+01
38.000000 4.000000 4.315528E+01
38.000000 2.000000 1.233705E+01
38.000000 0.000000 -7.468680E+00
38.000000 -2.000000 -4.515156E+00
38.000000 -4.000000 4.271006E+00
38.000000 -6.000000 -1.295121E+01
38.000000 -8.000000 -6.601842E+01
38.000000 -10.000000 -1.217970E+02
38.000000 -12.000000 -1.427120E+02
38.000000 -14.000000 -1.294010E+02
38.000000 -16.000000 -1.011883E+02
38.000000 -18.000000 -7.493130E+01
38.000000 -20.000000 -5.073350E+01
38.000000 -22.000000 -2.536653E+01
38.000000 -24.000000 1.941192E+00
38.000000 -26.000000 2.120308E+01
38.000000 -28.000000 2.792223E+01
38.000000 -30.000000 2.315295E+01
38.000000 -32.000000 1.007407E+01
38.000000 -34.000000 -2.326256E+00
38.000000 -36.000000 -5.907667E+00
38.000000 -38.000000 -5.595131E+00
38.000000 -40.000000 -3.785137E+00
40.000000 40.000000 -3.234475E+01
40.000000 38.000000 -3.290331E+01
40.000000 36.000000 -2.652395E+01
40.000000 34.000000 -1.750115E+01
40.000000 32.000000 -1.388975E+01
40.000000 30.000000 -2.323366E+01
40.000000 28.000000 -4.404663E+01
40.000000 26.000000 -5.782109E+01
40.000000 24.000000 -5.009574E+01
40.000000 22.000000 -2.217520E+01
40.000000 20.000000 -1.112857E+00
40.000000 18.000000 -1.014572E+00
40.000000 16.000000 -8.289202E+00
40.000000 14.000000 -9.293861E+00
40.000000 12.000000 1.121130E+00
40.000000 10.000000 2.222964E+01
40.000000 8.000000 4.380547E+01
40.000000 6.000000 5.876997E+01
40.000000 4.000000 5.437748E+01
40.000000 2.000000 2.590598E+01
40.000000 0.000000 -1.610111E+00
40.000000 -2.000000 -1.336779E+01
40.000000 -4.000000 -1.520175E+01
40.000000 -6.000000 -2.666927E+01
40.000000 -8.000000 -5.866743E+01
40.000000 -10.000000 -9.124925E+01
40.000000 -12.000000 -1.026515E+02
40.000000 -14.000000 -9.565647E+01
40.000000 -16.000000 -8.138472E+01
40.000000 -18.000000 -6.531593E+01
40.000000 -20.000000 -4.187836E+01
40.000000 -22.000000 -1.349656E+01
40.000000 -24.000000 1.387983E+01
40.000000 -26.000000 2.693794E+01
40.000000 -28.000000 2.408468E+01
40.000000 -30.000000 1.152143E+01
40.000000 -32.000000 -7.045080E+00
40.000000 -34.000000 -2.139404E+01
40.000000 -36.000000 -2.292252E+01
40.000000 -38.000000 -1.644972E+01
40.000000 -40.000000 -9.617580E+00
42.000000 40.000000 -3.313253E+01
42.000000 38.000000 -3.795147E+01
42.000000 36.000000 -3.530497E+01
42.000000 34.000000 -2.641436E+01
42.000000 32.000000 -1.983957E+01
42.000000 30.000000 -2.987838E+01
42.000000 28.000000 -5.388109E+01
42.000000 26.000000 -6.980565E+01
42.000000 24.000000 -7.097793E+01
42.000000 22.000000 -4.782806E+01
42.000000 20.000000 -2.707888E+01
42.000000 18.000000 -2.397610E+01
42.000000 16.000000 -2.798008E+01
42.000000 14.000000 -2.739527E+01
42.000000 12.000000 -1.362752E+01
42.000000 10.000000 1.249383E+01
42.000000 8.000000 4.246035E+01
42.000000 6.000000 6.609604E+01
42.000000 4.000000 6.798467E+01
42.000000 2.000000 3.934006E+01
42.000000 0.000000 3.475414E+00
42.000000 -2.000000 -2.105994E+01
42.000000 -4.000000 -2.940688E+01
42.000000 -6.000000 -3.208402E+01
42.000000 -8.000000 -4.486387E+01
42.000000 -10.000000 -5.916662E+01
42.000000 -12.000000 -6.614336E+01
42.000000 -14.000000 -7.117489E+01
42.000000 -16.000000 -7.316362E+01
42.000000 -18.000000 -6.686030E+01
42.000000 -20.000000 -4.436186E+01
42.000000 -22.000000 -1.119636E+01
42.000000 -24.000000 1.874687E+01
42.000000 -26.000000 2.824423E+01
42.000000 -28.000000 1.978188E+01
42.000000 -30.000000 3.006268E+00
42.000000 -32.000000 -1.835517E+01
42.000000 -34.000000 -3.390190E+01
42.000000 -36.000000 -3.569280E+01
42.000000 -38.000000 -2.594661E+01
42.000000 -40.000000 -1.464163E+01
44.000000 40.000000 -3.215970E+01
44.000000 38.000000 -3.892757E+01
44.000000 36.000000 -3.664825E+01
44.000000 34.000000 -2.561455E+01
44.000000 32.000000 -1.558228E+01
44.000000 30.000000 -2.522797E+01
44.000000 28.000000 -4.876416E+01
44.000000 26.000000 -6.769529E+01
44.000000 24.000000 -7.975662E+01
44.000000 22.000000 -6.476214E+01
44.000000 20.000000 -4.956051E+01
44.000000 18.000000 -4.850819E+01
44.000000 16.000000 -5.202791E+01
44.000000 14.000000 -4.917080E+01
44.000000 12.000000 -2.996512E+01
44.000000 10.000000 1.708348E+00
44.000000 8.000000 3.837272E+01
44.000000 6.000000 6.656994E+01
44.000000 4.000000 7.091071E+01
44.000000 2.000000 4.136511E+01
44.000000 0.000000 3.395273E+00
44.000000 -2.000000 -2.391745E+01
44.000000 -4.000000 -3.140451E+01
44.000000 -6.000000 -2.550069E+01
44.000000 -8.000000 -2.643516E+01
44.000000 -10.000000 -3.117949E+01
44.000000 -12.000000 -4.164232E+01
44.000000 -14.000000 -6.044330E+01
44.000000 -16.000000 -7.812820E+01
44.000000 -18.000000 -8.029626E+01
44.000000 -20.000000 -5.861087E+01
44.000000 -22.000000 -2.187431E+01
44.000000 -24.000000 1.080740E+01
44.000000 -26.000000 1.974444E+01
44.000000 -28.000000 1.285609E+01
44.000000 -30.000000 -1.985245E+00
44.000000 -32.000000 -2.098404E+01
44.000000 -34.000000 -3.554794E+01
44.000000 -36.000000 -3.865894E+01
44.000000 -38.000000 -2.875260E+01
44.000000 -40.000000 -1.560233E+01
46.000000 40.000000 -3.413946E+01
46.000000 38.000000 -3.832683E+01
46.000000 36.000000 -3.056751E+01
46.000000 34.000000 -1.338989E+01
46.000000 32.000000 -5.898628E-01
46.000000 30.000000 -8.814898E+00
46.000000 28.000000 -3.037627E+01
46.000000 26.000000 -5.164022E+01
46.000000 24.000000 -6.523224E+01
46.000000 22.000000 -5.564028E+01
46.000000 20.000000 -5.017901E+01
46.000000 18.000000 -5.743621E+01
46.000000 16.000000 -6.448634E+01
46.000000 14.000000 -6.147799E+01
46.000000 12.000000 -4.091055E+01
46.000000 10.000000 -8.545527E+00
46.000000 8.000000 2.638648E+01
46.000000 6.000000 5.081609E+01
46.000000 4.000000 5.197643E+01
46.000000 2.000000 2.448658E+01
46.000000 0.000000 -8.917559E+00
46.000000 -2.000000 -2.975811E+01
46.000000 -4.000000 -3.045918E+01
46.000000 -6.000000 -1.892791E+01
46.000000 -8.000000 -1.459668E+01
46.000000 -10.000000 -1.699315E+01
46.000000 -12.000000 -3.430735E+01
46.000000 -14.000000 -6.277532E+01
46.000000 -16.000000 -9.120083E+01
46.000000 -18.000000 -9.802631E+01
46.000000 -20.000000 -7.616551E+01
46.000000 -22.000000 -3.771155E+01
46.000000 -24.000000 -3.288237E+00
46.000000 -26.000000 7.589312E+00
46.000000 -28.000000 4.999281E+00
46.000000 -30.000000 -3.403431E+00
46.000000 -32.000000 -1.526653E+01
46.000000 -34.000000 -2.669043E+01
46.000000 -36.000000 -3.115123E+01
46.000000 -38.000000 -2.397173E+01
46.000000 -40.000000 -1.221360E+01
48.000000 40.000000 -4.099283E+01
48.000000 38.000000 -3.810342E+01
48.000000 36.000000 -2.100227E+01
48.000000 34.000000 5.332138E+00
48.000000 32.000000 2.048153E+01
48.000000 30.000000 1.328160E+01
48.000000 28.000000 -4.842004E+00
48.000000 26.000000 -2.160991E+01
48.000000 24.000000 -2.776524E+01
48.000000 22.000000 -2.299271E+01
48.000000 20.000000 -2.616494E+01
48.000000 18.000000 -4.135626E+01
48.000000 16.000000 -5.303044E+01
48.000000 14.000000 -5.303245E+01
48.000000 12.000000 -3.716572E+01
48.000000 10.000000 -1.279188E+01
48.000000 8.000000 9.676760E+00
48.000000 6.000000 2.069530E+01
48.000000 4.000000 1.253711E+01
48.000000 2.000000 -1.205506E+01
48.000000 0.000000 -3.667091E+01
48.000000 -2.000000 -4.583329E+01
48.000000 -4.000000 -3.788651E+01
48.000000 -6.000000 -2.338199E+01
48.000000 -8.000000 -1.712765E+01
48.000000 -10.000000 -2.031723E+01
48.000000 -12.000000 -4.090592E+01
48.000000 -14.000000 -7.168282E+01
48.000000 -16.000000 -1.017575E+02
48.000000 -18.000000 -1.089525E+02
48.000000 -20.000000 -8.680111E+01
48.000000 -22.000000 -4.960487E+01
48.000000 -24.000000 -1.668702E+01
48.000000 -26.000000 -2.744000E+00
48.000000 -28.000000 -3.619823E-01
48.000000 -30.000000 1.710415E-01
48.000000 -32.000000 -3.185764E+00
48.000000 -34.000000 -1.072976E+01
48.000000 -36.000000 -1.595502E+01
48.000000 -38.000000 -1.391013E+01
48.000000 -40.000000 -6.436798E+00
50.000000 40.000000 -4.789189E+01
50.000000 38.000000 -3.832103E+01
50.000000 36.000000 -1.446170E+01
50.000000 34.000000 1.850102E+01
50.000000 32.000000 3.617715E+01
50.000000 30.000000 3.242602E+01
50.000000 28.000000 2.181716E+01
50.000000 26.000000 1.324250E+01
50.000000 24.000000 1.681207E+01
50.000000 22.000000 1.817045E+01
50.000000 20.000000 9.672367E+00
50.000000 18.000000 -1.093200E+01
50.000000 16.000000 -2.643522E+01
50.000000 14.000000 -3.056142E+01
50.000000 12.000000 -2.198429E+01
50.000000 10.000000 -9.287344E+00
50.000000 8.000000 -1.916667E+00
50.000000 6.000000 -7.001578E+00
50.000000 4.000000 -2.597974E+01
50.000000 2.000000 -4.978998E+01
50.000000 0.000000 -6.603531E+01
50.000000 -2.000000 -6.493758E+01
50.000000 -4.000000 -5.249707E+01
50.000000 -6.000000 -3.651312E+01
50.000000 -8.000000 -2.924699E+01
50.000000 -10.000000 -3.338888E+01
50.000000 -12.000000 -5.114163E+01
50.000000 -14.000000 -7.748320E+01
50.000000 -16.000000 -1.029087E+02
50.000000 -18.000000 -1.070532E+02
50.000000 -20.000000 -8.517637E+01
50.000000 -22.000000 -5.261516E+01
50.000000 -24.000000 -2.553590E+01
50.000000 -26.000000 -1.174382E+01
50.000000 -28.000000 -5.743105E+00
50.000000 -30.000000 2.458627E+00
50.000000 -32.000000 8.052090E+00
50.000000 -34.000000 7.266081E+00
50.000000 -36.000000 3.901491E+00
50.000000 -38.000000 9.283009E-01
50.000000 -40.000000 2.427565E+00
52.000000 40.000000 -4.914812E+01
52.000000 38.000000 -3.712116E+01
52.000000 36.000000 -1.256753E+01
52.000000 34.000000 1.938800E+01
52.000000 32.000000 3.692155E+01
52.000000 30.000000 3.929104E+01
52.000000 28.000000 3.825443E+01
52.000000 26.000000 3.727034E+01
52.000000 24.000000 4.874321E+01
52.000000 22.000000 4.993554E+01
52.000000 20.000000 3.896801E+01
52.000000 18.000000 1.648230E+01
52.000000 16.000000 8.127613E-01
52.000000 14.000000 -4.282854E+00
52.000000 12.000000 -1.544587E+00
52.000000 10.000000 1.276356E+00
52.000000 8.000000 -4.764359E+00
52.000000 6.000000 -2.213030E+01
52.000000 4.000000 -4.717196E+01
52.000000 2.000000 -6.938120E+01
52.000000 0.000000 -7.861906E+01
52.000000 -2.000000 -7.177488E+01
52.000000 -4.000000 -5.954501E+01
52.000000 -6.000000 -4.543257E+01
52.000000 -8.000000 -3.932561E+01
52.000000 -10.000000 -4.401894E+01
52.000000 -12.000000 -5.503327E+01
52.000000 -14.000000 -7.375312E+01
52.000000 -16.000000 -9.275566E+01
52.000000 -18.000000 -9.252985E+01
52.000000 -20.000000 -7.234551E+01
52.000000 -22.000000 -4.605085E+01
52.000000 -24.000000 -2.593350E+01
52.000000 -26.000000 -1.613852E+01
52.000000 -28.000000 -1.110804E+01
52.000000 -30.000000 -2.311497E-01
52.000000 -32.000000 1.262767E+01
52.000000 -34.000000 2.041870E+01
52.000000 -36.000000 2.205080E+01
52.000000 -38.000000 1.717423E+01
52.000000 -40.000000 1.393130E+01
54.000000 40.000000 -4.289178E+01
54.000000 38.000000 -3.253624E+01
54.000000 36.000000 -1.309954E+01
54.000000 34.000000 1.017493E+01
54.000000 32.000000 2.131767E+01
54.000000 30.000000 2.529055E+01
54.000000 28.000000 3.198596E+01
54.000000 26.000000 3.899551E+01
54.000000 24.000000 5.890359E+01
54.000000 22.000000 6.403203E+01
54.000000 20.000000 5.497770E+01
54.000000 18.000000 3.635371E+01
54.000000 16.000000 2.340930E+01
54.000000 14.000000 1.884208E+01
54.000000 12.000000 1.653526E+01
54.000000 10.000000 1.201257E+01
54.000000 8.000000 -2.703648E+00
54.000000 6.000000 -2.602147E+01
54.000000 4.000000 -5.213986E+01
54.000000 2.000000 -7.102728E+01
54.000000 0.000000 -7.547531E+01
54.000000 -2.000000 -6.478997E+01
54.000000 -4.000000 -5.059541E+01
54.000000 -6.000000 -3.919226E+01
54.000000 -8.000000 -3.641524E+01
54.000000 -10.000000 -4.110630E+01
54.000000 -12.000000 -4.668057E+01
54.000000 -14.000000 -5.746753E+01
54.000000 -16.000000 -6.900663E+01
54.000000 -18.000000 -6.813308E+01
54.000000 -20.000000 -5.294083E+01
54.000000 -22.000000 -3.358466E+01
54.000000 -24.000000 -1.833938E+01
54.000000 -26.000000 -1.204890E+01
54.000000 -28.000000 -1.022610E+01
54.000000 -30.000000 -9.604149E-01
54.000000 -32.000000 1.282090E+01
54.000000 -34.000000 2.432604E+01
54.000000 -36.000000 3.037446E+01
54.000000 -38.000000 2.739308E+01
54.000000 -40.000000 2.356691E+01
56.000000 40.000000 -3.305201E+01
56.000000 38.000000 -2.700074E+01
56.000000 36.000000 -1.483052E+01
56.000000 34.000000 -3.900057E+00
56.000000 32.000000 -1.302890E+00
56.000000 30.000000 -1.173430E+00
56.000000 28.000000 6.774059E+00
56.000000 26.000000 2.004829E+01
56.000000 24.000000 4.124807E+01
56.000000 22.000000 5.567929E+01
56.000000 20.000000 5.497225E+01
56.000000 18.000000 4.541909E+01
56.000000 16.000000 3.854499E+01
56.000000 14.000000 3.584729E+01
56.000000 12.000000 2.993999E+01
56.000000 10.000000 1.955756E+01
56.000000 8.000000 1.618900E-01
56.000000 6.000000 -2.506168E+01
56.000000 4.000000 -4.871234E+01
56.000000 2.000000 -6.170789E+01
56.000000 0.000000 -6.090986E+01
56.000000 -2.000000 -4.482092E+01
56.000000 -4.000000 -2.481871E+01
56.000000 -6.000000 -1.320640E+01
56.000000 -8.000000 -1.419483E+01
56.000000 -10.000000 -1.915361E+01
56.000000 -12.000000 -2.428092E+01
56.000000 -14.000000 -3.188599E+01
56.000000 -16.000000 -4.053255E+01
56.000000 -18.000000 -4.230589E+01
56.000000 -20.000000 -3.229134E+01
56.000000 -22.000000 -1.774250E+01
56.000000 -24.000000 -5.635046E+00
56.000000 -26.000000 -3.083551E+00
56.000000 -28.000000 -3.247363E+00
56.000000 -30.000000 2.730294E+00
56.000000 -32.000000 1.199367E+01
56.000000 -34.000000 2.182417E+01
56.000000 -36.000000 2.936693E+01
56.000000 -38.000000 2.995940E+01
56.000000 -40.000000 2.853319E+01
58.000000 40.000000 -2.328402E+01
58.000000 38.000000 -2.118679E+01
58.000000 36.000000 -1.595998E+01
58.000000 34.000000 -1.405163E+01
58.000000 32.000000 -1.658017E+01
58.000000 30.000000 -2.040833E+01
58.000000 28.000000 -1.457880E+01
58.000000 26.000000 -1.422587E+00
58.000000 24.000000 1.949702E+01
58.000000 22.000000 3.659536E+01
58.000000 20.000000 4.315704E+01
58.000000 18.000000 4.301585E+01
58.000000 16.000000 4.373797E+01
58.000000 14.000000 4.411080E+01
58.000000 12.000000 3.726418E+01
58.000000 10.000000 2.409718E+01
58.000000 8.000000 2.087626E+00
58.000000 6.000000 -2.220232E+01
58.000000 4.000000 -4.157682E+01
58.000000 2.000000 -4.941910E+01
58.000000 0.000000 -4.448375E+01
58.000000 -2.000000 -2.568621E+01
58.000000 -4.000000 -1.798782E+00
58.000000 -6.000000 1.154181E+01
58.000000 -8.000000 8.909521E+00
58.000000 -10.000000 5.505168E+00
58.000000 -12.000000 -2.470357E+00
58.000000 -14.000000 -1.180238E+01
58.000000 -16.000000 -2.157289E+01
58.000000 -18.000000 -2.531091E+01
