-20.000000 34.000000 -6.634229E+01
-20.000000 32.000000 -6.241110E+01
-20.000000 30.000000 -6.295702E+01
-20.000000 28.000000 -6.962042E+01
-20.000000 26.000000 -7.548865E+01
-20.000000 24.000000 -7.308973E+01
-20.000000 22.000000 -6.132274E+01
-20.000000 20.000000 -5.261631E+01
-20.000000 18.000000 -4.725845E+01
-20.000000 16.000000 -3.998007E+01
-20.000000 14.000000 -3.125508E+01
-20.000000 12.000000 -1.868955E+01
-20.000000 10.000000 5.416801E+00
-20.000000 8.000000 2.730775E+01
-20.000000 6.000000 3.882202E+01
-20.000000 4.000000 3.246402E+01
-20.000000 2.000000 1.619167E+01
-20.000000 0.000000 -3.746433E-01
-20.000000 -2.000000 -1.081231E+01
-20.000000 -4.000000 -8.377493E+00
-20.000000 -6.000000 4.206692E+00
-20.000000 -8.000000 1.013886E+01
-20.000000 -10.000000 6.762937E+00
-20.000000 -12.000000 -2.666770E+00
-20.000000 -14.000000 -7.483266E+00
-20.000000 -16.000000 -8.857700E+00
-20.000000 -18.000000 -1.142124E+01
-20.000000 -20.000000 -1.208977E+01
-20.000000 -22.000000 -8.787881E+00
-20.000000 -24.000000 -8.450834E+00
-20.000000 -26.000000 -1.342566E+01
-20.000000 -28.000000 -2.229747E+01
-20.000000 -30.000000 -2.425001E+01
-20.000000 -32.000000 -2.126775E+01
-20.000000 -34.000000 -1.643054E+01
-20.000000 -36.000000 -9.932698E+00
-20.000000 -38.000000 -6.086307E+00
-20.000000 -40.000000 -6.146997E+00
-18.000000 40.000000 -4.769715E+01
-18.000000 38.000000 -5.554476E+01
-18.000000 36.000000 -5.925366E+01
-18.000000 34.000000 -5.382577E+01
-18.000000 32.000000 -4.516707E+01
-18.000000 30.000000 -4.449482E+01
-18.000000 28.000000 -5.043802E+01
-18.000000 26.000000 -5.295800E+01
-18.000000 24.000000 -4.296852E+01
-18.000000 22.000000 -2.970734E+01
-18.000000 20.000000 -1.898867E+01
-18.000000 18.000000 -1.362909E+01
-18.000000 16.000000 -1.368132E+01
-18.000000 14.000000 -1.902101E+01
-18.000000 12.000000 -2.584449E+01
-18.000000 10.000000 -1.978746E+01
-18.000000 8.000000 -3.667849E+00
-18.000000 6.000000 1.302729E+01
-18.000000 4.000000 1.443125E+01
-18.000000 2.000000 4.938850E-01
-18.000000 0.000000 -1.704898E+01
-18.000000 -2.000000 -3.054662E+01
-18.000000 -4.000000 -3.157040E+01
-18.000000 -6.000000 -2.007434E+01
-18.000000 -8.000000 -1.405426E+01
-18.000000 -10.000000 -1.734701E+01
-18.000000 -12.000000 -2.300430E+01
-18.000000 -14.000000 -2.314291E+01
-18.000000 -16.000000 -2.024608E+01
-18.000000 -18.000000 -2.079878E+01
-18.000000 -20.000000 -1.888514E+01
-18.000000 -22.000000 -1.175645E+01
-18.000000 -24.000000 -7.832265E+00
-18.000000 -26.000000 -9.278257E+00
-18.000000 -28.000000 -1.555325E+01
-18.000000 -30.000000 -1.636413E+01
-18.000000 -32.000000 -1.440588E+01
-18.000000 -34.000000 -1.276980E+01
-18.000000 -36.000000 -7.661228E+00
-18.000000 -38.000000 -1.877198E+00
-18.000000 -40.000000 -1.542333E+00
-16.000000 40.000000 -4.271796E+01
-16.000000 38.000000 -4.795008E+01
-16.000000 36.000000 -4.992543E+01
-16.000000 34.000000 -4.088260E+01
-16.000000 32.000000 -2.971344E+01
-16.000000 30.000000 -2.897483E+01
-16.000000 28.000000 -3.472234E+01
-16.000000 26.000000 -3.414075E+01
-16.000000 24.000000 -1.665126E+01
-16.000000 22.000000 -1.317230E+00
-16.000000 20.000000 1.065173E+01
-16.000000 18.000000 1.476818E+01
-16.000000 16.000000 6.392227E+00
-16.000000 14.000000 -1.500562E+01
-16.000000 12.000000 -4.279776E+01
-16.000000 10.000000 -5.552935E+01
-16.000000 8.000000 -4.517658E+01
-16.000000 6.000000 -2.509711E+01
-16.000000 4.000000 -1.081028E+01
-16.000000 2.000000 -1.373824E+01
-16.000000 0.000000 -2.714004E+01
-16.000000 -2.000000 -4.117226E+01
-16.000000 -4.000000 -4.401177E+01
-16.000000 -6.000000 -3.632917E+01
-16.000000 -8.000000 -3.485946E+01
-16.000000 -10.000000 -4.047865E+01
-16.000000 -12.000000 -3.855077E+01
-16.000000 -14.000000 -3.147960E+01
-16.000000 -16.000000 -2.573588E+01
-16.000000 -18.000000 -2.477553E+01
-16.000000 -20.000000 -2.200334E+01
-16.000000 -22.000000 -1.405116E+01
-16.000000 -24.000000 -6.758200E+00
-16.000000 -26.000000 -4.926399E+00
-16.000000 -28.000000 -6.746827E+00
-16.000000 -30.000000 -5.088044E+00
-16.000000 -32.000000 -4.617663E+00
-16.000000 -34.000000 -6.284240E+00
-16.000000 -36.000000 -3.255798E+00
-16.000000 -38.000000 3.240385E+00
-16.000000 -40.000000 3.115866E+00
-14.000000 40.000000 -3.070134E+01
-14.000000 38.000000 -3.629691E+01
-14.000000 36.000000 -3.908135E+01
-14.000000 34.000000 -3.078036E+01
-14.000000 32.000000 -2.108561E+01
-14.000000 30.000000 -2.157900E+01
-14.000000 28.000000 -2.774916E+01
-14.000000 26.000000 -2.674541E+01
-14.000000 24.000000 -7.171329E+00
-14.000000 22.000000 1.231822E+01
-14.000000 20.000000 2.774999E+01
-14.000000 18.000000 2.994936E+01
-14.000000 16.000000 1.309377E+01
-14.000000 14.000000 -2.256226E+01
-14.000000 12.000000 -6.720053E+01
-14.000000 10.000000 -9.517180E+01
-14.000000 8.000000 -8.649941E+01
-14.000000 6.000000 -5.949899E+01
-14.000000 4.000000 -3.034437E+01
-14.000000 2.000000 -1.958098E+01
-14.000000 0.000000 -2.408559E+01
-14.000000 -2.000000 -3.399573E+01
-14.000000 -4.000000 -3.795920E+01
-14.000000 -6.000000 -3.713504E+01
-14.000000 -8.000000 -4.206746E+01
-14.000000 -10.000000 -5.010145E+01
-14.000000 -12.000000 -4.079136E+01
-14.000000 -14.000000 -2.618231E+01
-14.000000 -16.000000 -1.843188E+01
-14.000000 -18.000000 -1.838224E+01
-14.000000 -20.000000 -1.872236E+01
-14.000000 -22.000000 -1.348161E+01
-14.000000 -24.000000 -5.557254E+00
-14.000000 -26.000000 -1.740865E+00
-14.000000 -28.000000 -1.654708E-01
-14.000000 -30.000000 4.400376E+00
-14.000000 -32.000000 4.012222E+00
-14.000000 -34.000000 7.358451E-01
-14.000000 -36.000000 2.585117E+00
-14.000000 -38.000000 7.647094E+00
-14.000000 -40.000000 6.228040E+00
-12.000000 40.000000 -1.511720E+01
-12.000000 38.000000 -2.200976E+01
-12.000000 36.000000 -2.599936E+01
-12.000000 34.000000 -2.061866E+01
-12.000000 32.000000 -1.507983E+01
-12.000000 30.000000 -1.951230E+01
-12.000000 28.000000 -2.920058E+01
-12.000000 26.000000 -3.123984E+01
-12.000000 24.000000 -1.508489E+01
-12.000000 22.000000 5.550034E+00
-12.000000 20.000000 2.241419E+01
-12.000000 18.000000 2.259207E+01
-12.000000 16.000000 3.606987E-01
-12.000000 14.000000 -4.299001E+01
-12.000000 12.000000 -9.571185E+01
-12.000000 10.000000 -1.308224E+02
-12.000000 8.000000 -1.192560E+02
-12.000000 6.000000 -8.329504E+01
-12.000000 4.000000 -3.973897E+01
-12.000000 2.000000 -1.592502E+01
-12.000000 0.000000 -8.857676E+00
-12.000000 -2.000000 -1.038865E+01
-12.000000 -4.000000 -1.391060E+01
-12.000000 -6.000000 -2.038666E+01
-12.000000 -8.000000 -3.093269E+01
-12.000000 -10.000000 -3.972598E+01
-12.000000 -12.000000 -2.623752E+01
-12.000000 -14.000000 -5.758234E+00
-12.000000 -16.000000 2.813883E+00
-12.000000 -18.000000 4.750385E-01
-12.000000 -20.000000 -7.679627E+00
-12.000000 -22.000000 -8.019890E+00
-12.000000 -24.000000 -2.826779E+00
-12.000000 -26.000000 9.100423E-01
-12.000000 -28.000000 3.644274E+00
-12.000000 -30.000000 8.468723E+00
-12.000000 -32.000000 8.220397E+00
-12.000000 -34.000000 5.987835E+00
-12.000000 -36.000000 7.952638E+00
-12.000000 -38.000000 1.064783E+01
-12.000000 -40.000000 7.605283E+00
-10.000000 40.000000 2.533340E-01
-10.000000 38.000000 -6.730415E+00
-10.000000 36.000000 -1.092895E+01
-10.000000 34.000000 -9.182938E+00
-10.000000 32.000000 -8.996227E+00
-10.000000 30.000000 -1.916579E+01
-10.000000 28.000000 -3.467748E+01
-10.000000 26.000000 -4.172420E+01
-10.000000 24.000000 -3.249113E+01
-10.000000 22.000000 -1.580306E+01
-10.000000 20.000000 -2.898613E+00
-10.000000 18.000000 -4.745468E+00
-10.000000 16.000000 -2.692742E+01
-10.000000 14.000000 -6.913727E+01
-10.000000 12.000000 -1.188411E+02
-10.000000 10.000000 -1.525935E+02
-10.000000 8.000000 -1.369662E+02
-10.000000 6.000000 -9.428756E+01
-10.000000 4.000000 -4.087343E+01
-10.000000 2.000000 -7.486818E+00
-10.000000 0.000000 8.600250E+00
-10.000000 -2.000000 1.526801E+01
-10.000000 -4.000000 1.656691E+01
-10.000000 -6.000000 9.839315E+00
-10.000000 -8.000000 -3.513111E+00
-10.000000 -10.000000 -1.241969E+01
-10.000000 -12.000000 -5.700731E-01
-10.000000 -14.000000 1.900788E+01
-10.000000 -16.000000 2.688695E+01
-10.000000 -18.000000 2.276928E+01
-10.000000 -20.000000 8.759104E+00
-10.000000 -22.000000 2.376960E+00
-10.000000 -24.000000 3.492494E+00
-10.000000 -26.000000 6.058308E+00
-10.000000 -28.000000 6.892780E+00
-10.000000 -30.000000 8.623228E+00
-10.000000 -32.000000 8.448499E+00
-10.000000 -34.000000 8.450434E+00
-10.000000 -36.000000 1.084467E+01
-10.000000 -38.000000 1.146914E+01
-10.000000 -40.000000 7.419866E+00
-8.000000 40.000000 1.351876E+01
-8.000000 38.000000 7.885864E+00
-8.000000 36.000000 3.473663E+00
-8.000000 34.000000 1.562958E-01
-8.000000 32.000000 -5.817558E+00
-8.000000 30.000000 -2.089563E+01
-8.000000 28.000000 -3.997660E+01
-8.000000 26.000000 -5.112286E+01
-8.000000 24.000000 -4.904127E+01
-8.000000 22.000000 -3.902971E+01
-8.000000 20.000000 -3.302486E+01
-8.000000 18.000000 -3.582252E+01
-8.000000 16.000000 -5.396899E+01
-8.000000 14.000000 -8.777388E+01
-8.000000 12.000000 -1.258190E+02
-8.000000 10.000000 -1.511535E+02
-8.000000 8.000000 -1.311678E+02
-8.000000 6.000000 -8.520112E+01
-8.000000 4.000000 -3.008673E+01
-8.000000 2.000000 4.837479E+00
-8.000000 0.000000 2.249532E+01
-8.000000 -2.000000 3.233464E+01
-8.000000 -4.000000 3.961265E+01
-8.000000 -6.000000 3.858711E+01
-8.000000 -8.000000 2.567358E+01
-8.000000 -10.000000 1.552598E+01
-8.000000 -12.000000 2.174350E+01
-8.000000 -14.000000 3.386477E+01
-8.000000 -16.000000 3.911107E+01
-8.000000 -18.000000 3.321209E+01
-8.000000 -20.000000 2.024124E+01
-8.000000 -22.000000 1.195660E+01
-8.000000 -24.000000 1.139990E+01
-8.000000 -26.000000 1.381088E+01
-8.000000 -28.000000 1.144453E+01
-8.000000 -30.000000 9.153412E+00
-8.000000 -32.000000 8.154842E+00
-8.000000 -34.000000 1.022784E+01
-8.000000 -36.000000 1.221752E+01
-8.000000 -38.000000 1.096030E+01
-8.000000 -40.000000 6.297465E+00
-6.000000 40.000000 2.327979E+01
-6.000000 38.000000 1.837501E+01
-6.000000 36.000000 1.311117E+01
-6.000000 34.000000 5.005539E+00
-6.000000 32.000000 -6.527725E+00
-6.000000 30.000000 -2.517413E+01
-6.000000 28.000000 -4.519545E+01
-6.000000 26.000000 -5.696554E+01
-6.000000 24.000000 -5.783380E+01
-6.000000 22.000000 -5.227377E+01
-6.000000 20.000000 -5.089276E+01
-6.000000 18.000000 -5.435579E+01
-6.000000 16.000000 -6.712039E+01
-6.000000 14.000000 -8.870447E+01
-6.000000 12.000000 -1.115907E+02
-6.000000 10.000000 -1.227415E+02
-6.000000 8.000000 -9.785820E+01
-6.000000 6.000000 -5.435899E+01
-6.000000 4.000000 -9.158451E+00
-6.000000 2.000000 1.755383E+01
-6.000000 0.000000 3.061163E+01
-6.000000 -2.000000 3.714954E+01
-6.000000 -4.000000 4.733951E+01
-6.000000 -6.000000 5.279741E+01
-6.000000 -8.000000 4.248764E+01
-6.000000 -10.000000 3.036923E+01
-6.000000 -12.000000 2.899300E+01
-6.000000 -14.000000 3.304813E+01
-6.000000 -16.000000 3.461059E+01
-6.000000 -18.000000 2.884783E+01
-6.000000 -20.000000 2.007619E+01
-6.000000 -22.000000 1.474806E+01
-6.000000 -24.000000 1.618909E+01
-6.000000 -26.000000 2.030259E+01
-6.000000 -28.000000 1.669088E+01
-6.000000 -30.000000 1.119655E+01
-6.000000 -32.000000 8.601198E+00
-6.000000 -34.000000 1.225314E+01
-6.000000 -36.000000 1.394202E+01
-6.000000 -38.000000 1.116682E+01
-6.000000 -40.000000 5.718627E+00
-4.000000 40.000000 2.894323E+01
-4.000000 38.000000 2.339376E+01
-4.000000 36.000000 1.743655E+01
-4.000000 34.000000 6.932671E+00
-4.000000 32.000000 -8.529842E+00
-4.000000 30.000000 -3.000213E+01
-4.000000 28.000000 -5.059114E+01
-4.000000 26.000000 -5.992900E+01
-4.000000 24.000000 -5.810003E+01
-4.000000 22.000000 -5.277499E+01
-4.000000 20.000000 -5.304489E+01
-4.000000 18.000000 -5.733743E+01
-4.000000 16.000000 -6.525431E+01
-4.000000 14.000000 -7.499532E+01
-4.000000 12.000000 -8.266040E+01
-4.000000 10.000000 -7.876203E+01
-4.000000 8.000000 -5.171912E+01
-4.000000 6.000000 -1.579551E+01
-4.000000 4.000000 1.232026E+01
-4.000000 2.000000 2.407046E+01
-4.000000 0.000000 2.777217E+01
-4.000000 -2.000000 2.941429E+01
-4.000000 -4.000000 3.990075E+01
-4.000000 -6.000000 5.033747E+01
-4.000000 -8.000000 4.349043E+01
-4.000000 -10.000000 3.057491E+01
-4.000000 -12.000000 2.495756E+01
-4.000000 -14.000000 2.591841E+01
-4.000000 -16.000000 2.409758E+01
-4.000000 -18.000000 1.829542E+01
-4.000000 -20.000000 1.305266E+01
-4.000000 -22.000000 1.362306E+01
-4.000000 -24.000000 1.904921E+01
-4.000000 -26.000000 2.321911E+01
-4.000000 -28.000000 1.911504E+01
-4.000000 -30.000000 1.257794E+01
-4.000000 -32.000000 8.589508E+00
-4.000000 -34.000000 1.325159E+01
-4.000000 -36.000000 1.558975E+01
-4.000000 -38.000000 1.210603E+01
-4.000000 -40.000000 5.823924E+00
-2.000000 40.000000 3.124675E+01
-2.000000 38.000000 2.501725E+01
-2.000000 36.000000 1.868535E+01
-2.000000 34.000000 7.137077E+00
-2.000000 32.000000 -1.023737E+01
-2.000000 30.000000 -3.300459E+01
-2.000000 28.000000 -5.349202E+01
-2.000000 26.000000 -6.159306E+01
-2.000000 24.000000 -5.558931E+01
-2.000000 22.000000 -4.643635E+01
-2.000000 20.000000 -4.685203E+01
-2.000000 18.000000 -5.201464E+01
-2.000000 16.000000 -5.574051E+01
-2.000000 14.000000 -5.606074E+01
-2.000000 12.000000 -5.123031E+01
-2.000000 10.000000 -3.570104E+01
-2.000000 8.000000 -1.085884E+01
-2.000000 6.000000 1.504528E+01
-2.000000 4.000000 2.631796E+01
-2.000000 2.000000 2.256667E+01
-2.000000 0.000000 1.594980E+01
-2.000000 -2.000000 1.372815E+01
-2.000000 -4.000000 2.120299E+01
-2.000000 -6.000000 3.303431E+01
-2.000000 -8.000000 2.912753E+01
-2.000000 -10.000000 1.787593E+01
-2.000000 -12.000000 1.523099E+01
-2.000000 -14.000000 2.101330E+01
-2.000000 -16.000000 1.825594E+01
-2.000000 -18.000000 1.030785E+01
-2.000000 -20.000000 5.986721E+00
-2.000000 -22.000000 1.225481E+01
-2.000000 -24.000000 2.189669E+01
-2.000000 -26.000000 2.338904E+01
-2.000000 -28.000000 1.715789E+01
-2.000000 -30.000000 1.188808E+01
-2.000000 -32.000000 1.012816E+01
-2.000000 -34.000000 1.612571E+01
-2.000000 -36.000000 1.838667E+01
-2.000000 -38.000000 1.294205E+01
-2.000000 -40.000000 4.921145E+00
0.000000 40.000000 3.103066E+01
0.000000 38.000000 2.377373E+01
0.000000 36.000000 1.639276E+01
0.000000 34.000000 4.183472E+00
0.000000 32.000000 -1.303700E+01
0.000000 30.000000 -3.380361E+01
0.000000 28.000000 -5.152440E+01
0.000000 26.000000 -5.892616E+01
0.000000 24.000000 -5.068818E+01
0.000000 22.000000 -3.730109E+01
0.000000 20.000000 -3.641606E+01
0.000000 18.000000 -4.258415E+01
0.000000 16.000000 -4.370340E+01
0.000000 14.000000 -3.802590E+01
0.000000 12.000000 -2.742290E+01
0.000000 10.000000 -8.389410E+00
0.000000 8.000000 1.053554E+01
0.000000 6.000000 2.726331E+01
0.000000 4.000000 2.764115E+01
0.000000 2.000000 1.445841E+01
0.000000 0.000000 2.066422E-01
0.000000 -2.000000 -7.213093E+00
0.000000 -4.000000 -4.220440E+00
0.000000 -6.000000 6.236370E+00
0.000000 -8.000000 5.590250E+00
0.000000 -10.000000 -2.649192E+00
0.000000 -12.000000 7.608299E-01
0.000000 -14.000000 1.468916E+01
0.000000 -16.000000 1.537502E+01
0.000000 -18.000000 5.160362E+00
0.000000 -20.000000 1.476590E+00
0.000000 -22.000000 1.258847E+01
0.000000 -24.000000 2.517689E+01
0.000000 -26.000000 2.282316E+01
0.000000 -28.000000 1.430255E+01
0.000000 -30.000000 1.219561E+01
0.000000 -32.000000 1.628623E+01
0.000000 -34.000000 2.368340E+01
0.000000 -36.000000 2.336645E+01
0.000000 -38.000000 1.320864E+01
0.000000 -40.000000 1.241985E+00
2.000000 40.000000 2.855858E+01
2.000000 38.000000 1.877777E+01
2.000000 36.000000 9.372860E+00
2.000000 34.000000 -2.582230E+00
2.000000 32.000000 -1.718426E+01
2.000000 30.000000 -3.247905E+01
2.000000 28.000000 -4.426697E+01
2.000000 26.000000 -4.893102E+01
2.000000 24.000000 -3.760136E+01
2.000000 22.000000 -2.320490E+01
2.000000 20.000000 -2.268281E+01
2.000000 18.000000 -3.074088E+01
2.000000 16.000000 -3.238669E+01
2.000000 14.000000 -2.598661E+01
2.000000 12.000000 -1.820915E+01
2.000000 10.000000 -5.077190E+00
2.000000 8.000000 4.642908E+00
2.000000 6.000000 1.352608E+01
2.000000 4.000000 1.087445E+01
2.000000 2.000000 -2.894440E+00
2.000000 0.000000 -2.109609E+01
2.000000 -2.000000 -3.433490E+01
2.000000 -4.000000 -3.568758E+01
2.000000 -6.000000 -2.603818E+01
2.000000 -8.000000 -2.058722E+01
2.000000 -10.000000 -2.215274E+01
2.000000 -12.000000 -1.233086E+01
2.000000 -14.000000 6.070644E+00
2.000000 -16.000000 1.164228E+01
2.000000 -18.000000 4.704917E+00
2.000000 -20.000000 4.516470E+00
2.000000 -22.000000 1.712573E+01
2.000000 -24.000000 2.832962E+01
2.000000 -26.000000 2.387227E+01
2.000000 -28.000000 1.553057E+01
2.000000 -30.000000 1.683492E+01
2.000000 -32.000000 2.539019E+01
2.000000 -34.000000 3.270207E+01
2.000000 -36.000000 2.714970E+01
2.000000 -38.000000 1.089857E+01
2.000000 -40.000000 -6.555612E+00
4.000000 40.000000 2.351583E+01
4.000000 38.000000 1.052640E+01
4.000000 36.000000 -8.578224E-01
4.000000 34.000000 -1.136378E+01
4.000000 32.000000 -2.100494E+01
4.000000 30.000000 -2.837183E+01
4.000000 28.000000 -3.199128E+01
4.000000 26.000000 -3.204366E+01
4.000000 24.000000 -1.723823E+01
4.000000 22.000000 -5.500149E+00
4.000000 20.000000 -7.986221E+00
4.000000 18.000000 -1.944221E+01
4.000000 16.000000 -2.581463E+01
4.000000 14.000000 -2.686823E+01
4.000000 12.000000 -2.873700E+01
4.000000 10.000000 -2.874111E+01
4.000000 8.000000 -2.901292E+01
4.000000 6.000000 -2.429841E+01
4.000000 4.000000 -2.064828E+01
4.000000 2.000000 -2.616336E+01
4.000000 0.000000 -4.262282E+01
4.000000 -2.000000 -6.017569E+01
4.000000 -4.000000 -6.460933E+01
4.000000 -6.000000 -5.149581E+01
4.000000 -8.000000 -4.076085E+01
4.000000 -10.000000 -3.601204E+01
4.000000 -12.000000 -2.042087E+01
4.000000 -14.000000 -3.449450E-01
4.000000 -16.000000 9.481553E+00
4.000000 -18.000000 1.024039E+01
4.000000 -20.000000 1.367838E+01
4.000000 -22.000000 2.344934E+01
4.000000 -24.000000 2.965038E+01
4.000000 -26.000000 2.499011E+01
4.000000 -28.000000 1.851287E+01
4.000000 -30.000000 2.198584E+01
4.000000 -32.000000 3.203647E+01
4.000000 -34.000000 3.802370E+01
4.000000 -36.000000 2.646091E+01
4.000000 -38.000000 4.478695E+00
4.000000 -40.000000 -1.787522E+01
6.000000 40.000000 1.686506E+01
6.000000 38.000000 5.531483E-01
6.000000 36.000000 -1.268967E+01
6.000000 34.000000 -2.153538E+01
6.000000 32.000000 -2.514746E+01
6.000000 30.000000 -2.375199E+01
6.000000 28.000000 -1.858633E+01
6.000000 26.000000 -1.382257E+01
6.000000 24.000000 1.926966E+00
6.000000 22.000000 8.685629E+00
6.000000 20.000000 1.994274E+00
6.000000 18.000000 -1.273358E+01
6.000000 16.000000 -2.578396E+01
6.000000 14.000000 -4.036216E+01
6.000000 12.000000 -5.651708E+01
6.000000 10.000000 -7.263067E+01
6.000000 8.000000 -8.057545E+01
6.000000 6.000000 -7.434968E+01
6.000000 4.000000 -5.450402E+01
6.000000 2.000000 -4.083762E+01
6.000000 0.000000 -4.395914E+01
6.000000 -2.000000 -5.788919E+01
6.000000 -4.000000 -6.425652E+01
6.000000 -6.000000 -5.440576E+01
6.000000 -8.000000 -4.849505E+01
6.000000 -10.000000 -4.661319E+01
6.000000 -12.000000 -2.833518E+01
6.000000 -14.000000 -5.108846E+00
6.000000 -16.000000 9.007710E+00
6.000000 -18.000000 1.360498E+01
6.000000 -20.000000 1.639397E+01
6.000000 -22.000000 2.301459E+01
6.000000 -24.000000 2.512203E+01
6.000000 -26.000000 2.029504E+01
6.000000 -28.000000 1.533635E+01
6.000000 -30.000000 2.057207E+01
6.000000 -32.000000 3.104756E+01
6.000000 -34.000000 3.624464E+01
6.000000 -36.000000 2.043260E+01
6.000000 -38.000000 -5.142551E+00
6.000000 -40.000000 -3.006709E+01
8.000000 40.000000 1.201003E+01
8.000000 38.000000 -8.361979E+00
8.000000 36.000000 -2.546781E+01
8.000000 34.000000 -3.477053E+01
8.000000 32.000000 -3.338057E+01
8.000000 30.000000 -2.497577E+01
8.000000 28.000000 -1.349858E+01
8.000000 26.000000 -5.968236E+00
8.000000 24.000000 9.630888E+00
8.000000 22.000000 1.446406E+01
8.000000 20.000000 6.558716E+00
8.000000 18.000000 -9.256853E+00
8.000000 16.000000 -2.822596E+01
8.000000 14.000000 -5.565846E+01
8.000000 12.000000 -8.559874E+01
8.000000 10.000000 -1.164490E+02
8.000000 8.000000 -1.295855E+02
8.000000 6.000000 -1.189903E+02
8.000000 4.000000 -7.877938E+01
8.000000 2.000000 -3.875319E+01
8.000000 0.000000 -1.703334E+01
8.000000 -2.000000 -1.475472E+01
8.000000 -4.000000 -1.941038E+01
8.000000 -6.000000 -2.628472E+01
8.000000 -8.000000 -3.986373E+01
8.000000 -10.000000 -5.151961E+01
8.000000 -12.000000 -3.455751E+01
8.000000 -14.000000 -8.331556E+00
8.000000 -16.000000 8.673239E+00
8.000000 -18.000000 9.861647E+00
8.000000 -20.000000 6.025102E+00
8.000000 -22.000000 8.047118E+00
8.000000 -24.000000 8.107937E+00
8.000000 -26.000000 4.406968E+00
8.000000 -28.000000 5.882395E-01
8.000000 -30.000000 7.265358E+00
8.000000 -32.000000 1.916777E+01
8.000000 -34.000000 2.491978E+01
8.000000 -36.000000 8.404066E+00
8.000000 -38.000000 -1.622498E+01
8.000000 -40.000000 -4.044554E+01
10.000000 40.000000 1.046182E+01
10.000000 38.000000 -1.449013E+01
10.000000 36.000000 -3.726638E+01
10.000000 34.000000 -5.039281E+01
10.000000 32.000000 -4.678104E+01
10.000000 30.000000 -3.497583E+01
10.000000 28.000000 -2.160130E+01
10.000000 26.000000 -1.318906E+01
10.000000 24.000000 2.091455E+00
10.000000 22.000000 1.018915E+01
10.000000 20.000000 7.434347E+00
10.000000 18.000000 -5.992108E+00
10.000000 16.000000 -2.817811E+01
10.000000 14.000000 -6.207011E+01
10.000000 12.000000 -1.008247E+02
10.000000 10.000000 -1.416142E+02
10.000000 8.000000 -1.575106E+02
10.000000 6.000000 -1.430561E+02
10.000000 4.000000 -8.764024E+01
10.000000 2.000000 -2.452661E+01
10.000000 0.000000 2.335176E+01
10.000000 -2.000000 4.773573E+01
10.000000 -4.000000 5.168888E+01
10.000000 -6.000000 2.847523E+01
10.000000 -8.000000 -9.466920E+00
10.000000 -10.000000 -3.936773E+01
10.000000 -12.000000 -2.763487E+01
10.000000 -14.000000 5.164249E-01
10.000000 -16.000000 1.596466E+01
10.000000 -18.000000 4.498229E+00
10.000000 -20.000000 -1.468308E+01
10.000000 -22.000000 -2.221077E+01
10.000000 -24.000000 -2.352385E+01
10.000000 -26.000000 -2.417030E+01
10.000000 -28.000000 -2.576041E+01
10.000000 -30.000000 -1.834013E+01
10.000000 -32.000000 -4.482202E+00
10.000000 -34.000000 3.808662E+00
10.000000 -36.000000 -8.659993E+00
10.000000 -38.000000 -2.737289E+01
10.000000 -40.000000 -4.767186E+01
12.000000 40.000000 1.091268E+01
12.000000 38.000000 -1.884077E+01
12.000000 36.000000 -4.643879E+01
12.000000 34.000000 -6.464453E+01
12.000000 32.000000 -6.232691E+01
12.000000 30.000000 -4.964946E+01
12.000000 28.000000 -3.660590E+01
12.000000 26.000000 -2.872583E+01
12.000000 24.000000 -1.408219E+01
12.000000 22.000000 -2.681370E-01
12.000000 20.000000 4.863237E+00
12.000000 18.000000 -3.146237E+00
12.000000 16.000000 -2.413333E+01
12.000000 14.000000 -5.811255E+01
12.000000 12.000000 -9.948206E+01
12.000000 10.000000 -1.432752E+02
12.000000 8.000000 -1.601648E+02
12.000000 6.000000 -1.447883E+02
12.000000 4.000000 -8.554983E+01
12.000000 2.000000 -1.140698E+01
12.000000 0.000000 5.523067E+01
12.000000 -2.000000 1.026733E+02
12.000000 -4.000000 1.224833E+02
12.000000 -6.000000 9.303720E+01
12.000000 -8.000000 3.840137E+01
12.000000 -10.000000 -3.904770E+00
12.000000 -12.000000 2.797410E+00
12.000000 -14.000000 3.215404E+01
12.000000 -16.000000 3.982096E+01
12.000000 -18.000000 6.733771E+00
12.000000 -20.000000 -3.622223E+01
12.000000 -22.000000 -5.818484E+01
12.000000 -24.000000 -6.330813E+01
12.000000 -26.000000 -6.052522E+01
12.000000 -28.000000 -5.824775E+01
12.000000 -30.000000 -4.989437E+01
12.000000 -32.000000 -3.607171E+01
12.000000 -34.000000 -2.358790E+01
12.000000 -36.000000 -2.756191E+01
12.000000 -38.000000 -3.758503E+01
12.000000 -40.000000 -5.168804E+01
14.000000 40.000000 1.313985E+01
14.000000 38.000000 -2.065474E+01
14.000000 36.000000 -5.162202E+01
14.000000 34.000000 -7.474567E+01
14.000000 32.000000 -7.522868E+01
14.000000 30.000000 -6.287757E+01
14.000000 28.000000 -5.042626E+01
14.000000 26.000000 -4.287700E+01
14.000000 24.000000 -3.009347E+01
14.000000 22.000000 -1.242402E+01
14.000000 20.000000 -8.812809E-01
14.000000 18.000000 -2.147037E+00
14.000000 16.000000 -1.825156E+01
14.000000 14.000000 -4.813680E+01
14.000000 12.000000 -8.670849E+01
14.000000 10.000000 -1.267673E+02
14.000000 8.000000 -1.427954E+02
14.000000 6.000000 -1.288643E+02
14.000000 4.000000 -8.051606E+01
14.000000 2.000000 -1.252034E+01
14.000000 0.000000 6.261514E+01
14.000000 -2.000000 1.291729E+02
14.000000 -4.000000 1.670954E+02
14.000000 -6.000000 1.441914E+02
14.000000 -8.000000 8.812844E+01
14.000000 -10.000000 4.663419E+01
14.000000 -12.000000 5.548517E+01
14.000000 -14.000000 8.544043E+01
14.000000 -16.000000 8.176739E+01
14.000000 -18.000000 2.492912E+01
14.000000 -20.000000 -4.416517E+01
14.000000 -22.000000 -8.332379E+01
14.000000 -24.000000 -9.482857E+01
14.000000 -26.000000 -9.076395E+01
14.000000 -28.000000 -8.632029E+01
14.000000 -30.000000 -7.840054E+01
14.000000 -32.000000 -6.587772E+01
14.000000 -34.000000 -4.949746E+01
14.000000 -36.000000 -4.455235E+01
14.000000 -38.000000 -4.630304E+01
14.000000 -40.000000 -5.410575E+01
16.000000 40.000000 1.760298E+01
16.000000 38.000000 -1.778790E+01
16.000000 36.000000 -5.093042E+01
16.000000 34.000000 -7.872155E+01
16.000000 32.000000 -8.179412E+01
16.000000 30.000000 -7.064091E+01
16.000000 28.000000 -5.795005E+01
16.000000 26.000000 -4.945543E+01
16.000000 24.000000 -3.973188E+01
16.000000 22.000000 -2.271980E+01
16.000000 20.000000 -8.618988E+00
16.000000 18.000000 -3.274926E+00
16.000000 16.000000 -1.168234E+01
16.000000 14.000000 -3.445804E+01
16.000000 12.000000 -6.855051E+01
16.000000 10.000000 -1.027098E+02
16.000000 8.000000 -1.205090E+02
16.000000 6.000000 -1.150997E+02
16.000000 4.000000 -8.741743E+01
16.000000 2.000000 -3.420780E+01
16.000000 0.000000 4.064199E+01
16.000000 -2.000000 1.174986E+02
16.000000 -4.000000 1.693079E+02
16.000000 -6.000000 1.630345E+02
16.000000 -8.000000 1.239956E+02
16.000000 -10.000000 1.009709E+02
16.000000 -12.000000 1.223637E+02
16.000000 -14.000000 1.549961E+02
16.000000 -16.000000 1.406663E+02
16.000000 -18.000000 6.247101E+01
16.000000 -20.000000 -3.057867E+01
16.000000 -22.000000 -8.609024E+01
16.000000 -24.000000 -1.031676E+02
16.000000 -26.000000 -1.013748E+02
16.000000 -28.000000 -9.880250E+01
16.000000 -30.000000 -9.404721E+01
16.000000 -32.000000 -8.315899E+01
16.000000 -34.000000 -6.473070E+01
16.000000 -36.000000 -5.516411E+01
16.000000 -38.000000 -5.293973E+01
16.000000 -40.000000 -5.785967E+01
18.000000 40.000000 2.421879E+01
18.000000 38.000000 -1.098258E+01
18.000000 36.000000 -4.455283E+01
18.000000 34.000000 -7.414600E+01
18.000000 32.000000 -7.868345E+01
18.000000 30.000000 -6.842554E+01
18.000000 28.000000 -5.477863E+01
18.000000 26.000000 -4.598588E+01
18.000000 24.000000 -3.906801E+01
18.000000 22.000000 -2.596662E+01
18.000000 20.000000 -1.319660E+01
18.000000 18.000000 -4.845221E+00
18.000000 16.000000 -7.050042E+00
18.000000 14.000000 -2.463979E+01
18.000000 12.000000 -5.830938E+01
18.000000 10.000000 -9.080918E+01
18.000000 8.000000 -1.159719E+02
18.000000 6.000000 -1.287683E+02
18.000000 4.000000 -1.183867E+02
18.000000 2.000000 -7.312077E+01
18.000000 0.000000 -2.217892E+00
18.000000 -2.000000 7.198050E+01
18.000000 -4.000000 1.255406E+02
18.000000 -6.000000 1.419472E+02
18.000000 -8.000000 1.387134E+02
18.000000 -10.000000 1.535988E+02
18.000000 -12.000000 1.973367E+02
18.000000 -14.000000 2.349130E+02
18.000000 -16.000000 2.104160E+02
18.000000 -18.000000 1.152834E+02
18.000000 -20.000000 6.628419E+00
18.000000 -22.000000 -6.011771E+01
18.000000 -24.000000 -8.348322E+01
18.000000 -26.000000 -8.769467E+01
18.000000 -28.000000 -9.032267E+01
18.000000 -30.000000 -9.018063E+01
18.000000 -32.000000 -8.275119E+01
18.000000 -34.000000 -6.581563E+01
18.000000 -36.000000 -5.702537E+01
18.000000 -38.000000 -5.662675E+01
18.000000 -40.000000 -6.444866E+01
20.000000 40.000000 3.234931E+01
20.000000 38.000000 -1.785041E+00
20.000000 36.000000 -3.348096E+01
20.000000 34.000000 -6.022084E+01
20.000000 32.000000 -6.361894E+01
20.000000 30.000000 -5.358768E+01
20.000000 28.000000 -4.046893E+01
20.000000 26.000000 -3.282716E+01
20.000000 24.000000 -2.740637E+01
20.000000 22.000000 -2.007393E+01
20.000000 20.000000 -1.209845E+01
20.000000 18.000000 -6.439910E+00
20.000000 16.000000 -8.557927E+00
20.000000 14.000000 -2.826285E+01
20.000000 12.000000 -6.923391E+01
20.000000 10.000000 -1.127108E+02
20.000000 8.000000 -1.490561E+02
20.000000 6.000000 -1.734026E+02
20.000000 4.000000 -1.636617E+02
20.000000 2.000000 -1.156054E+02
20.000000 0.000000 -5.120436E+01
20.000000 -2.000000 9.864614E+00
20.000000 -4.000000 5.311597E+01
20.000000 -6.000000 8.994583E+01
20.000000 -8.000000 1.326637E+02
20.000000 -10.000000 1.955499E+02
20.000000 -12.000000 2.691237E+02
20.000000 -14.000000 3.143926E+02
20.000000 -16.000000 2.814802E+02
20.000000 -18.000000 1.752977E+02
20.000000 -20.000000 5.964293E+01
20.000000 -22.000000 -1.265246E+01
20.000000 -24.000000 -4.273336E+01
20.000000 -26.000000 -5.309621E+01
20.000000 -28.000000 -6.349348E+01
20.000000 -30.000000 -6.927377E+01
20.000000 -32.000000 -6.758245E+01
20.000000 -34.000000 -5.566381E+01
20.000000 -36.000000 -5.143525E+01
20.000000 -38.000000 -5.655078E+01
20.000000 -40.000000 -7.202252E+01
22.000000 40.000000 4.081035E+01
22.000000 38.000000 9.177976E+00
22.000000 36.000000 -1.839282E+01
22.000000 34.000000 -3.969628E+01
22.000000 32.000000 -3.929399E+01
22.000000 30.000000 -2.952581E+01
22.000000 28.000000 -2.037645E+01
22.000000 26.000000 -1.705938E+01
22.000000 24.000000 -1.499684E+01
22.000000 22.000000 -1.413136E+01
22.000000 20.000000 -1.144421E+01
22.000000 18.000000 -9.424944E+00
22.000000 16.000000 -1.534091E+01
22.000000 14.000000 -4.241958E+01
22.000000 12.000000 -9.442311E+01
22.000000 10.000000 -1.570647E+02
22.000000 8.000000 -2.033493E+02
22.000000 6.000000 -2.253425E+02
22.000000 4.000000 -2.008373E+02
22.000000 2.000000 -1.422155E+02
22.000000 0.000000 -8.298705E+01
22.000000 -2.000000 -3.875323E+01
22.000000 -4.000000 -1.554738E+01
22.000000 -6.000000 2.859648E+01
22.000000 -8.000000 1.086276E+02
22.000000 -10.000000 2.093082E+02
22.000000 -12.000000 3.112968E+02
22.000000 -14.000000 3.699651E+02
22.000000 -16.000000 3.351790E+02
22.000000 -18.000000 2.229944E+02
22.000000 -20.000000 1.052172E+02
22.000000 -22.000000 3.420067E+01
22.000000 -24.000000 3.675606E+00
22.000000 -26.000000 -9.960220E+00
22.000000 -28.000000 -2.828784E+01
22.000000 -30.000000 -4.022407E+01
22.000000 -32.000000 -4.381993E+01
22.000000 -34.000000 -3.808913E+01
22.000000 -36.000000 -4.073538E+01
22.000000 -38.000000 -5.249298E+01
22.000000 -40.000000 -7.677381E+01
24.000000 40.000000 4.891515E+01
24.000000 38.000000 2.037223E+01
24.000000 36.000000 -2.661188E+00
24.000000 34.000000 -1.821172E+01
24.000000 32.000000 -1.350991E+01
24.000000 30.000000 -5.060846E+00
24.000000 28.000000 -2.186705E+00
24.000000 26.000000 -6.896465E+00
24.000000 24.000000 -1.203848E+01
24.000000 22.000000 -1.596372E+01
24.000000 20.000000 -1.546816E+01
24.000000 18.000000 -1.335311E+01
24.000000 16.000000 -2.173569E+01
24.000000 14.000000 -5.412357E+01
24.000000 12.000000 -1.144835E+02
24.000000 10.000000 -1.892491E+02
24.000000 8.000000 -2.380415E+02
24.000000 6.000000 -2.532339E+02
24.000000 4.000000 -2.141512E+02
24.000000 2.000000 -1.454738E+02
24.000000 0.000000 -8.392795E+01
24.000000 -2.000000 -4.529240E+01
24.000000 -4.000000 -3.232116E+01
24.000000 -6.000000 -1.487553E+00
24.000000 -8.000000 7.305901E+01
24.000000 -10.000000 1.795949E+02
24.000000 -12.000000 2.964914E+02
24.000000 -14.000000 3.676212E+02
24.000000 -16.000000 3.394827E+02
24.000000 -18.000000 2.308348E+02
24.000000 -20.000000 1.182272E+02
24.000000 -22.000000 5.700186E+01
24.000000 -24.000000 3.623362E+01
24.000000 -26.000000 2.534305E+01
24.000000 -28.000000 4.089014E+00
24.000000 -30.000000 -1.059766E+01
24.000000 -32.000000 -1.696183E+01
24.000000 -34.000000 -1.611989E+01
24.000000 -36.000000 -2.581913E+01
24.000000 -38.000000 -4.434061E+01
24.000000 -40.000000 -7.614925E+01
26.000000 40.000000 5.602109E+01
26.000000 38.000000 2.909970E+01
26.000000 36.000000 8.542459E+00
26.000000 34.000000 -2.411861E+00
26.000000 32.000000 5.406515E+00
26.000000 30.000000 1.157044E+01
26.000000 28.000000 8.340701E+00
26.000000 26.000000 -3.214592E+00
26.000000 24.000000 -1.559206E+01
26.000000 22.000000 -1.991026E+01
26.000000 20.000000 -1.658595E+01
26.000000 18.000000 -9.923828E+00
26.000000 16.000000 -1.763929E+01
26.000000 14.000000 -5.120928E+01
26.000000 12.000000 -1.144950E+02
26.000000 10.000000 -1.927068E+02
26.000000 8.000000 -2.401558E+02
26.000000 6.000000 -2.481074E+02
26.000000 4.000000 -1.996847E+02
26.000000 2.000000 -1.247755E+02
26.000000 0.000000 -5.576419E+01
26.000000 -2.000000 -9.620687E+00
26.000000 -4.000000 8.853837E+00
26.000000 -6.000000 1.564432E+01
26.000000 -8.000000 4.600556E+01
26.000000 -10.000000 1.199316E+02
26.000000 -12.000000 2.269981E+02
26.000000 -14.000000 2.994203E+02
26.000000 -16.000000 2.826236E+02
26.000000 -18.000000 1.890590E+02
26.000000 -20.000000 9.185590E+01
26.000000 -22.000000 4.588780E+01
26.000000 -24.000000 4.090122E+01
26.000000 -26.000000 4.085263E+01
26.000000 -28.000000 2.560926E+01
26.000000 -30.000000 1.320302E+01
26.000000 -32.000000 6.949286E+00
26.000000 -34.000000 5.770424E+00
26.000000 -36.000000 -8.988821E+00
26.000000 -38.000000 -3.317918E+01
26.000000 -40.000000 -6.943954E+01
28.000000 40.000000 6.022754E+01
28.000000 38.000000 3.219733E+01
28.000000 36.000000 1.089562E+01
28.000000 34.000000 1.011232E+00
28.000000 32.000000 1.041253E+01
28.000000 30.000000 1.639564E+01
28.000000 28.000000 1.164526E+01
28.000000 26.000000 -1.235420E+00
28.000000 24.000000 -1.372202E+01
28.000000 22.000000 -1.372007E+01
28.000000 20.000000 -4.721907E+00
28.000000 18.000000 6.698578E+00
28.000000 16.000000 5.986824E-01
28.000000 14.000000 -3.295371E+01
28.000000 12.000000 -9.605286E+01
28.000000 10.000000 -1.712415E+02
28.000000 8.000000 -2.145455E+02
28.000000 6.000000 -2.151675E+02
28.000000 4.000000 -1.646422E+02
28.000000 2.000000 -9.004281E+01
28.000000 0.000000 -1.588116E+01
28.000000 -2.000000 3.972537E+01
28.000000 -4.000000 6.539668E+01
28.000000 -6.000000 5.766352E+01
28.000000 -8.000000 4.783489E+01
28.000000 -10.000000 6.502171E+01
28.000000 -12.000000 1.337740E+02
28.000000 -14.000000 1.936742E+02
28.000000 -16.000000 1.879859E+02
28.000000 -18.000000 1.167302E+02
28.000000 -20.000000 4.062239E+01
28.000000 -22.000000 1.058651E+01
28.000000 -24.000000 2.218389E+01
28.000000 -26.000000 3.711858E+01
28.000000 -28.000000 3.261545E+01
28.000000 -30.000000 2.695684E+01
28.000000 -32.000000 2.453710E+01
28.000000 -34.000000 2.314921E+01
28.000000 -36.000000 5.302200E+00
28.000000 -38.000000 -2.253603E+01
28.000000 -40.000000 -6.060478E+01
30.000000 40.000000 6.211032E+01
30.000000 38.000000 2.981221E+01
30.000000 36.000000 3.908340E+00
30.000000 34.000000 -1.011110E+01
30.000000 32.000000 -1.060804E+00
30.000000 30.000000 8.283998E+00
30.000000 28.000000 8.712492E+00
30.000000 26.000000 1.595917E+00
30.000000 24.000000 -1.845390E+00
30.000000 22.000000 4.889261E+00
30.000000 20.000000 1.806149E+01
30.000000 18.000000 2.937502E+01
30.000000 16.000000 2.252861E+01
30.000000 14.000000 -1.153329E+01
30.000000 12.000000 -7.326692E+01
30.000000 10.000000 -1.418842E+02
30.000000 8.000000 -1.762998E+02
30.000000 6.000000 -1.684382E+02
30.000000 4.000000 -1.193380E+02
30.000000 2.000000 -5.060401E+01
30.000000 0.000000 2.202685E+01
30.000000 -2.000000 8.175696E+01
30.000000 -4.000000 1.134559E+02
30.000000 -6.000000 1.045238E+02
30.000000 -8.000000 7.240145E+01
30.000000 -10.000000 4.187837E+01
30.000000 -12.000000 6.040787E+01
30.000000 -14.000000 9.424330E+01
30.000000 -16.000000 9.396534E+01
30.000000 -18.000000 4.361047E+01
30.000000 -20.000000 -1.319008E+01
30.000000 -22.000000 -3.078701E+01
30.000000 -24.000000 -6.810484E+00
30.000000 -26.000000 2.103794E+01
30.000000 -28.000000 2.659950E+01
30.000000 -30.000000 3.029107E+01
30.000000 -32.000000 3.393045E+01
30.000000 -34.000000 3.304702E+01
30.000000 -36.000000 1.349629E+01
30.000000 -38.000000 -1.632170E+01
30.000000 -40.000000 -5.459558E+01
32.000000 40.000000 6.585571E+01
32.000000 38.000000 2.615991E+01
32.000000 36.000000 -8.667130E+00
32.000000 34.000000 -3.216557E+01
32.000000 32.000000 -2.729064E+01
32.000000 30.000000 -1.437494E+01
32.000000 28.000000 -3.502590E+00
32.000000 26.000000 1.760082E+00
32.000000 24.000000 1.259612E+01
32.000000 22.000000 2.561551E+01
32.000000 20.000000 3.898851E+01
32.000000 18.000000 4.544950E+01
32.000000 16.000000 3.400764E+01
32.000000 14.000000 -1.170353E+00
32.000000 12.000000 -5.860434E+01
32.000000 10.000000 -1.168114E+02
32.000000 8.000000 -1.365521E+02
32.000000 6.000000 -1.169755E+02
32.000000 4.000000 -6.881929E+01
32.000000 2.000000 -1.017649E+01
32.000000 0.000000 5.337878E+01
32.000000 -2.000000 1.080756E+02
32.000000 -4.000000 1.406966E+02
32.000000 -6.000000 1.385301E+02
32.000000 -8.000000 1.053504E+02
32.000000 -10.000000 6.037455E+01
32.000000 -12.000000 3.701436E+01
32.000000 -14.000000 3.540724E+01
32.000000 -16.000000 3.309605E+01
32.000000 -18.000000 -4.145906E+00
32.000000 -20.000000 -5.041269E+01
32.000000 -22.000000 -6.366114E+01
32.000000 -24.000000 -3.552328E+01
32.000000 -26.000000 -9.001923E-01
32.000000 -28.000000 1.240331E+01
32.000000 -30.000000 2.438463E+01
32.000000 -32.000000 3.302057E+01
32.000000 -34.000000 3.411077E+01
32.000000 -36.000000 1.500003E+01
32.000000 -38.000000 -1.508784E+01
32.000000 -40.000000 -5.246225E+01
34.000000 40.000000 7.250108E+01
34.000000 38.000000 2.443458E+01
34.000000 36.000000 -2.193701E+01
34.000000 34.000000 -5.815541E+01
34.000000 32.000000 -6.055287E+01
34.000000 30.000000 -4.563926E+01
34.000000 28.000000 -2.306924E+01
34.000000 26.000000 -4.312229E+00
34.000000 24.000000 1.952314E+01
34.000000 22.000000 3.628669E+01
34.000000 20.000000 4.700955E+01
34.000000 18.000000 4.666553E+01
34.000000 16.000000 2.964355E+01
34.000000 14.000000 -5.077600E+00
34.000000 12.000000 -5.465615E+01
34.000000 10.000000 -9.783268E+01
34.000000 8.000000 -9.862107E+01
34.000000 6.000000 -6.663566E+01
34.000000 4.000000 -1.983859E+01
34.000000 2.000000 2.606849E+01
34.000000 0.000000 7.299034E+01
34.000000 -2.000000 1.136533E+02
34.000000 -4.000000 1.429325E+02
34.000000 -6.000000 1.510728E+02
34.000000 -8.000000 1.311473E+02
34.000000 -10.000000 9.604669E+01
34.000000 -12.000000 5.969086E+01
34.000000 -14.000000 3.890920E+01
34.000000 -16.000000 2.487173E+01
34.000000 -18.000000 -1.509192E+01
34.000000 -20.000000 -6.366050E+01
34.000000 -22.000000 -8.282738E+01
34.000000 -24.000000 -5.900739E+01
34.000000 -26.000000 -2.377271E+01
34.000000 -28.000000 -4.514404E+00
34.000000 -30.000000 1.365129E+01
34.000000 -32.000000 2.539963E+01
34.000000 -34.000000 2.866413E+01
34.000000 -36.000000 1.118119E+01
34.000000 -38.000000 -1.726477E+01
34.000000 -40.000000 -5.246570E+01
36.000000 40.000000 7.964468E+01
36.000000 38.000000 2.534456E+01
36.000000 36.000000 -3.214523E+01
36.000000 34.000000 -8.046892E+01
36.000000 32.000000 -8.897353E+01
36.000000 30.000000 -7.283232E+01
36.000000 28.000000 -4.304862E+01
36.000000 26.000000 -1.654907E+01
36.000000 24.000000 1.310422E+01
36.000000 22.000000 3.101314E+01
36.000000 20.000000 3.788097E+01
36.000000 18.000000 3.306470E+01
36.000000 16.000000 1.619377E+01
36.000000 14.000000 -1.257651E+01
36.000000 12.000000 -5.072839E+01
36.000000 10.000000 -7.776900E+01
36.000000 8.000000 -6.212355E+01
36.000000 6.000000 -2.246762E+01
36.000000 4.000000 1.841225E+01
36.000000 2.000000 4.811884E+01
36.000000 0.000000 7.435715E+01
36.000000 -2.000000 9.769221E+01
36.000000 -4.000000 1.214439E+02
36.000000 -6.000000 1.396313E+02
36.000000 -8.000000 1.382303E+02
36.000000 -10.000000 1.238640E+02
36.000000 -12.000000 1.004632E+02
36.000000 -14.000000 8.363959E+01
36.000000 -16.000000 5.761790E+01
36.000000 -18.000000 4.728441E+00
36.000000 -20.000000 -5.319589E+01
36.000000 -22.000000 -8.470501E+01
36.000000 -24.000000 -7.218840E+01
36.000000 -26.000000 -4.110054E+01
36.000000 -28.000000 -1.679472E+01
36.000000 -30.000000 5.546608E+00
36.000000 -32.000000 1.874574E+01
36.000000 -34.000000 2.254222E+01
36.000000 -36.000000 5.081936E+00
36.000000 -38.000000 -2.115102E+01
36.000000 -40.000000 -5.314863E+01
38.000000 40.000000 8.426051E+01
38.000000 38.000000 2.696997E+01
38.000000 36.000000 -3.730281E+01
38.000000 34.000000 -9.205045E+01
38.000000 32.000000 -1.030494E+02
38.000000 30.000000 -8.687327E+01
38.000000 28.000000 -5.684021E+01
38.000000 26.000000 -3.146987E+01
38.000000 24.000000 -4.601162E+00
38.000000 22.000000 1.309883E+01
38.000000 20.000000 1.803666E+01
38.000000 18.000000 1.450336E+01
38.000000 16.000000 4.795488E+00
38.000000 14.000000 -1.281405E+01
38.000000 12.000000 -3.749607E+01
38.000000 10.000000 -5.138716E+01
38.000000 8.000000 -2.914772E+01
38.000000 6.000000 8.904434E+00
38.000000 4.000000 3.953830E+01
38.000000 2.000000 5.187494E+01
38.000000 0.000000 5.774850E+01
38.000000 -2.000000 6.656623E+01
38.000000 -4.000000 8.489799E+01
38.000000 -6.000000 1.102502E+02
38.000000 -8.000000 1.243076E+02
38.000000 -10.000000 1.298453E+02
38.000000 -12.000000 1.281509E+02
38.000000 -14.000000 1.226884E+02
38.000000 -16.000000 9.494962E+01
38.000000 -18.000000 3.749215E+01
38.000000 -20.000000 -2.627097E+01
38.000000 -22.000000 -6.654113E+01
38.000000 -24.000000 -6.501368E+01
38.000000 -26.000000 -4.136110E+01
38.000000 -28.000000 -1.717513E+01
38.000000 -30.000000 6.016344E+00
38.000000 -32.000000 1.929155E+01
38.000000 -34.000000 2.193735E+01
38.000000 -36.000000 2.102501E+00
38.000000 -38.000000 -2.468876E+01
38.000000 -40.000000 -5.575809E+01
40.000000 40.000000 8.495435E+01
40.000000 38.000000 2.774997E+01
40.000000 36.000000 -3.665140E+01
40.000000 34.000000 -9.016757E+01
40.000000 32.000000 -1.003439E+02
40.000000 30.000000 -8.540765E+01
40.000000 28.000000 -6.092461E+01
40.000000 26.000000 -4.360987E+01
40.000000 24.000000 -2.619833E+01
40.000000 22.000000 -8.943138E+00
40.000000 20.000000 -1.857250E+00
40.000000 18.000000 -2.609634E-02
40.000000 16.000000 6.985931E-01
40.000000 14.000000 -4.529423E+00
40.000000 12.000000 -1.905723E+01
40.000000 10.000000 -2.587784E+01
40.000000 8.000000 -5.214954E+00
40.000000 6.000000 2.456863E+01
40.000000 4.000000 4.357069E+01
40.000000 2.000000 4.365781E+01
40.000000 0.000000 3.651784E+01
40.000000 -2.000000 3.528849E+01
40.000000 -4.000000 4.753728E+01
40.000000 -6.000000 7.421507E+01
40.000000 -8.000000 9.603165E+01
40.000000 -10.000000 1.133207E+02
40.000000 -12.000000 1.279239E+02
40.000000 -14.000000 1.337936E+02
40.000000 -16.000000 1.136784E+02
40.000000 -18.000000 6.277110E+01
40.000000 -20.000000 2.720959E+00
40.000000 -22.000000 -3.581054E+01
40.000000 -24.000000 -3.899840E+01
40.000000 -26.000000 -2.319741E+01
40.000000 -28.000000 -4.638962E+00
40.000000 -30.000000 1.629683E+01
40.000000 -32.000000 2.820832E+01
40.000000 -34.000000 2.838863E+01
40.000000 -36.000000 4.862984E+00
40.000000 -38.000000 -2.567038E+01
40.000000 -40.000000 -5.945698E+01
42.000000 40.000000 8.352227E+01
42.000000 38.000000 2.846498E+01
42.000000 36.000000 -3.097577E+01
42.000000 34.000000 -7.785398E+01
42.000000 32.000000 -8.520737E+01
42.000000 30.000000 -7.280000E+01
42.000000 28.000000 -5.720053E+01
42.000000 26.000000 -4.989686E+01
42.000000 24.000000 -4.166936E+01
42.000000 22.000000 -2.598726E+01
42.000000 20.000000 -1.704470E+01
42.000000 18.000000 -1.004380E+01
42.000000 16.000000 -7.726727E-01
42.000000 14.000000 2.204378E+00
42.000000 12.000000 -4.145859E+00
42.000000 10.000000 -4.720430E+00
42.000000 8.000000 1.252470E+01
42.000000 6.000000 3.186346E+01
42.000000 4.000000 3.987833E+01
42.000000 2.000000 3.389544E+01
42.000000 0.000000 2.231704E+01
42.000000 -2.000000 1.575665E+01
42.000000 -4.000000 2.195187E+01
42.000000 -6.000000 4.319283E+01
42.000000 -8.000000 6.328692E+01
42.000000 -10.000000 8.064004E+01
42.000000 -12.000000 9.965127E+01
42.000000 -14.000000 1.146797E+02
42.000000 -16.000000 1.085310E+02
42.000000 -18.000000 7.352211E+01
42.000000 -20.000000 2.757015E+01
42.000000 -22.000000 -2.322105E+00
42.000000 -24.000000 -5.318184E+00
42.000000 -26.000000 3.886433E+00
42.000000 -28.000000 1.536635E+01
42.000000 -30.000000 3.211813E+01
42.000000 -32.000000 4.081653E+01
42.000000 -34.000000 3.684502E+01
42.000000 -36.000000 9.379036E+00
42.000000 -38.000000 -2.382262E+01
42.000000 -40.000000 -5.990844E+01
44.000000 40.000000 8.210623E+01
44.000000 38.000000 3.108203E+01
44.000000 36.000000 -2.076438E+01
44.000000 34.000000 -5.922659E+01
44.000000 32.000000 -6.416782E+01
44.000000 30.000000 -5.616110E+01
44.000000 28.000000 -5.025694E+01
44.000000 26.000000 -5.049428E+01
44.000000 24.000000 -4.652568E+01
44.000000 22.000000 -3.355340E+01
44.000000 20.000000 -2.626681E+01
44.000000 18.000000 -1.757709E+01
44.000000 16.000000 -3.659338E+00
44.000000 14.000000 4.595793E+00
44.000000 12.000000 6.599817E+00
44.000000 10.000000 1.195397E+01
44.000000 8.000000 2.514767E+01
44.000000 6.000000 3.688457E+01
44.000000 4.000000 3.950194E+01
44.000000 2.000000 3.127488E+01
44.000000 0.000000 1.828165E+01
44.000000 -2.000000 1.044102E+01
44.000000 -4.000000 1.264104E+01
44.000000 -6.000000 2.478752E+01
44.000000 -8.000000 3.598134E+01
44.000000 -10.000000 4.364235E+01
44.000000 -12.000000 5.789139E+01
44.000000 -14.000000 7.630013E+01
44.000000 -16.000000 8.404324E+01
44.000000 -18.000000 6.924164E+01
44.000000 -20.000000 4.235041E+01
44.000000 -22.000000 2.298733E+01
44.000000 -24.000000 2.183366E+01
44.000000 -26.000000 2.740656E+01
44.000000 -28.000000 3.362978E+01
44.000000 -30.000000 4.572153E+01
44.000000 -32.000000 5.077591E+01
44.000000 -34.000000 4.350277E+01
44.000000 -36.000000 1.415441E+01
44.000000 -38.000000 -1.889439E+01
44.000000 -40.000000 -5.512849E+01
46.000000 40.000000 8.180099E+01
46.000000 38.000000 3.727808E+01
46.000000 36.000000 -6.117405E+00
46.000000 34.000000 -3.736638E+01
46.000000 32.000000 -4.296229E+01
46.000000 30.000000 -4.164362E+01
46.000000 28.000000 -4.285306E+01
46.000000 26.000000 -4.522849E+01
46.000000 24.000000 -4.115197E+01
46.000000 22.000000 -3.183928E+01
46.000000 20.000000 -2.848076E+01
46.000000 18.000000 -2.059684E+01
46.000000 16.000000 -5.368378E+00
46.000000 14.000000 6.922932E+00
46.000000 12.000000 1.475000E+01
46.000000 10.000000 2.331525E+01
46.000000 8.000000 3.277826E+01
46.000000 6.000000 4.156824E+01
46.000000 4.000000 4.479064E+01
46.000000 2.000000 3.718563E+01
46.000000 0.000000 2.457764E+01
46.000000 -2.000000 1.756408E+01
46.000000 -4.000000 1.787383E+01
46.000000 -6.000000 2.151074E+01
46.000000 -8.000000 2.173821E+01
46.000000 -10.000000 1.685571E+01
46.000000 -12.000000 1.987679E+01
46.000000 -14.000000 3.385469E+01
46.000000 -16.000000 4.849647E+01
46.000000 -18.000000 4.940812E+01
46.000000 -20.000000 3.971809E+01
46.000000 -22.000000 3.103485E+01
46.000000 -24.000000 3.228268E+01
46.000000 -26.000000 3.786681E+01
46.000000 -28.000000 4.275144E+01
46.000000 -30.000000 5.108793E+01
46.000000 -32.000000 5.455510E+01
46.000000 -34.000000 4.804785E+01
46.000000 -36.000000 2.099153E+01
46.000000 -38.000000 -1.049938E+01
46.000000 -40.000000 -4.596910E+01
48.000000 40.000000 8.285981E+01
48.000000 38.000000 4.541488E+01
48.000000 36.000000 1.004552E+01
48.000000 34.000000 -1.619978E+01
48.000000 32.000000 -2.507279E+01
48.000000 30.000000 -3.074442E+01
48.000000 28.000000 -3.483857E+01
48.000000 26.000000 -3.438802E+01
48.000000 24.000000 -2.736122E+01
48.000000 22.000000 -2.015278E+01
48.000000 20.000000 -2.007811E+01
48.000000 18.000000 -1.369757E+01
48.000000 16.000000 8.603859E-02
48.000000 14.000000 1.330731E+01
48.000000 12.000000 2.198397E+01
48.000000 10.000000 2.832789E+01
48.000000 8.000000 3.413426E+01
48.000000 6.000000 4.278451E+01
48.000000 4.000000 4.795536E+01
48.000000 2.000000 4.170783E+01
48.000000 0.000000 3.139898E+01
48.000000 -2.000000 2.608984E+01
48.000000 -4.000000 2.621582E+01
48.000000 -6.000000 2.570195E+01
48.000000 -8.000000 1.983339E+01
48.000000 -10.000000 8.183179E+00
48.000000 -12.000000 8.644848E-01
