-22.000000 -8.000000 1.026047E+01
-22.000000 -10.000000 6.817589E+00
-22.000000 -12.000000 2.760239E+00
-22.000000 -14.000000 2.528666E+00
-22.000000 -16.000000 2.601272E+00
-22.000000 -18.000000 8.599811E-01
-22.000000 -20.000000 1.252738E+00
-22.000000 -22.000000 5.488824E+00
-22.000000 -24.000000 1.023640E+01
-22.000000 -26.000000 8.548422E+00
-22.000000 -28.000000 -8.543595E+00
-22.000000 -30.000000 -2.797218E+01
-22.000000 -32.000000 -3.480362E+01
-22.000000 -34.000000 -2.603955E+01
-22.000000 -36.000000 -1.927886E+01
-22.000000 -38.000000 -2.376361E+01
-22.000000 -40.000000 -3.508516E+01
-20.000000 40.000000 -2.070940E+01
-20.000000 38.000000 -5.001640E+01
-20.000000 36.000000 -8.262505E+01
-20.000000 34.000000 -1.109834E+02
-20.000000 32.000000 -1.187655E+02
-20.000000 30.000000 -1.084779E+02
-20.000000 28.000000 -7.276149E+01
-20.000000 26.000000 -2.330698E+01
-20.000000 24.000000 6.041679E-01
-20.000000 22.000000 -1.287941E+01
-20.000000 20.000000 -2.227491E+01
-20.000000 18.000000 -2.502797E+01
-20.000000 16.000000 -4.035678E+01
-20.000000 14.000000 -6.896456E+01
-20.000000 12.000000 -8.249454E+01
-20.000000 10.000000 -6.662051E+01
-20.000000 8.000000 -2.964517E+01
-20.000000 6.000000 -2.773190E-01
-20.000000 4.000000 4.107679E+00
-20.000000 2.000000 -1.373704E+01
-20.000000 0.000000 -3.133549E+01
-20.000000 -2.000000 -2.995268E+01
-20.000000 -4.000000 -1.446002E+01
-20.000000 -6.000000 -2.956104E+00
-20.000000 -8.000000 -1.134936E+00
-20.000000 -10.000000 -1.021507E+00
-20.000000 -12.000000 4.350533E-01
-20.000000 -14.000000 4.383887E+00
-20.000000 -16.000000 3.503939E+00
-20.000000 -18.000000 -2.854186E+00
-20.000000 -20.000000 -4.573549E+00
-20.000000 -22.000000 1.790257E+00
-20.000000 -24.000000 1.117520E+01
-20.000000 -26.000000 1.358163E+01
-20.000000 -28.000000 -4.524598E+00
-20.000000 -30.000000 -2.813729E+01
-20.000000 -32.000000 -3.761490E+01
-20.000000 -34.000000 -2.911024E+01
-20.000000 -36.000000 -1.867246E+01
-20.000000 -38.000000 -2.196821E+01
-20.000000 -40.000000 -3.607352E+01
-18.000000 40.000000 -2.170414E+01
-18.000000 38.000000 -4.604690E+01
-18.000000 36.000000 -7.120246E+01
-18.000000 34.000000 -9.520385E+01
-18.000000 32.000000 -1.055552E+02
-18.000000 30.000000 -9.845648E+01
-18.000000 28.000000 -7.140230E+01
-18.000000 26.000000 -3.972671E+01
-18.000000 24.000000 -2.050301E+01
-18.000000 22.000000 -1.722109E+01
-18.000000 20.000000 -1.429442E+01
-18.000000 18.000000 -1.346376E+01
-18.000000 16.000000 -2.938430E+01
-18.000000 14.000000 -5.702646E+01
-18.000000 12.000000 -7.836607E+01
-18.000000 10.000000 -7.663416E+01
-18.000000 8.000000 -5.177249E+01
-18.000000 6.000000 -2.614931E+01
-18.000000 4.000000 -1.902326E+01
-18.000000 2.000000 -2.682381E+01
-18.000000 0.000000 -3.364943E+01
-18.000000 -2.000000 -2.888231E+01
-18.000000 -4.000000 -1.752075E+01
-18.000000 -6.000000 -1.361621E+01
-18.000000 -8.000000 -1.671749E+01
-18.000000 -10.000000 -1.612847E+01
-18.000000 -12.000000 -8.992789E+00
-18.000000 -14.000000 -1.859092E+00
-18.000000 -16.000000 -4.004230E-01
-18.000000 -18.000000 -4.644044E+00
-18.000000 -20.000000 -6.535813E+00
-18.000000 -22.000000 -1.997857E+00
-18.000000 -24.000000 6.741599E+00
-18.000000 -26.000000 9.864347E+00
-18.000000 -28.000000 -7.107730E+00
-18.000000 -30.000000 -2.981270E+01
-18.000000 -32.000000 -3.818441E+01
-18.000000 -34.000000 -2.910422E+01
-18.000000 -36.000000 -1.631028E+01
-18.000000 -38.000000 -1.930689E+01
-18.000000 -40.000000 -3.550930E+01
-16.000000 40.000000 -1.904870E+01
-16.000000 38.000000 -3.800039E+01
-16.000000 36.000000 -5.694776E+01
-16.000000 34.000000 -7.483149E+01
-16.000000 32.000000 -8.472819E+01
-16.000000 30.000000 -8.167324E+01
-16.000000 28.000000 -6.483826E+01
-16.000000 26.000000 -4.710929E+01
-16.000000 24.000000 -3.439995E+01
-16.000000 22.000000 -2.212624E+01
-16.000000 20.000000 -1.176228E+01
-16.000000 18.000000 -1.061442E+01
-16.000000 16.000000 -3.228269E+01
-16.000000 14.000000 -6.515025E+01
-16.000000 12.000000 -9.370158E+01
-16.000000 10.000000 -9.980806E+01
-16.000000 8.000000 -7.827081E+01
-16.000000 6.000000 -4.822732E+01
-16.000000 4.000000 -3.229826E+01
-16.000000 2.000000 -2.790073E+01
-16.000000 0.000000 -2.288951E+01
-16.000000 -2.000000 -1.463813E+01
-16.000000 -4.000000 -8.818856E+00
-16.000000 -6.000000 -1.378689E+01
-16.000000 -8.000000 -2.319967E+01
-16.000000 -10.000000 -2.653744E+01
-16.000000 -12.000000 -1.925832E+01
-16.000000 -14.000000 -1.163428E+01
-16.000000 -16.000000 -6.795963E+00
-16.000000 -18.000000 -4.934004E+00
-16.000000 -20.000000 -4.770773E+00
-16.000000 -22.000000 -3.639318E+00
-16.000000 -24.000000 2.716351E-01
-16.000000 -26.000000 5.112457E-01
-16.000000 -28.000000 -1.283456E+01
-16.000000 -30.000000 -2.903864E+01
-16.000000 -32.000000 -3.414134E+01
-16.000000 -34.000000 -2.559056E+01
-16.000000 -36.000000 -1.587781E+01
-16.000000 -38.000000 -2.022267E+01
-16.000000 -40.000000 -3.539014E+01
-14.000000 40.000000 -1.562250E+01
-14.000000 38.000000 -2.908178E+01
-14.000000 36.000000 -4.163951E+01
-14.000000 34.000000 -5.323886E+01
-14.000000 32.000000 -6.175444E+01
-14.000000 30.000000 -6.211576E+01
-14.000000 28.000000 -5.163569E+01
-14.000000 26.000000 -4.149044E+01
-14.000000 24.000000 -3.562184E+01
-14.000000 22.000000 -2.525023E+01
-14.000000 20.000000 -1.522947E+01
-14.000000 18.000000 -1.973258E+01
-14.000000 16.000000 -5.101291E+01
-14.000000 14.000000 -9.487409E+01
-14.000000 12.000000 -1.314632E+02
-14.000000 10.000000 -1.414579E+02
-14.000000 8.000000 -1.126909E+02
-14.000000 6.000000 -6.897929E+01
-14.000000 4.000000 -3.551550E+01
-14.000000 2.000000 -1.830277E+01
-14.000000 0.000000 -6.621269E+00
-14.000000 -2.000000 1.971088E+00
-14.000000 -4.000000 4.884619E+00
-14.000000 -6.000000 -3.232643E+00
-14.000000 -8.000000 -1.507295E+01
-14.000000 -10.000000 -2.213971E+01
-14.000000 -12.000000 -2.040606E+01
-14.000000 -14.000000 -1.497778E+01
-14.000000 -16.000000 -8.399950E+00
-14.000000 -18.000000 -2.846943E+00
-14.000000 -20.000000 -1.346972E+00
-14.000000 -22.000000 -2.638401E+00
-14.000000 -24.000000 -3.608232E+00
-14.000000 -26.000000 -6.309239E+00
-14.000000 -28.000000 -1.665698E+01
-14.000000 -30.000000 -2.701180E+01
-14.000000 -32.000000 -2.862799E+01
-14.000000 -34.000000 -2.104623E+01
-14.000000 -36.000000 -1.716432E+01
-14.000000 -38.000000 -2.504678E+01
-14.000000 -40.000000 -3.867779E+01
-12.000000 40.000000 -1.207574E+01
-12.000000 38.000000 -2.113506E+01
-12.000000 36.000000 -2.786056E+01
-12.000000 34.000000 -3.550423E+01
-12.000000 32.000000 -4.322305E+01
-12.000000 30.000000 -4.401646E+01
-12.000000 28.000000 -3.565602E+01
-12.000000 26.000000 -3.096539E+01
-12.000000 24.000000 -3.117963E+01
-12.000000 22.000000 -2.861492E+01
-12.000000 20.000000 -2.434699E+01
-12.000000 18.000000 -3.648086E+01
-12.000000 16.000000 -7.510907E+01
-12.000000 14.000000 -1.267547E+02
-12.000000 12.000000 -1.688026E+02
-12.000000 10.000000 -1.823287E+02
-12.000000 8.000000 -1.453074E+02
-12.000000 6.000000 -8.744144E+01
-12.000000 4.000000 -3.369871E+01
-12.000000 2.000000 -3.662750E+00
-12.000000 0.000000 1.143215E+01
-12.000000 -2.000000 1.707544E+01
-12.000000 -4.000000 1.744061E+01
-12.000000 -6.000000 8.795549E+00
-12.000000 -8.000000 -2.281202E+00
-12.000000 -10.000000 -9.600475E+00
-12.000000 -12.000000 -1.328305E+01
-12.000000 -14.000000 -1.132503E+01
-12.000000 -16.000000 -4.723925E+00
-12.000000 -18.000000 1.424347E+00
-12.000000 -20.000000 2.295301E+00
-12.000000 -22.000000 -5.316486E-01
-12.000000 -24.000000 -4.648628E+00
-12.000000 -26.000000 -9.488256E+00
-12.000000 -28.000000 -1.880361E+01
-12.000000 -30.000000 -2.640127E+01
-12.000000 -32.000000 -2.575944E+01
-12.000000 -34.000000 -1.870404E+01
-12.000000 -36.000000 -1.940850E+01
-12.000000 -38.000000 -3.051593E+01
-12.000000 -40.000000 -4.368405E+01
-10.000000 40.000000 -7.397663E+00
-10.000000 38.000000 -1.472762E+01
-10.000000 36.000000 -1.980267E+01
-10.000000 34.000000 -2.652966E+01
-10.000000 32.000000 -3.260462E+01
-10.000000 30.000000 -3.137267E+01
-10.000000 28.000000 -2.370622E+01
-10.000000 26.000000 -2.220319E+01
-10.000000 24.000000 -2.650002E+01
-10.000000 22.000000 -3.194681E+01
-10.000000 20.000000 -3.465383E+01
-10.000000 18.000000 -5.124432E+01
-10.000000 16.000000 -9.098524E+01
-10.000000 14.000000 -1.427299E+02
-10.000000 12.000000 -1.850418E+02
-10.000000 10.000000 -2.011969E+02
-10.000000 8.000000 -1.622096E+02
-10.000000 6.000000 -9.732449E+01
-10.000000 4.000000 -3.056442E+01
-10.000000 2.000000 8.234749E+00
-10.000000 0.000000 2.369239E+01
-10.000000 -2.000000 2.418549E+01
-10.000000 -4.000000 2.101628E+01
-10.000000 -6.000000 1.303030E+01
-10.000000 -8.000000 4.821384E+00
-10.000000 -10.000000 -8.174744E-01
-10.000000 -12.000000 -6.134752E+00
-10.000000 -14.000000 -5.283815E+00
-10.000000 -16.000000 8.318844E-01
-10.000000 -18.000000 5.374294E+00
-10.000000 -20.000000 4.276724E+00
-10.000000 -22.000000 -2.051144E-01
-10.000000 -24.000000 -5.736450E+00
-10.000000 -26.000000 -1.178588E+01
-10.000000 -28.000000 -2.098764E+01
-10.000000 -30.000000 -2.771550E+01
-10.000000 -32.000000 -2.674175E+01
-10.000000 -34.000000 -2.004127E+01
-10.000000 -36.000000 -2.282498E+01
-10.000000 -38.000000 -3.483905E+01
-10.000000 -40.000000 -4.770709E+01
-8.000000 40.000000 -3.208996E+00
-8.000000 38.000000 -1.135243E+01
-8.000000 36.000000 -1.821814E+01
-8.000000 34.000000 -2.596762E+01
-8.000000 32.000000 -2.973189E+01
-8.000000 30.000000 -2.511611E+01
-8.000000 28.000000 -1.642597E+01
-8.000000 26.000000 -1.613362E+01
-8.000000 24.000000 -2.445413E+01
-8.000000 22.000000 -3.413663E+01
-8.000000 20.000000 -3.911011E+01
-8.000000 18.000000 -5.442722E+01
-8.000000 16.000000 -8.994707E+01
-8.000000 14.000000 -1.367580E+02
-8.000000 12.000000 -1.753918E+02
-8.000000 10.000000 -1.914026E+02
-8.000000 8.000000 -1.584008E+02
-8.000000 6.000000 -9.713307E+01
-8.000000 4.000000 -3.146958E+01
-8.000000 2.000000 7.372330E+00
-8.000000 0.000000 2.129165E+01
-8.000000 -2.000000 1.903069E+01
-8.000000 -4.000000 1.377356E+01
-8.000000 -6.000000 8.084240E+00
-8.000000 -8.000000 3.764462E+00
-8.000000 -10.000000 1.067036E+00
-8.000000 -12.000000 -3.205524E+00
-8.000000 -14.000000 -2.993355E+00
-8.000000 -16.000000 1.195442E+00
-8.000000 -18.000000 3.724272E+00
-8.000000 -20.000000 1.386354E+00
-8.000000 -22.000000 -4.246431E+00
-8.000000 -24.000000 -9.283253E+00
-8.000000 -26.000000 -1.415177E+01
-8.000000 -28.000000 -2.302837E+01
-8.000000 -30.000000 -2.987902E+01
-8.000000 -32.000000 -2.951681E+01
-8.000000 -34.000000 -2.401200E+01
-8.000000 -36.000000 -2.742572E+01
-8.000000 -38.000000 -3.824822E+01
-8.000000 -40.000000 -4.988996E+01
-6.000000 40.000000 -6.303368E-01
-6.000000 38.000000 -1.061210E+01
-6.000000 36.000000 -1.978108E+01
-6.000000 34.000000 -2.974391E+01
-6.000000 32.000000 -3.394044E+01
-6.000000 30.000000 -2.672624E+01
-6.000000 28.000000 -1.466185E+01
-6.000000 26.000000 -1.412683E+01
-6.000000 24.000000 -2.508421E+01
-6.000000 22.000000 -3.370481E+01
-6.000000 20.000000 -3.365614E+01
-6.000000 18.000000 -4.142646E+01
-6.000000 16.000000 -6.915510E+01
-6.000000 14.000000 -1.099287E+02
-6.000000 12.000000 -1.482091E+02
-6.000000 10.000000 -1.694414E+02
-6.000000 8.000000 -1.480300E+02
-6.000000 6.000000 -9.618968E+01
-6.000000 4.000000 -3.735772E+01
-6.000000 2.000000 -1.965485E+00
-6.000000 0.000000 1.026215E+01
-6.000000 -2.000000 7.944592E+00
-6.000000 -4.000000 2.252460E+00
-6.000000 -6.000000 -2.627583E+00
-6.000000 -8.000000 -3.833565E+00
-6.000000 -10.000000 -2.631798E+00
-6.000000 -12.000000 -6.685755E+00
-6.000000 -14.000000 -1.001687E+01
-6.000000 -16.000000 -8.892284E+00
-6.000000 -18.000000 -6.783770E+00
-6.000000 -20.000000 -7.509052E+00
-6.000000 -22.000000 -1.134284E+01
-6.000000 -24.000000 -1.469444E+01
-6.000000 -26.000000 -1.787462E+01
-6.000000 -28.000000 -2.594214E+01
-6.000000 -30.000000 -3.254545E+01
-6.000000 -32.000000 -3.211935E+01
-6.000000 -34.000000 -2.775459E+01
-6.000000 -36.000000 -3.112656E+01
-6.000000 -38.000000 -4.034181E+01
-6.000000 -40.000000 -5.124181E+01
-4.000000 40.000000 4.689732E-01
-4.000000 38.000000 -1.107462E+01
-4.000000 36.000000 -2.184049E+01
-4.000000 34.000000 -3.362037E+01
-4.000000 32.000000 -3.960116E+01
-4.000000 30.000000 -3.366529E+01
-4.000000 28.000000 -1.980875E+01
-4.000000 26.000000 -1.693012E+01
-4.000000 24.000000 -2.521791E+01
-4.000000 22.000000 -2.800761E+01
-4.000000 20.000000 -2.108155E+01
-4.000000 18.000000 -1.994797E+01
-4.000000 16.000000 -4.001939E+01
-4.000000 14.000000 -7.636141E+01
-4.000000 12.000000 -1.187097E+02
-4.000000 10.000000 -1.509436E+02
-4.000000 8.000000 -1.417123E+02
-4.000000 6.000000 -9.936234E+01
-4.000000 4.000000 -4.488564E+01
-4.000000 2.000000 -1.015444E+01
-4.000000 0.000000 1.604843E+00
-4.000000 -2.000000 -1.099403E+00
-4.000000 -4.000000 -8.450954E+00
-4.000000 -6.000000 -1.548987E+01
-4.000000 -8.000000 -1.612594E+01
-4.000000 -10.000000 -1.312812E+01
-4.000000 -12.000000 -1.769468E+01
-4.000000 -14.000000 -2.469419E+01
-4.000000 -16.000000 -2.562868E+01
-4.000000 -18.000000 -2.206524E+01
-4.000000 -20.000000 -1.915424E+01
-4.000000 -22.000000 -1.945296E+01
-4.000000 -24.000000 -2.088894E+01
-4.000000 -26.000000 -2.306613E+01
-4.000000 -28.000000 -3.016373E+01
-4.000000 -30.000000 -3.605393E+01
-4.000000 -32.000000 -3.547841E+01
-4.000000 -34.000000 -3.074491E+01
-4.000000 -36.000000 -3.239869E+01
-4.000000 -38.000000 -4.093854E+01
-4.000000 -40.000000 -5.219439E+01
-2.000000 40.000000 1.150051E+00
-2.000000 38.000000 -1.224435E+01
-2.000000 36.000000 -2.463626E+01
-2.000000 34.000000 -3.657309E+01
-2.000000 32.000000 -4.239241E+01
-2.000000 30.000000 -4.040076E+01
-2.000000 28.000000 -2.731389E+01
-2.000000 26.000000 -1.853749E+01
-2.000000 24.000000 -1.864373E+01
-2.000000 22.000000 -1.714189E+01
-2.000000 20.000000 -1.116554E+01
-2.000000 18.000000 -8.635735E+00
-2.000000 16.000000 -2.347167E+01
-2.000000 14.000000 -5.383525E+01
-2.000000 12.000000 -9.494024E+01
-2.000000 10.000000 -1.328480E+02
-2.000000 8.000000 -1.333986E+02
-2.000000 6.000000 -1.002641E+02
-2.000000 4.000000 -5.088234E+01
-2.000000 2.000000 -1.737521E+01
-2.000000 0.000000 -5.193192E+00
-2.000000 -2.000000 -9.085941E+00
-2.000000 -4.000000 -1.864925E+01
-2.000000 -6.000000 -2.735544E+01
-2.000000 -8.000000 -2.965159E+01
-2.000000 -10.000000 -2.843013E+01
-2.000000 -12.000000 -3.195089E+01
-2.000000 -14.000000 -3.904374E+01
-2.000000 -16.000000 -4.102491E+01
-2.000000 -18.000000 -3.676035E+01
-2.000000 -20.000000 -3.102629E+01
-2.000000 -22.000000 -2.787354E+01
-2.000000 -24.000000 -2.610980E+01
-2.000000 -26.000000 -2.645420E+01
-2.000000 -28.000000 -3.282899E+01
-2.000000 -30.000000 -3.952288E+01
-2.000000 -32.000000 -4.042588E+01
-2.000000 -34.000000 -3.495875E+01
-2.000000 -36.000000 -3.382223E+01
-2.000000 -38.000000 -4.080687E+01
-2.000000 -40.000000 -5.174281E+01
0.000000 40.000000 2.733055E+00
0.000000 38.000000 -1.358685E+01
0.000000 36.000000 -2.862734E+01
0.000000 34.000000 -3.993139E+01
0.000000 32.000000 -4.452985E+01
0.000000 30.000000 -4.639511E+01
0.000000 28.000000 -3.229468E+01
0.000000 26.000000 -1.244407E+01
0.000000 24.000000 -2.358028E+00
0.000000 22.000000 -3.882915E+00
0.000000 20.000000 -8.058132E+00
0.000000 18.000000 -1.192162E+01
0.000000 16.000000 -2.098365E+01
0.000000 14.000000 -4.048480E+01
0.000000 12.000000 -7.110679E+01
0.000000 10.000000 -1.076878E+02
0.000000 8.000000 -1.214908E+02
0.000000 6.000000 -1.019637E+02
0.000000 4.000000 -6.183802E+01
0.000000 2.000000 -3.156348E+01
0.000000 0.000000 -1.895112E+01
0.000000 -2.000000 -2.163945E+01
0.000000 -4.000000 -3.095756E+01
0.000000 -6.000000 -4.016881E+01
0.000000 -8.000000 -4.349139E+01
0.000000 -10.000000 -4.250158E+01
0.000000 -12.000000 -4.279552E+01
0.000000 -14.000000 -4.709137E+01
0.000000 -16.000000 -4.936028E+01
0.000000 -18.000000 -4.648051E+01
0.000000 -20.000000 -3.969937E+01
0.000000 -22.000000 -3.275306E+01
0.000000 -24.000000 -2.625745E+01
0.000000 -26.000000 -2.453584E+01
0.000000 -28.000000 -3.180697E+01
0.000000 -30.000000 -4.219340E+01
0.000000 -32.000000 -4.616267E+01
0.000000 -34.000000 -4.092318E+01
0.000000 -36.000000 -3.770812E+01
0.000000 -38.000000 -4.131861E+01
0.000000 -40.000000 -5.053463E+01
2.000000 40.000000 4.768417E+00
2.000000 38.000000 -1.429773E+01
2.000000 36.000000 -3.076161E+01
2.000000 34.000000 -4.126865E+01
2.000000 32.000000 -4.524356E+01
2.000000 30.000000 -4.992459E+01
2.000000 28.000000 -3.333271E+01
2.000000 26.000000 -4.242462E+00
2.000000 24.000000 1.163958E+01
2.000000 22.000000 5.787968E+00
2.000000 20.000000 -5.932705E+00
2.000000 18.000000 -1.401762E+01
2.000000 16.000000 -1.708586E+01
2.000000 14.000000 -2.860788E+01
2.000000 12.000000 -4.834434E+01
2.000000 10.000000 -8.398773E+01
2.000000 8.000000 -1.165209E+02
2.000000 6.000000 -1.130633E+02
2.000000 4.000000 -8.031351E+01
2.000000 2.000000 -5.058459E+01
2.000000 0.000000 -3.585795E+01
2.000000 -2.000000 -3.289304E+01
2.000000 -4.000000 -3.897552E+01
2.000000 -6.000000 -5.084179E+01
2.000000 -8.000000 -5.594152E+01
2.000000 -10.000000 -5.387602E+01
2.000000 -12.000000 -4.970076E+01
2.000000 -14.000000 -5.084996E+01
2.000000 -16.000000 -5.374295E+01
2.000000 -18.000000 -5.257784E+01
2.000000 -20.000000 -4.355993E+01
2.000000 -22.000000 -3.136708E+01
2.000000 -24.000000 -2.048744E+01
2.000000 -26.000000 -1.763295E+01
2.000000 -28.000000 -2.741065E+01
2.000000 -30.000000 -4.276906E+01
2.000000 -32.000000 -5.101640E+01
2.000000 -34.000000 -4.726155E+01
2.000000 -36.000000 -4.095452E+01
2.000000 -38.000000 -4.179419E+01
2.000000 -40.000000 -5.108116E+01
4.000000 40.000000 7.510265E+00
4.000000 38.000000 -1.284650E+01
4.000000 36.000000 -2.816633E+01
4.000000 34.000000 -3.859146E+01
4.000000 32.000000 -4.444068E+01
4.000000 30.000000 -4.628657E+01
4.000000 28.000000 -2.722446E+01
4.000000 26.000000 -2.436066E+00
4.000000 24.000000 1.064868E+01
4.000000 22.000000 6.156307E+00
4.000000 20.000000 -4.609909E-01
4.000000 18.000000 -3.211063E+00
4.000000 16.000000 -4.650288E+00
4.000000 14.000000 -1.750148E+01
4.000000 12.000000 -4.221676E+01
4.000000 10.000000 -8.671301E+01
4.000000 8.000000 -1.297629E+02
4.000000 6.000000 -1.338486E+02
4.000000 4.000000 -1.016059E+02
4.000000 2.000000 -6.595875E+01
4.000000 0.000000 -4.155101E+01
4.000000 -2.000000 -2.845628E+01
4.000000 -4.000000 -2.925249E+01
4.000000 -6.000000 -4.552050E+01
4.000000 -8.000000 -5.657337E+01
4.000000 -10.000000 -5.787397E+01
4.000000 -12.000000 -5.277819E+01
4.000000 -14.000000 -5.378885E+01
4.000000 -16.000000 -5.910901E+01
4.000000 -18.000000 -5.843903E+01
4.000000 -20.000000 -4.438701E+01
4.000000 -22.000000 -2.635666E+01
4.000000 -24.000000 -1.400158E+01
4.000000 -26.000000 -1.152127E+01
4.000000 -28.000000 -2.299762E+01
4.000000 -30.000000 -4.194916E+01
4.000000 -32.000000 -5.450254E+01
4.000000 -34.000000 -5.316140E+01
4.000000 -36.000000 -4.093617E+01
4.000000 -38.000000 -4.004546E+01
4.000000 -40.000000 -5.299039E+01
6.000000 40.000000 1.292428E+01
6.000000 38.000000 -7.880989E+00
6.000000 36.000000 -2.259338E+01
6.000000 34.000000 -3.334448E+01
6.000000 32.000000 -3.977106E+01
6.000000 30.000000 -3.672751E+01
6.000000 28.000000 -1.823201E+01
6.000000 26.000000 -4.874077E+00
6.000000 24.000000 4.655685E-01
6.000000 22.000000 -1.178276E+00
6.000000 20.000000 1.752968E-01
6.000000 18.000000 5.040543E+00
6.000000 16.000000 2.178940E+00
6.000000 14.000000 -1.501996E+01
6.000000 12.000000 -5.276324E+01
6.000000 10.000000 -1.084883E+02
6.000000 8.000000 -1.504970E+02
6.000000 6.000000 -1.541525E+02
6.000000 4.000000 -1.190727E+02
6.000000 2.000000 -7.213912E+01
6.000000 0.000000 -3.064744E+01
6.000000 -2.000000 -5.757732E+00
6.000000 -4.000000 -2.701897E+00
6.000000 -6.000000 -2.135137E+01
6.000000 -8.000000 -3.968599E+01
6.000000 -10.000000 -4.935195E+01
6.000000 -12.000000 -5.026933E+01
6.000000 -14.000000 -5.622487E+01
6.000000 -16.000000 -6.354536E+01
6.000000 -18.000000 -5.826156E+01
6.000000 -20.000000 -4.062844E+01
6.000000 -22.000000 -2.268123E+01
6.000000 -24.000000 -1.243434E+01
6.000000 -26.000000 -1.126981E+01
6.000000 -28.000000 -2.269100E+01
6.000000 -30.000000 -4.160428E+01
6.000000 -32.000000 -5.533908E+01
6.000000 -34.000000 -5.529554E+01
6.000000 -36.000000 -4.086510E+01
6.000000 -38.000000 -3.864726E+01
6.000000 -40.000000 -5.317940E+01
8.000000 40.000000 1.931458E+01
8.000000 38.000000 -1.284255E+00
8.000000 36.000000 -1.633737E+01
8.000000 34.000000 -2.656866E+01
8.000000 32.000000 -2.896053E+01
8.000000 30.000000 -2.327872E+01
8.000000 28.000000 -9.864538E+00
8.000000 26.000000 -4.827988E+00
8.000000 24.000000 -7.607130E+00
8.000000 22.000000 -1.129591E+01
8.000000 20.000000 -8.967621E+00
8.000000 18.000000 -2.115940E+00
8.000000 16.000000 -5.258698E+00
8.000000 14.000000 -2.391015E+01
8.000000 12.000000 -6.538728E+01
8.000000 10.000000 -1.240174E+02
8.000000 8.000000 -1.658287E+02
8.000000 6.000000 -1.714898E+02
8.000000 4.000000 -1.355830E+02
8.000000 2.000000 -7.759719E+01
8.000000 0.000000 -1.911385E+01
8.000000 -2.000000 1.950440E+01
8.000000 -4.000000 2.997115E+01
8.000000 -6.000000 1.261845E+01
8.000000 -8.000000 -1.099950E+01
8.000000 -10.000000 -2.871876E+01
8.000000 -12.000000 -3.744347E+01
8.000000 -14.000000 -4.686909E+01
8.000000 -16.000000 -5.398695E+01
8.000000 -18.000000 -4.770323E+01
8.000000 -20.000000 -3.355946E+01
8.000000 -22.000000 -2.126383E+01
8.000000 -24.000000 -1.501810E+01
8.000000 -26.000000 -1.562338E+01
8.000000 -28.000000 -2.609782E+01
8.000000 -30.000000 -4.123979E+01
8.000000 -32.000000 -5.187775E+01
8.000000 -34.000000 -5.113848E+01
8.000000 -36.000000 -4.202177E+01
8.000000 -38.000000 -4.077853E+01
8.000000 -40.000000 -5.269589E+01
10.000000 40.000000 2.424181E+01
10.000000 38.000000 4.838312E+00
10.000000 36.000000 -9.815646E+00
10.000000 34.000000 -1.866155E+01
10.000000 32.000000 -1.707550E+01
10.000000 30.000000 -9.718313E+00
10.000000 28.000000 -5.897942E-01
10.000000 26.000000 -6.382351E-01
10.000000 24.000000 -9.850363E+00
10.000000 22.000000 -1.901019E+01
10.000000 20.000000 -1.873192E+01
10.000000 18.000000 -1.346037E+01
10.000000 16.000000 -1.686048E+01
10.000000 14.000000 -3.552997E+01
10.000000 12.000000 -7.608897E+01
10.000000 10.000000 -1.333611E+02
10.000000 8.000000 -1.768176E+02
10.000000 6.000000 -1.873581E+02
10.000000 4.000000 -1.562948E+02
10.000000 2.000000 -9.329150E+01
10.000000 0.000000 -2.041291E+01
10.000000 -2.000000 3.497877E+01
10.000000 -4.000000 5.883862E+01
10.000000 -6.000000 4.834982E+01
10.000000 -8.000000 2.482297E+01
10.000000 -10.000000 3.793713E+00
10.000000 -12.000000 -1.062628E+01
10.000000 -14.000000 -2.265136E+01
10.000000 -16.000000 -3.148729E+01
10.000000 -18.000000 -3.216999E+01
10.000000 -20.000000 -2.664758E+01
10.000000 -22.000000 -2.124430E+01
10.000000 -24.000000 -1.893163E+01
10.000000 -26.000000 -2.083030E+01
10.000000 -28.000000 -2.895515E+01
10.000000 -30.000000 -3.844963E+01
10.000000 -32.000000 -4.386703E+01
10.000000 -34.000000 -4.154896E+01
10.000000 -36.000000 -3.925633E+01
10.000000 -38.000000 -4.336448E+01
10.000000 -40.000000 -5.526093E+01
12.000000 40.000000 2.641134E+01
12.000000 38.000000 9.407602E+00
12.000000 36.000000 -3.463784E+00
12.000000 34.000000 -1.065239E+01
12.000000 32.000000 -7.240594E+00
12.000000 30.000000 1.825964E+00
12.000000 28.000000 9.903421E+00
12.000000 26.000000 6.641014E+00
12.000000 24.000000 -5.239952E+00
12.000000 22.000000 -1.908733E+01
12.000000 20.000000 -2.115334E+01
12.000000 18.000000 -1.900930E+01
12.000000 16.000000 -2.608270E+01
12.000000 14.000000 -4.767425E+01
12.000000 12.000000 -8.922901E+01
12.000000 10.000000 -1.451287E+02
12.000000 8.000000 -1.886520E+02
12.000000 6.000000 -2.040430E+02
12.000000 4.000000 -1.792758E+02
12.000000 2.000000 -1.164433E+02
12.000000 0.000000 -3.572764E+01
12.000000 -2.000000 3.476548E+01
12.000000 -4.000000 7.518752E+01
12.000000 -6.000000 7.768988E+01
12.000000 -8.000000 6.012261E+01
12.000000 -10.000000 4.154977E+01
12.000000 -12.000000 2.675736E+01
12.000000 -14.000000 1.238783E+01
12.000000 -16.000000 -2.969685E+00
12.000000 -18.000000 -1.438800E+01
12.000000 -20.000000 -1.923097E+01
12.000000 -22.000000 -2.073570E+01
12.000000 -24.000000 -2.171416E+01
12.000000 -26.000000 -2.440195E+01
12.000000 -28.000000 -2.989855E+01
12.000000 -30.000000 -3.388730E+01
12.000000 -32.000000 -3.365719E+01
12.000000 -34.000000 -2.885068E+01
12.000000 -36.000000 -3.149689E+01
12.000000 -38.000000 -4.361325E+01
12.000000 -40.000000 -6.026017E+01
14.000000 40.000000 2.558481E+01
14.000000 38.000000 1.014242E+01
14.000000 36.000000 -1.185469E+00
14.000000 34.000000 -6.250937E+00
14.000000 32.000000 4.367752E-01
14.000000 30.000000 1.211121E+01
14.000000 28.000000 2.090408E+01
14.000000 26.000000 1.672759E+01
14.000000 24.000000 4.154053E+00
14.000000 22.000000 -1.153734E+01
14.000000 20.000000 -1.615493E+01
14.000000 18.000000 -1.876818E+01
14.000000 16.000000 -3.314384E+01
14.000000 14.000000 -6.239984E+01
14.000000 12.000000 -1.076652E+02
14.000000 10.000000 -1.627972E+02
14.000000 8.000000 -2.034008E+02
14.000000 6.000000 -2.207951E+02
14.000000 4.000000 -2.002969E+02
14.000000 2.000000 -1.399071E+02
14.000000 0.000000 -5.823775E+01
14.000000 -2.000000 2.074892E+01
14.000000 -4.000000 7.569909E+01
14.000000 -6.000000 9.405510E+01
14.000000 -8.000000 8.732372E+01
14.000000 -10.000000 7.607376E+01
14.000000 -12.000000 6.613836E+01
14.000000 -14.000000 5.256927E+01
14.000000 -16.000000 2.972225E+01
14.000000 -18.000000 5.810122E+00
14.000000 -20.000000 -1.041256E+01
14.000000 -22.000000 -1.810159E+01
14.000000 -24.000000 -2.119409E+01
14.000000 -26.000000 -2.386186E+01
14.000000 -28.000000 -2.841111E+01
14.000000 -30.000000 -2.932482E+01
14.000000 -32.000000 -2.488624E+01
14.000000 -34.000000 -1.741288E+01
14.000000 -36.000000 -2.338191E+01
14.000000 -38.000000 -4.240115E+01
14.000000 -40.000000 -6.500249E+01
16.000000 40.000000 2.383565E+01
16.000000 38.000000 6.766123E+00
16.000000 36.000000 -5.151874E+00
16.000000 34.000000 -8.975551E+00
16.000000 32.000000 1.626726E+00
16.000000 30.000000 1.699862E+01
16.000000 28.000000 2.793173E+01
16.000000 26.000000 2.449047E+01
16.000000 24.000000 1.172819E+01
16.000000 22.000000 -4.330066E+00
16.000000 20.000000 -1.111770E+01
16.000000 18.000000 -1.865296E+01
16.000000 16.000000 -3.970036E+01
16.000000 14.000000 -7.593989E+01
16.000000 12.000000 -1.240263E+02
16.000000 10.000000 -1.774948E+02
16.000000 8.000000 -2.143121E+02
16.000000 6.000000 -2.316485E+02
16.000000 4.000000 -2.148676E+02
16.000000 2.000000 -1.599786E+02
16.000000 0.000000 -8.235065E+01
16.000000 -2.000000 -6.525650E-01
16.000000 -4.000000 6.439411E+01
16.000000 -6.000000 9.863858E+01
16.000000 -8.000000 1.077803E+02
16.000000 -10.000000 1.090688E+02
16.000000 -12.000000 1.054827E+02
16.000000 -14.000000 9.227044E+01
16.000000 -16.000000 6.186461E+01
16.000000 -18.000000 2.495003E+01
16.000000 -20.000000 -2.638556E+00
16.000000 -22.000000 -1.567123E+01
16.000000 -24.000000 -1.942017E+01
16.000000 -26.000000 -2.059949E+01
16.000000 -28.000000 -2.496694E+01
16.000000 -30.000000 -2.506243E+01
16.000000 -32.000000 -1.908432E+01
16.000000 -34.000000 -1.065284E+01
16.000000 -36.000000 -1.906633E+01
16.000000 -38.000000 -4.171504E+01
16.000000 -40.000000 -6.818751E+01
18.000000 40.000000 2.455671E+01
18.000000 38.000000 2.471244E+00
18.000000 36.000000 -1.331663E+01
18.000000 34.000000 -1.988551E+01
18.000000 32.000000 -9.436743E+00
18.000000 30.000000 8.497278E+00
18.000000 28.000000 2.254165E+01
18.000000 26.000000 2.111514E+01
18.000000 24.000000 9.673102E+00
18.000000 22.000000 -5.615364E+00
18.000000 20.000000 -1.282925E+01
18.000000 18.000000 -2.081108E+01
18.000000 16.000000 -4.198126E+01
18.000000 14.000000 -7.832196E+01
18.000000 12.000000 -1.262946E+02
18.000000 10.000000 -1.789889E+02
18.000000 8.000000 -2.132340E+02
18.000000 6.000000 -2.296057E+02
18.000000 4.000000 -2.177268E+02
18.000000 2.000000 -1.716162E+02
18.000000 0.000000 -1.002056E+02
18.000000 -2.000000 -1.951014E+01
18.000000 -4.000000 5.154352E+01
18.000000 -6.000000 9.897358E+01
18.000000 -8.000000 1.241459E+02
18.000000 -10.000000 1.394033E+02
18.000000 -12.000000 1.419420E+02
18.000000 -14.000000 1.259473E+02
18.000000 -16.000000 8.588784E+01
18.000000 -18.000000 3.648667E+01
18.000000 -20.000000 -1.459141E+00
18.000000 -22.000000 -1.857403E+01
18.000000 -24.000000 -2.050937E+01
18.000000 -26.000000 -1.846124E+01
18.000000 -28.000000 -2.140143E+01
18.000000 -30.000000 -2.078964E+01
18.000000 -32.000000 -1.453209E+01
18.000000 -34.000000 -7.835242E+00
18.000000 -36.000000 -1.904916E+01
18.000000 -38.000000 -4.262288E+01
18.000000 -40.000000 -7.023674E+01
20.000000 40.000000 2.880548E+01
20.000000 38.000000 -4.444304E-01
20.000000 36.000000 -2.391386E+01
20.000000 34.000000 -3.804612E+01
20.000000 32.000000 -3.259799E+01
20.000000 30.000000 -1.516981E+01
20.000000 28.000000 2.698094E+00
20.000000 26.000000 6.954972E+00
20.000000 24.000000 -8.170981E-01
20.000000 22.000000 -1.462361E+01
20.000000 20.000000 -2.154745E+01
20.000000 18.000000 -2.508621E+01
20.000000 16.000000 -3.886614E+01
20.000000 14.000000 -6.626386E+01
20.000000 12.000000 -1.079181E+02
20.000000 10.000000 -1.584625E+02
20.000000 8.000000 -1.965352E+02
20.000000 6.000000 -2.169782E+02
20.000000 4.000000 -2.124751E+02
20.000000 2.000000 -1.760796E+02
20.000000 0.000000 -1.113446E+02
20.000000 -2.000000 -3.207957E+01
20.000000 -4.000000 4.366567E+01
20.000000 -6.000000 1.011557E+02
20.000000 -8.000000 1.387544E+02
20.000000 -10.000000 1.648999E+02
20.000000 -12.000000 1.709862E+02
20.000000 -14.000000 1.486661E+02
20.000000 -16.000000 9.634198E+01
20.000000 -18.000000 3.617530E+01
20.000000 -20.000000 -8.890135E+00
20.000000 -22.000000 -2.736046E+01
20.000000 -24.000000 -2.549914E+01
20.000000 -26.000000 -1.856156E+01
20.000000 -28.000000 -1.854237E+01
20.000000 -30.000000 -1.709583E+01
20.000000 -32.000000 -1.156385E+01
20.000000 -34.000000 -7.338656E+00
20.000000 -36.000000 -2.084490E+01
20.000000 -38.000000 -4.468750E+01
20.000000 -40.000000 -7.191457E+01
22.000000 40.000000 3.333321E+01
22.000000 38.000000 -2.048037E+00
22.000000 36.000000 -3.374293E+01
22.000000 34.000000 -5.609266E+01
22.000000 32.000000 -5.714281E+01
22.000000 30.000000 -4.287555E+01
22.000000 28.000000 -2.048122E+01
22.000000 26.000000 -7.107612E+00
22.000000 24.000000 -1.067951E+01
22.000000 22.000000 -2.525866E+01
22.000000 20.000000 -3.483956E+01
22.000000 18.000000 -3.489296E+01
22.000000 16.000000 -3.745247E+01
22.000000 14.000000 -4.988690E+01
22.000000 12.000000 -8.016130E+01
22.000000 10.000000 -1.269739E+02
22.000000 8.000000 -1.749316E+02
22.000000 6.000000 -2.053988E+02
22.000000 4.000000 -2.106294E+02
22.000000 2.000000 -1.831769E+02
22.000000 0.000000 -1.231732E+02
22.000000 -2.000000 -4.071432E+01
22.000000 -4.000000 4.314728E+01
22.000000 -6.000000 1.103383E+02
22.000000 -8.000000 1.575818E+02
22.000000 -10.000000 1.903856E+02
22.000000 -12.000000 1.933344E+02
22.000000 -14.000000 1.604265E+02
22.000000 -16.000000 9.515819E+01
22.000000 -18.000000 2.584791E+01
22.000000 -20.000000 -2.249190E+01
22.000000 -22.000000 -3.838950E+01
22.000000 -24.000000 -3.158422E+01
22.000000 -26.000000 -1.994422E+01
22.000000 -28.000000 -1.653482E+01
22.000000 -30.000000 -1.472080E+01
22.000000 -32.000000 -1.062249E+01
22.000000 -34.000000 -8.049629E+00
22.000000 -36.000000 -2.272079E+01
22.000000 -38.000000 -4.704263E+01
22.000000 -40.000000 -7.432684E+01
24.000000 40.000000 3.608893E+01
24.000000 38.000000 -2.224152E+00
24.000000 36.000000 -3.923770E+01
24.000000 34.000000 -6.538907E+01
24.000000 32.000000 -7.152879E+01
24.000000 30.000000 -6.251526E+01
24.000000 28.000000 -3.639097E+01
24.000000 26.000000 -1.313342E+01
24.000000 24.000000 -1.333216E+01
24.000000 22.000000 -3.250942E+01
24.000000 20.000000 -4.900771E+01
24.000000 18.000000 -4.968728E+01
24.000000 16.000000 -4.084506E+01
24.000000 14.000000 -3.778058E+01
24.000000 12.000000 -5.574177E+01
24.000000 10.000000 -1.008945E+02
24.000000 8.000000 -1.637971E+02
24.000000 6.000000 -2.086581E+02
24.000000 4.000000 -2.230198E+02
24.000000 2.000000 -2.005267E+02
24.000000 0.000000 -1.411669E+02
24.000000 -2.000000 -4.942554E+01
24.000000 -4.000000 4.906374E+01
24.000000 -6.000000 1.290695E+02
24.000000 -8.000000 1.822494E+02
24.000000 -10.000000 2.157191E+02
24.000000 -12.000000 2.088850E+02
24.000000 -14.000000 1.634735E+02
24.000000 -16.000000 8.739740E+01
24.000000 -18.000000 1.082283E+01
24.000000 -20.000000 -3.747854E+01
24.000000 -22.000000 -4.730844E+01
24.000000 -24.000000 -3.367868E+01
24.000000 -26.000000 -1.884314E+01
24.000000 -28.000000 -1.416423E+01
24.000000 -30.000000 -1.315121E+01
24.000000 -32.000000 -1.104847E+01
24.000000 -34.000000 -1.031260E+01
24.000000 -36.000000 -2.545764E+01
24.000000 -38.000000 -5.043072E+01
24.000000 -40.000000 -7.860152E+01
26.000000 40.000000 3.800325E+01
26.000000 38.000000 -4.670162E-01
26.000000 36.000000 -3.894869E+01
26.000000 34.000000 -6.538494E+01
26.000000 32.000000 -7.333949E+01
26.000000 30.000000 -6.672575E+01
26.000000 28.000000 -3.859275E+01
26.000000 26.000000 -1.082040E+01
26.000000 24.000000 -1.003103E+01
26.000000 22.000000 -3.389091E+01
26.000000 20.000000 -5.558873E+01
26.000000 18.000000 -5.861930E+01
26.000000 16.000000 -4.403842E+01
26.000000 14.000000 -3.476082E+01
26.000000 12.000000 -4.676510E+01
26.000000 10.000000 -9.469102E+01
26.000000 8.000000 -1.703429E+02
26.000000 6.000000 -2.249593E+02
26.000000 4.000000 -2.411012E+02
26.000000 2.000000 -2.181357E+02
26.000000 0.000000 -1.571585E+02
26.000000 -2.000000 -5.549152E+01
26.000000 -4.000000 5.897697E+01
26.000000 -6.000000 1.511870E+02
26.000000 -8.000000 2.042571E+02
26.000000 -10.000000 2.331467E+02
26.000000 -12.000000 2.152817E+02
26.000000 -14.000000 1.603837E+02
26.000000 -16.000000 7.736616E+01
26.000000 -18.000000 -3.636285E+00
26.000000 -20.000000 -4.938108E+01
26.000000 -22.000000 -5.235724E+01
26.000000 -24.000000 -3.281352E+01
26.000000 -26.000000 -1.604527E+01
26.000000 -28.000000 -1.175770E+01
26.000000 -30.000000 -1.308703E+01
26.000000 -32.000000 -1.443742E+01
26.000000 -34.000000 -1.605174E+01
26.000000 -36.000000 -3.007219E+01
26.000000 -38.000000 -5.434307E+01
26.000000 -40.000000 -8.340865E+01
28.000000 40.000000 3.935471E+01
28.000000 38.000000 3.512712E+00
28.000000 36.000000 -3.218434E+01
28.000000 34.000000 -5.888098E+01
28.000000 32.000000 -6.553790E+01
28.000000 30.000000 -5.450773E+01
28.000000 28.000000 -2.708070E+01
28.000000 26.000000 -5.245430E+00
28.000000 24.000000 -6.727272E+00
28.000000 22.000000 -2.920762E+01
28.000000 20.000000 -4.866036E+01
28.000000 18.000000 -5.247883E+01
28.000000 16.000000 -4.318210E+01
28.000000 14.000000 -4.201725E+01
28.000000 12.000000 -6.160097E+01
28.000000 10.000000 -1.126865E+02
28.000000 8.000000 -1.789355E+02
28.000000 6.000000 -2.260425E+02
28.000000 4.000000 -2.389610E+02
28.000000 2.000000 -2.153999E+02
28.000000 0.000000 -1.523234E+02
28.000000 -2.000000 -4.695878E+01
28.000000 -4.000000 7.077046E+01
28.000000 -6.000000 1.625474E+02
28.000000 -8.000000 2.102322E+02
28.000000 -10.000000 2.321096E+02
28.000000 -12.000000 2.068296E+02
28.000000 -14.000000 1.479020E+02
28.000000 -16.000000 6.424877E+01
28.000000 -18.000000 -1.494460E+01
28.000000 -20.000000 -5.643806E+01
28.000000 -22.000000 -5.586830E+01
28.000000 -24.000000 -3.465054E+01
28.000000 -26.000000 -1.717056E+01
28.000000 -28.000000 -1.274232E+01
28.000000 -30.000000 -1.653769E+01
28.000000 -32.000000 -2.124779E+01
28.000000 -34.000000 -2.445027E+01
28.000000 -36.000000 -3.510952E+01
28.000000 -38.000000 -5.710037E+01
28.000000 -40.000000 -8.659185E+01
30.000000 40.000000 4.132663E+01
30.000000 38.000000 9.504349E+00
30.000000 36.000000 -2.191225E+01
30.000000 34.000000 -4.780114E+01
30.000000 32.000000 -5.266264E+01
30.000000 30.000000 -3.684501E+01
30.000000 28.000000 -1.172465E+01
30.000000 26.000000 1.748878E+00
30.000000 24.000000 -2.073119E+00
30.000000 22.000000 -2.036860E+01
30.000000 20.000000 -3.612457E+01
30.000000 18.000000 -4.075521E+01
30.000000 16.000000 -4.203620E+01
30.000000 14.000000 -5.384297E+01
30.000000 12.000000 -8.280979E+01
30.000000 10.000000 -1.283066E+02
30.000000 8.000000 -1.666495E+02
30.000000 6.000000 -1.911612E+02
30.000000 4.000000 -1.966930E+02
30.000000 2.000000 -1.760840E+02
30.000000 0.000000 -1.170521E+02
30.000000 -2.000000 -2.140940E+01
30.000000 -4.000000 8.019093E+01
30.000000 -6.000000 1.557033E+02
30.000000 -8.000000 1.944408E+02
30.000000 -10.000000 2.085716E+02
30.000000 -12.000000 1.817030E+02
30.000000 -14.000000 1.235210E+02
30.000000 -16.000000 4.693888E+01
30.000000 -18.000000 -2.148907E+01
30.000000 -20.000000 -5.849141E+01
30.000000 -22.000000 -6.145096E+01
30.000000 -24.000000 -4.340650E+01
30.000000 -26.000000 -2.536403E+01
30.000000 -28.000000 -2.028431E+01
30.000000 -30.000000 -2.323397E+01
30.000000 -32.000000 -2.794221E+01
30.000000 -34.000000 -3.134245E+01
30.000000 -36.000000 -4.121863E+01
30.000000 -38.000000 -6.055744E+01
30.000000 -40.000000 -8.704578E+01
32.000000 40.000000 4.559982E+01
32.000000 38.000000 1.691875E+01
32.000000 36.000000 -1.175758E+01
32.000000 34.000000 -3.558663E+01
32.000000 32.000000 -3.955672E+01
32.000000 30.000000 -2.228537E+01
32.000000 28.000000 7.255478E-01
32.000000 26.000000 9.221252E+00
32.000000 24.000000 4.144004E+00
32.000000 22.000000 -1.150599E+01
32.000000 20.000000 -2.593920E+01
32.000000 18.000000 -3.306978E+01
32.000000 16.000000 -4.309355E+01
32.000000 14.000000 -6.104308E+01
32.000000 12.000000 -8.663644E+01
32.000000 10.000000 -1.141748E+02
32.000000 8.000000 -1.239261E+02
32.000000 6.000000 -1.238767E+02
32.000000 4.000000 -1.212837E+02
32.000000 2.000000 -1.094342E+02
32.000000 0.000000 -6.734197E+01
32.000000 -2.000000 4.662547E+00
32.000000 -4.000000 8.076785E+01
32.000000 -6.000000 1.363788E+02
32.000000 -8.000000 1.667873E+02
32.000000 -10.000000 1.765359E+02
32.000000 -12.000000 1.516040E+02
32.000000 -14.000000 9.846803E+01
32.000000 -16.000000 3.194243E+01
32.000000 -18.000000 -2.621520E+01
32.000000 -20.000000 -6.064311E+01
32.000000 -22.000000 -6.927686E+01
32.000000 -24.000000 -5.643312E+01
32.000000 -26.000000 -3.940142E+01
32.000000 -28.000000 -3.343956E+01
32.000000 -30.000000 -3.292696E+01
32.000000 -32.000000 -3.374649E+01
32.000000 -34.000000 -3.560640E+01
32.000000 -36.000000 -4.738611E+01
32.000000 -38.000000 -6.414474E+01
32.000000 -40.000000 -8.405420E+01
34.000000 40.000000 5.105477E+01
34.000000 38.000000 2.539824E+01
34.000000 36.000000 -1.321590E+00
34.000000 34.000000 -2.267377E+01
34.000000 32.000000 -2.689870E+01
34.000000 30.000000 -1.199190E+01
34.000000 28.000000 7.907726E+00
34.000000 26.000000 1.455303E+01
34.000000 24.000000 1.017654E+01
34.000000 22.000000 -2.508505E+00
34.000000 20.000000 -1.515567E+01
34.000000 18.000000 -2.524154E+01
34.000000 16.000000 -4.017652E+01
34.000000 14.000000 -5.654563E+01
34.000000 12.000000 -7.075343E+01
34.000000 10.000000 -7.665127E+01
34.000000 8.000000 -6.452609E+01
34.000000 6.000000 -4.698994E+01
34.000000 4.000000 -4.366728E+01
34.000000 2.000000 -4.612166E+01
34.000000 0.000000 -2.517664E+01
34.000000 -2.000000 2.047540E+01
34.000000 -4.000000 7.252689E+01
34.000000 -6.000000 1.130830E+02
34.000000 -8.000000 1.383372E+02
34.000000 -10.000000 1.486630E+02
34.000000 -12.000000 1.282046E+02
34.000000 -14.000000 8.241439E+01
34.000000 -16.000000 2.454351E+01
34.000000 -18.000000 -2.801667E+01
34.000000 -20.000000 -6.261183E+01
34.000000 -22.000000 -7.571992E+01
34.000000 -24.000000 -6.766084E+01
34.000000 -26.000000 -5.240269E+01
34.000000 -28.000000 -4.550613E+01
34.000000 -30.000000 -4.215428E+01
34.000000 -32.000000 -3.888934E+01
34.000000 -34.000000 -3.804364E+01
34.000000 -36.000000 -4.953947E+01
34.000000 -38.000000 -6.370266E+01
34.000000 -40.000000 -7.757655E+01
36.000000 40.000000 5.619141E+01
36.000000 38.000000 3.482002E+01
36.000000 36.000000 1.120265E+01
36.000000 34.000000 -8.571850E+00
36.000000 32.000000 -1.524310E+01
36.000000 30.000000 -6.036716E+00
36.000000 28.000000 8.886616E+00
36.000000 26.000000 1.622084E+01
36.000000 24.000000 1.716318E+01
36.000000 22.000000 1.062743E+01
36.000000 20.000000 2.550426E+00
36.000000 18.000000 -8.890480E+00
36.000000 16.000000 -2.655171E+01
36.000000 14.000000 -4.134408E+01
36.000000 12.000000 -4.828564E+01
36.000000 10.000000 -4.165829E+01
36.000000 8.000000 -1.994768E+01
36.000000 6.000000 2.924241E+00
36.000000 4.000000 2.904430E+00
36.000000 2.000000 -9.945139E+00
36.000000 0.000000 -5.000485E+00
36.000000 -2.000000 2.126002E+01
36.000000 -4.000000 5.709784E+01
36.000000 -6.000000 8.992145E+01
36.000000 -8.000000 1.139201E+02
36.000000 -10.000000 1.277560E+02
36.000000 -12.000000 1.156435E+02
36.000000 -14.000000 7.923477E+01
36.000000 -16.000000 2.909098E+01
36.000000 -18.000000 -1.906161E+01
36.000000 -20.000000 -5.427947E+01
36.000000 -22.000000 -7.144968E+01
36.000000 -24.000000 -6.832916E+01
36.000000 -26.000000 -5.648248E+01
36.000000 -28.000000 -5.022065E+01
36.000000 -30.000000 -4.597186E+01
36.000000 -32.000000 -4.016586E+01
36.000000 -34.000000 -3.657067E+01
36.000000 -36.000000 -4.627088E+01
36.000000 -38.000000 -5.863593E+01
36.000000 -40.000000 -6.910601E+01
38.000000 40.000000 6.324175E+01
38.000000 38.000000 4.569867E+01
38.000000 36.000000 2.489060E+01
38.000000 34.000000 4.265385E+00
38.000000 32.000000 -7.355968E+00
38.000000 30.000000 -4.714058E+00
38.000000 28.000000 5.707836E+00
38.000000 26.000000 1.439752E+01
38.000000 24.000000 2.127026E+01
38.000000 22.000000 2.212724E+01
38.000000 20.000000 2.118205E+01
38.000000 18.000000 1.165599E+01
38.000000 16.000000 -8.854877E+00
38.000000 14.000000 -2.626745E+01
38.000000 12.000000 -3.239068E+01
38.000000 10.000000 -2.313841E+01
38.000000 8.000000 -1.304273E+00
38.000000 6.000000 1.800588E+01
38.000000 4.000000 1.394396E+01
38.000000 2.000000 -2.048119E+00
38.000000 0.000000 -5.052190E+00
38.000000 -2.000000 1.139499E+01
38.000000 -4.000000 3.843319E+01
38.000000 -6.000000 6.727879E+01
38.000000 -8.000000 9.205221E+01
38.000000 -10.000000 1.099276E+02
38.000000 -12.000000 1.074762E+02
38.000000 -14.000000 8.265761E+01
38.000000 -16.000000 4.217383E+01
38.000000 -18.000000 1.626184E+00
38.000000 -20.000000 -3.155247E+01
38.000000 -22.000000 -5.212889E+01
38.000000 -24.000000 -5.380888E+01
38.000000 -26.000000 -4.543741E+01
38.000000 -28.000000 -4.191086E+01
38.000000 -30.000000 -3.990048E+01
38.000000 -32.000000 -3.337740E+01
38.000000 -34.000000 -2.774357E+01
38.000000 -36.000000 -3.662952E+01
38.000000 -38.000000 -5.011815E+01
38.000000 -40.000000 -6.089334E+01
40.000000 40.000000 7.340358E+01
40.000000 38.000000 5.829865E+01
40.000000 36.000000 3.912272E+01
40.000000 34.000000 1.589677E+01
40.000000 32.000000 -2.875877E+00
40.000000 30.000000 -7.399830E+00
40.000000 28.000000 -6.760063E-01
40.000000 26.000000 7.534761E+00
40.000000 24.000000 1.579010E+01
40.000000 22.000000 2.120096E+01
40.000000 20.000000 2.613527E+01
40.000000 18.000000 2.125373E+01
40.000000 16.000000 -6.584015E-01
40.000000 14.000000 -2.059690E+01
40.000000 12.000000 -2.651674E+01
40.000000 10.000000 -1.779653E+01
40.000000 8.000000 1.270633E+00
40.000000 6.000000 1.511437E+01
40.000000 4.000000 7.592034E+00
40.000000 2.000000 -7.784451E+00
40.000000 0.000000 -1.278103E+01
40.000000 -2.000000 -1.301500E+00
40.000000 -4.000000 1.945297E+01
40.000000 -6.000000 4.410691E+01
40.000000 -8.000000 6.894930E+01
40.000000 -10.000000 8.972745E+01
40.000000 -12.000000 9.549572E+01
40.000000 -14.000000 8.337042E+01
40.000000 -16.000000 5.761529E+01
40.000000 -18.000000 2.902248E+01
40.000000 -20.000000 2.291060E+00
40.000000 -22.000000 -1.822711E+01
40.000000 -24.000000 -2.495421E+01
40.000000 -26.000000 -2.102691E+01
40.000000 -28.000000 -2.115176E+01
40.000000 -30.000000 -2.278408E+01
40.000000 -32.000000 -1.851563E+01
40.000000 -34.000000 -1.351836E+01
40.000000 -36.000000 -2.311837E+01
40.000000 -38.000000 -3.933338E+01
40.000000 -40.000000 -5.259980E+01
42.000000 40.000000 8.510115E+01
42.000000 38.000000 7.221710E+01
42.000000 36.000000 5.466282E+01
42.000000 34.000000 2.881401E+01
42.000000 32.000000 2.312962E+00
42.000000 30.000000 -1.188700E+01
42.000000 28.000000 -1.125495E+01
42.000000 26.000000 -5.549919E+00
42.000000 24.000000 -7.094765E-02
42.000000 22.000000 4.413528E+00
42.000000 20.000000 9.401965E+00
42.000000 18.000000 8.208550E+00
42.000000 16.000000 -9.066921E+00
42.000000 14.000000 -2.480062E+01
42.000000 12.000000 -2.686107E+01
42.000000 10.000000 -1.805270E+01
42.000000 8.000000 -1.396152E+00
42.000000 6.000000 9.851787E+00
42.000000 4.000000 1.535372E+00
42.000000 2.000000 -1.277337E+01
42.000000 0.000000 -1.844980E+01
42.000000 -2.000000 -1.084499E+01
42.000000 -4.000000 3.705932E+00
42.000000 -6.000000 2.269807E+01
42.000000 -8.000000 4.514869E+01
42.000000 -10.000000 6.701899E+01
42.000000 -12.000000 7.938441E+01
42.000000 -14.000000 7.976863E+01
42.000000 -16.000000 7.257144E+01
42.000000 -18.000000 5.986038E+01
42.000000 -20.000000 4.325761E+01
42.000000 -22.000000 2.533290E+01
42.000000 -24.000000 1.241906E+01
42.000000 -26.000000 7.556620E+00
42.000000 -28.000000 2.039183E+00
42.000000 -30.000000 -2.554090E+00
42.000000 -32.000000 -1.591219E+00
42.000000 -34.000000 3.270702E-01
42.000000 -36.000000 -1.046901E+01
42.000000 -38.000000 -2.703168E+01
42.000000 -40.000000 -4.121895E+01
44.000000 40.000000 9.592626E+01
44.000000 38.000000 8.521486E+01
44.000000 36.000000 6.932456E+01
44.000000 34.000000 4.233099E+01
44.000000 32.000000 1.038048E+01
44.000000 30.000000 -1.461758E+01
44.000000 28.000000 -2.372310E+01
44.000000 26.000000 -2.134855E+01
44.000000 24.000000 -1.864820E+01
44.000000 22.000000 -1.713729E+01
44.000000 20.000000 -1.803089E+01
44.000000 18.000000 -2.089281E+01
44.000000 16.000000 -2.917369E+01
44.000000 14.000000 -3.431462E+01
44.000000 12.000000 -2.958757E+01
44.000000 10.000000 -2.067700E+01
44.000000 8.000000 -7.635775E+00
44.000000 6.000000 2.406810E+00
44.000000 4.000000 -2.002709E+00
44.000000 2.000000 -1.119575E+01
44.000000 0.000000 -1.440841E+01
44.000000 -2.000000 -8.458443E+00
44.000000 -4.000000 1.022827E+00
44.000000 -6.000000 1.256738E+01
44.000000 -8.000000 2.723410E+01
44.000000 -10.000000 4.475013E+01
44.000000 -12.000000 6.185222E+01
44.000000 -14.000000 7.407182E+01
44.000000 -16.000000 8.424596E+01
44.000000 -18.000000 8.749264E+01
44.000000 -20.000000 8.094641E+01
44.000000 -22.000000 6.592760E+01
44.000000 -24.000000 4.723741E+01
44.000000 -26.000000 3.208597E+01
44.000000 -28.000000 1.939713E+01
44.000000 -30.000000 1.174824E+01
44.000000 -32.000000 1.057545E+01
44.000000 -34.000000 1.074328E+01
44.000000 -36.000000 7.691479E-01
44.000000 -38.000000 -1.336362E+01
44.000000 -40.000000 -2.592423E+01
46.000000 40.000000 1.030274E+02
46.000000 38.000000 9.424048E+01
46.000000 36.000000 7.984770E+01
46.000000 34.000000 5.461861E+01
46.000000 32.000000 2.033443E+01
46.000000 30.000000 -1.470210E+01
46.000000 28.000000 -3.331401E+01
46.000000 26.000000 -3.225527E+01
46.000000 24.000000 -2.993410E+01
46.000000 22.000000 -3.026075E+01
46.000000 20.000000 -3.600294E+01
46.000000 18.000000 -4.091885E+01
46.000000 16.000000 -4.177933E+01
46.000000 14.000000 -3.801964E+01
46.000000 12.000000 -3.030725E+01
46.000000 10.000000 -2.621128E+01
46.000000 8.000000 -2.127112E+01
46.000000 6.000000 -1.384333E+01
46.000000 4.000000 -8.689538E+00
46.000000 2.000000 -5.491566E+00
46.000000 0.000000 -2.146393E+00
46.000000 -2.000000 4.170431E+00
46.000000 -4.000000 1.087420E+01
46.000000 -6.000000 1.515723E+01
46.000000 -8.000000 2.004633E+01
46.000000 -10.000000 2.963492E+01
46.000000 -12.000000 4.858083E+01
46.000000 -14.000000 6.987360E+01
46.000000 -16.000000 9.149924E+01
46.000000 -18.000000 1.038904E+02
46.000000 -20.000000 1.023569E+02
46.000000 -22.000000 8.972041E+01
46.000000 -24.000000 6.911841E+01
46.000000 -26.000000 4.809954E+01
46.000000 -28.000000 3.012049E+01
46.000000 -30.000000 1.864885E+01
46.000000 -32.000000 1.581963E+01
46.000000 -34.000000 1.704686E+01
