-30.000000 36.000000 -1.086571E+01
-30.000000 34.000000 -2.694164E+01
-30.000000 32.000000 -3.256330E+01
-30.000000 30.000000 -3.041554E+01
-30.000000 28.000000 -2.793109E+01
-30.000000 26.000000 -3.145557E+01
-30.000000 24.000000 -4.455643E+01
-30.000000 22.000000 -5.965617E+01
-30.000000 20.000000 -6.975342E+01
-30.000000 18.000000 -6.920662E+01
-30.000000 16.000000 -6.076567E+01
-30.000000 14.000000 -5.058330E+01
-30.000000 12.000000 -3.876062E+01
-30.000000 10.000000 -2.431594E+01
-30.000000 8.000000 -7.084637E+00
-30.000000 6.000000 8.801529E+00
-30.000000 4.000000 1.206766E+01
-30.000000 2.000000 -4.271034E+00
-30.000000 0.000000 -3.257998E+01
-30.000000 -2.000000 -5.650335E+01
-30.000000 -4.000000 -5.977366E+01
-30.000000 -6.000000 -4.494396E+01
-30.000000 -8.000000 -3.220313E+01
-30.000000 -10.000000 -1.755816E+01
-30.000000 -12.000000 5.598106E-01
-30.000000 -14.000000 1.729668E+01
-30.000000 -16.000000 2.686108E+01
-30.000000 -18.000000 2.666854E+01
-30.000000 -20.000000 1.294814E+01
-30.000000 -22.000000 -1.112829E+01
-30.000000 -24.000000 -3.605132E+01
-30.000000 -26.000000 -5.192479E+01
-30.000000 -28.000000 -5.918331E+01
-30.000000 -30.000000 -6.243798E+01
-30.000000 -32.000000 -5.900447E+01
-30.000000 -34.000000 -4.874638E+01
-30.000000 -36.000000 -3.652744E+01
-30.000000 -38.000000 -2.590855E+01
-30.000000 -40.000000 -2.255634E+01
-28.000000 40.000000 2.074310E+01
-28.000000 38.000000 4.926789E+00
-28.000000 36.000000 -1.178383E+01
-28.000000 34.000000 -2.987431E+01
-28.000000 32.000000 -3.437805E+01
-28.000000 30.000000 -2.831781E+01
-28.000000 28.000000 -2.265302E+01
-28.000000 26.000000 -2.698240E+01
-28.000000 24.000000 -4.106653E+01
-28.000000 22.000000 -5.708179E+01
-28.000000 20.000000 -6.715022E+01
-28.000000 18.000000 -6.585058E+01
-28.000000 16.000000 -5.769578E+01
-28.000000 14.000000 -4.945079E+01
-28.000000 12.000000 -4.041052E+01
-28.000000 10.000000 -2.694506E+01
-28.000000 8.000000 -7.932383E+00
-28.000000 6.000000 1.048468E+01
-28.000000 4.000000 1.806023E+01
-28.000000 2.000000 2.322660E+00
-28.000000 0.000000 -2.673998E+01
-28.000000 -2.000000 -4.880866E+01
-28.000000 -4.000000 -4.777554E+01
-28.000000 -6.000000 -3.371830E+01
-28.000000 -8.000000 -2.808425E+01
-28.000000 -10.000000 -1.979790E+01
-28.000000 -12.000000 -5.846689E+00
-28.000000 -14.000000 7.587589E+00
-28.000000 -16.000000 1.663592E+01
-28.000000 -18.000000 1.951231E+01
-28.000000 -20.000000 9.428307E+00
-28.000000 -22.000000 -1.240879E+01
-28.000000 -24.000000 -3.433452E+01
-28.000000 -26.000000 -4.734322E+01
-28.000000 -28.000000 -5.263623E+01
-28.000000 -30.000000 -5.367609E+01
-28.000000 -32.000000 -4.942527E+01
-28.000000 -34.000000 -4.003340E+01
-28.000000 -36.000000 -2.938578E+01
-28.000000 -38.000000 -2.125439E+01
-28.000000 -40.000000 -2.110153E+01
-26.000000 40.000000 2.180044E+01
-26.000000 38.000000 4.615076E+00
-26.000000 36.000000 -1.204027E+01
-26.000000 34.000000 -3.054705E+01
-26.000000 32.000000 -3.360441E+01
-26.000000 30.000000 -2.420642E+01
-26.000000 28.000000 -1.640827E+01
-26.000000 26.000000 -2.016363E+01
-26.000000 24.000000 -3.330812E+01
-26.000000 22.000000 -4.870471E+01
-26.000000 20.000000 -5.750397E+01
-26.000000 18.000000 -5.497237E+01
-26.000000 16.000000 -4.847227E+01
-26.000000 14.000000 -4.389446E+01
-26.000000 12.000000 -3.907586E+01
-26.000000 10.000000 -2.847468E+01
-26.000000 8.000000 -1.049553E+01
-26.000000 6.000000 8.674179E+00
-26.000000 4.000000 1.861527E+01
-26.000000 2.000000 5.159264E+00
-26.000000 0.000000 -2.071938E+01
-26.000000 -2.000000 -3.977841E+01
-26.000000 -4.000000 -3.776911E+01
-26.000000 -6.000000 -2.710270E+01
-26.000000 -8.000000 -2.777020E+01
-26.000000 -10.000000 -2.652788E+01
-26.000000 -12.000000 -1.941446E+01
-26.000000 -14.000000 -1.123755E+01
-26.000000 -16.000000 -2.158760E+00
-26.000000 -18.000000 6.890615E+00
-26.000000 -20.000000 5.142670E+00
-26.000000 -22.000000 -1.170401E+01
-26.000000 -24.000000 -3.250945E+01
-26.000000 -26.000000 -4.284928E+01
-26.000000 -28.000000 -4.435483E+01
-26.000000 -30.000000 -4.223067E+01
-26.000000 -32.000000 -3.615522E+01
-26.000000 -34.000000 -2.732056E+01
-26.000000 -36.000000 -2.020089E+01
-26.000000 -38.000000 -1.719272E+01
-26.000000 -40.000000 -2.128516E+01
-24.000000 40.000000 2.260392E+01
-24.000000 38.000000 5.605067E+00
-24.000000 36.000000 -1.099172E+01
-24.000000 34.000000 -2.594161E+01
-24.000000 32.000000 -2.661455E+01
-24.000000 30.000000 -1.657239E+01
-24.000000 28.000000 -9.203127E+00
-24.000000 26.000000 -1.261708E+01
-24.000000 24.000000 -2.162572E+01
-24.000000 22.000000 -3.122442E+01
-24.000000 20.000000 -3.435528E+01
-24.000000 18.000000 -3.071910E+01
-24.000000 16.000000 -2.808224E+01
-24.000000 14.000000 -2.891125E+01
-24.000000 12.000000 -3.127280E+01
-24.000000 10.000000 -3.028449E+01
-24.000000 8.000000 -2.171574E+01
-24.000000 6.000000 -7.950726E+00
-24.000000 4.000000 1.372581E+00
-24.000000 2.000000 -4.397856E+00
-24.000000 0.000000 -1.959376E+01
-24.000000 -2.000000 -3.210749E+01
-24.000000 -4.000000 -3.046566E+01
-24.000000 -6.000000 -2.518206E+01
-24.000000 -8.000000 -3.174885E+01
-24.000000 -10.000000 -3.603722E+01
-24.000000 -12.000000 -3.691620E+01
-24.000000 -14.000000 -3.535449E+01
-24.000000 -16.000000 -2.711497E+01
-24.000000 -18.000000 -9.734528E+00
-24.000000 -20.000000 1.495724E-01
-24.000000 -22.000000 -9.338458E+00
-24.000000 -24.000000 -2.377281E+01
-24.000000 -26.000000 -3.099460E+01
-24.000000 -28.000000 -2.969339E+01
-24.000000 -30.000000 -2.407354E+01
-24.000000 -32.000000 -1.563297E+01
-24.000000 -34.000000 -8.908777E+00
-24.000000 -36.000000 -7.979748E+00
-24.000000 -38.000000 -1.164717E+01
-24.000000 -40.000000 -2.180348E+01
-22.000000 40.000000 2.150201E+01
-22.000000 38.000000 6.540471E+00
-22.000000 36.000000 -6.242023E+00
-22.000000 34.000000 -1.721530E+01
-22.000000 32.000000 -1.687256E+01
-22.000000 30.000000 -8.735118E+00
-22.000000 28.000000 -3.799915E+00
-22.000000 26.000000 -6.768502E+00
-22.000000 24.000000 -1.256660E+01
-22.000000 22.000000 -1.487652E+01
-22.000000 20.000000 -9.157532E+00
-22.000000 18.000000 -1.825443E+00
-22.000000 16.000000 -1.005617E+00
-22.000000 14.000000 -6.969913E+00
-22.000000 12.000000 -2.035185E+01
-22.000000 10.000000 -3.551821E+01
-22.000000 8.000000 -4.192031E+01
-22.000000 6.000000 -3.702799E+01
-22.000000 4.000000 -2.601270E+01
-22.000000 2.000000 -2.468708E+01
-22.000000 0.000000 -3.216908E+01
-22.000000 -2.000000 -3.541950E+01
-22.000000 -4.000000 -3.032394E+01
-22.000000 -6.000000 -2.788629E+01
-22.000000 -8.000000 -3.599510E+01
-22.000000 -10.000000 -4.414013E+01
-22.000000 -12.000000 -4.719755E+01
-22.000000 -14.000000 -4.548389E+01
-22.000000 -16.000000 -3.625269E+01
-22.000000 -18.000000 -1.641622E+01
-22.000000 -20.000000 -1.404428E+00
-22.000000 -22.000000 -4.470013E+00
-22.000000 -24.000000 -1.335218E+01
-22.000000 -26.000000 -1.651747E+01
-22.000000 -28.000000 -1.301356E+01
-22.000000 -30.000000 -4.992974E+00
-22.000000 -32.000000 5.153365E+00
-22.000000 -34.000000 9.932903E+00
-22.000000 -36.000000 4.867202E+00
-22.000000 -38.000000 -6.045184E+00
-22.000000 -40.000000 -2.213132E+01
-20.000000 40.000000 2.179653E+01
-20.000000 38.000000 8.783344E+00
-20.000000 36.000000 -6.505370E-01
-20.000000 34.000000 -9.241038E+00
-20.000000 32.000000 -9.004322E+00
-20.000000 30.000000 -2.748431E+00
-20.000000 28.000000 -5.921936E-02
-20.000000 26.000000 -3.599941E+00
-20.000000 24.000000 -8.423290E+00
-20.000000 22.000000 -5.894135E+00
-20.000000 20.000000 6.895792E+00
-20.000000 18.000000 1.863305E+01
-20.000000 16.000000 1.954221E+01
-20.000000 14.000000 9.647017E+00
-20.000000 12.000000 -1.312316E+01
-20.000000 10.000000 -4.186669E+01
-20.000000 8.000000 -6.055069E+01
-20.000000 6.000000 -6.411218E+01
-20.000000 4.000000 -5.323475E+01
-20.000000 2.000000 -4.700810E+01
-20.000000 0.000000 -4.801779E+01
-20.000000 -2.000000 -4.406527E+01
-20.000000 -4.000000 -3.599338E+01
-20.000000 -6.000000 -3.337693E+01
-20.000000 -8.000000 -3.872890E+01
-20.000000 -10.000000 -4.569527E+01
-20.000000 -12.000000 -4.634115E+01
-20.000000 -14.000000 -4.192779E+01
-20.000000 -16.000000 -3.106461E+01
-20.000000 -18.000000 -1.392920E+01
-20.000000 -20.000000 -7.377625E-03
-20.000000 -22.000000 2.305579E+00
-20.000000 -24.000000 -1.782716E+00
-20.000000 -26.000000 -2.643310E+00
-20.000000 -28.000000 2.234712E+00
-20.000000 -30.000000 1.093032E+01
-20.000000 -32.000000 2.063140E+01
-20.000000 -34.000000 2.324590E+01
-20.000000 -36.000000 1.250601E+01
-20.000000 -38.000000 -3.305918E+00
-20.000000 -40.000000 -2.198697E+01
-18.000000 40.000000 2.457029E+01
-18.000000 38.000000 1.178372E+01
-18.000000 36.000000 2.783433E+00
-18.000000 34.000000 -4.879925E+00
-18.000000 32.000000 -4.641750E+00
-18.000000 30.000000 -6.314678E-01
-18.000000 28.000000 -3.180695E-02
-18.000000 26.000000 -4.328525E+00
-18.000000 24.000000 -9.386199E+00
-18.000000 22.000000 -7.378866E+00
-18.000000 20.000000 4.982800E+00
-18.000000 18.000000 1.780078E+01
-18.000000 16.000000 2.028295E+01
-18.000000 14.000000 1.037992E+01
-18.000000 12.000000 -1.369004E+01
-18.000000 10.000000 -4.467437E+01
-18.000000 8.000000 -6.630494E+01
-18.000000 6.000000 -7.352680E+01
-18.000000 4.000000 -6.604062E+01
-18.000000 2.000000 -5.852704E+01
-18.000000 0.000000 -5.601328E+01
-18.000000 -2.000000 -5.120127E+01
-18.000000 -4.000000 -4.307654E+01
-18.000000 -6.000000 -3.743971E+01
-18.000000 -8.000000 -3.761261E+01
-18.000000 -10.000000 -3.888604E+01
-18.000000 -12.000000 -3.523327E+01
-18.000000 -14.000000 -2.890257E+01
-18.000000 -16.000000 -1.835184E+01
-18.000000 -18.000000 -4.947665E+00
-18.000000 -20.000000 5.886292E+00
-18.000000 -22.000000 9.403404E+00
-18.000000 -24.000000 7.153281E+00
-18.000000 -26.000000 7.116333E+00
-18.000000 -28.000000 1.182118E+01
-18.000000 -30.000000 1.998322E+01
-18.000000 -32.000000 2.891239E+01
-18.000000 -34.000000 3.052334E+01
-18.000000 -36.000000 1.637433E+01
-18.000000 -38.000000 -2.015623E+00
-18.000000 -40.000000 -2.156359E+01
-16.000000 40.000000 2.879378E+01
-16.000000 38.000000 1.405294E+01
-16.000000 36.000000 3.181289E+00
-16.000000 34.000000 -5.438569E+00
-16.000000 32.000000 -5.564961E+00
-16.000000 30.000000 -3.662509E+00
-16.000000 28.000000 -5.024873E+00
-16.000000 26.000000 -1.006257E+01
-16.000000 24.000000 -1.619321E+01
-16.000000 22.000000 -1.845426E+01
-16.000000 20.000000 -1.222857E+01
-16.000000 18.000000 -1.797441E+00
-16.000000 16.000000 2.907997E+00
-16.000000 14.000000 -2.386299E+00
-16.000000 12.000000 -2.027130E+01
-16.000000 10.000000 -4.409579E+01
-16.000000 8.000000 -6.023108E+01
-16.000000 6.000000 -6.461761E+01
-16.000000 4.000000 -5.824966E+01
-16.000000 2.000000 -5.290541E+01
-16.000000 0.000000 -5.211451E+01
-16.000000 -2.000000 -4.866683E+01
-16.000000 -4.000000 -4.084552E+01
-16.000000 -6.000000 -3.344454E+01
-16.000000 -8.000000 -3.039877E+01
-16.000000 -10.000000 -2.669644E+01
-16.000000 -12.000000 -1.898830E+01
-16.000000 -14.000000 -1.155493E+01
-16.000000 -16.000000 -2.716853E+00
-16.000000 -18.000000 6.636065E+00
-16.000000 -20.000000 1.357201E+01
-16.000000 -22.000000 1.487060E+01
-16.000000 -24.000000 1.085247E+01
-16.000000 -26.000000 9.216940E+00
-16.000000 -28.000000 1.237854E+01
-16.000000 -30.000000 1.995384E+01
-16.000000 -32.000000 2.967815E+01
-16.000000 -34.000000 3.265445E+01
-16.000000 -36.000000 1.815905E+01
-16.000000 -38.000000 -1.133465E+00
-16.000000 -40.000000 -2.112999E+01
-14.000000 40.000000 3.363929E+01
-14.000000 38.000000 1.465137E+01
-14.000000 36.000000 3.258140E-01
-14.000000 34.000000 -1.169029E+01
-14.000000 32.000000 -1.302334E+01
-14.000000 30.000000 -1.189778E+01
-14.000000 28.000000 -1.409691E+01
-14.000000 26.000000 -1.928721E+01
-14.000000 24.000000 -2.684862E+01
-14.000000 22.000000 -3.355957E+01
-14.000000 20.000000 -3.368171E+01
-14.000000 18.000000 -2.684010E+01
-14.000000 16.000000 -2.081976E+01
-14.000000 14.000000 -2.068232E+01
-14.000000 12.000000 -2.906440E+01
-14.000000 10.000000 -4.106143E+01
-14.000000 8.000000 -4.719473E+01
-14.000000 6.000000 -4.412275E+01
-14.000000 4.000000 -3.611568E+01
-14.000000 2.000000 -3.296655E+01
-14.000000 0.000000 -3.529722E+01
-14.000000 -2.000000 -3.486197E+01
-14.000000 -4.000000 -2.825597E+01
-14.000000 -6.000000 -2.019632E+01
-14.000000 -8.000000 -1.567989E+01
-14.000000 -10.000000 -8.945957E+00
-14.000000 -12.000000 -1.100823E+00
-14.000000 -14.000000 4.658617E+00
-14.000000 -16.000000 1.051118E+01
-14.000000 -18.000000 1.655197E+01
-14.000000 -20.000000 1.937426E+01
-14.000000 -22.000000 1.641350E+01
-14.000000 -24.000000 9.155923E+00
-14.000000 -26.000000 4.148494E+00
-14.000000 -28.000000 4.543252E+00
-14.000000 -30.000000 1.201438E+01
-14.000000 -32.000000 2.445756E+01
-14.000000 -34.000000 3.122346E+01
-14.000000 -36.000000 1.906160E+01
-14.000000 -38.000000 -4.761791E-02
-14.000000 -40.000000 -2.021496E+01
-12.000000 40.000000 3.861026E+01
-12.000000 38.000000 1.399315E+01
-12.000000 36.000000 -5.281944E+00
-12.000000 34.000000 -2.192430E+01
-12.000000 32.000000 -2.506282E+01
-12.000000 30.000000 -2.394813E+01
-12.000000 28.000000 -2.509095E+01
-12.000000 26.000000 -2.915751E+01
-12.000000 24.000000 -3.758825E+01
-12.000000 22.000000 -4.445936E+01
-12.000000 20.000000 -4.608309E+01
-12.000000 18.000000 -4.200162E+01
-12.000000 16.000000 -3.800076E+01
-12.000000 14.000000 -3.700222E+01
-12.000000 12.000000 -3.850052E+01
-12.000000 10.000000 -3.986345E+01
-12.000000 8.000000 -3.557740E+01
-12.000000 6.000000 -2.303998E+01
-12.000000 4.000000 -9.940670E+00
-12.000000 2.000000 -5.696645E+00
-12.000000 0.000000 -9.242163E+00
-12.000000 -2.000000 -1.194328E+01
-12.000000 -4.000000 -6.902141E+00
-12.000000 -6.000000 1.158600E-01
-12.000000 -8.000000 2.908290E+00
-12.000000 -10.000000 9.796918E+00
-12.000000 -12.000000 1.457518E+01
-12.000000 -14.000000 1.669455E+01
-12.000000 -16.000000 1.849058E+01
-12.000000 -18.000000 2.163505E+01
-12.000000 -20.000000 2.084906E+01
-12.000000 -22.000000 1.349941E+01
-12.000000 -24.000000 3.495871E+00
-12.000000 -26.000000 -4.244600E+00
-12.000000 -28.000000 -7.237820E+00
-12.000000 -30.000000 -2.614293E-01
-12.000000 -32.000000 1.636453E+01
-12.000000 -34.000000 2.872484E+01
-12.000000 -36.000000 2.019772E+01
-12.000000 -38.000000 1.617830E+00
-12.000000 -40.000000 -1.879043E+01
-10.000000 40.000000 4.254193E+01
-10.000000 38.000000 1.202016E+01
-10.000000 36.000000 -1.181013E+01
-10.000000 34.000000 -3.178755E+01
-10.000000 32.000000 -3.585034E+01
-10.000000 30.000000 -3.374307E+01
-10.000000 28.000000 -3.253081E+01
-10.000000 26.000000 -3.488952E+01
-10.000000 24.000000 -4.318205E+01
-10.000000 22.000000 -4.639848E+01
-10.000000 20.000000 -4.421945E+01
-10.000000 18.000000 -4.107500E+01
-10.000000 16.000000 -4.301218E+01
-10.000000 14.000000 -4.746729E+01
-10.000000 12.000000 -4.917134E+01
-10.000000 10.000000 -4.667087E+01
-10.000000 8.000000 -3.420166E+01
-10.000000 6.000000 -1.152015E+01
-10.000000 4.000000 1.239916E+01
-10.000000 2.000000 2.274721E+01
-10.000000 0.000000 2.051942E+01
-10.000000 -2.000000 1.720157E+01
-10.000000 -4.000000 2.151732E+01
-10.000000 -6.000000 2.334801E+01
-10.000000 -8.000000 1.925439E+01
-10.000000 -10.000000 2.097518E+01
-10.000000 -12.000000 2.256426E+01
-10.000000 -14.000000 2.237500E+01
-10.000000 -16.000000 2.037213E+01
-10.000000 -18.000000 1.994295E+01
-10.000000 -20.000000 1.691953E+01
-10.000000 -22.000000 8.000755E+00
-10.000000 -24.000000 -3.168821E+00
-10.000000 -26.000000 -1.222795E+01
-10.000000 -28.000000 -1.707017E+01
-10.000000 -30.000000 -1.031950E+01
-10.000000 -32.000000 8.975143E+00
-10.000000 -34.000000 2.580867E+01
-10.000000 -36.000000 2.088791E+01
-10.000000 -38.000000 3.911232E+00
-10.000000 -40.000000 -1.650695E+01
-8.000000 40.000000 4.337659E+01
-8.000000 38.000000 9.062829E+00
-8.000000 36.000000 -1.692612E+01
-8.000000 34.000000 -3.708516E+01
-8.000000 32.000000 -3.919707E+01
-8.000000 30.000000 -3.384761E+01
-8.000000 28.000000 -2.983005E+01
-8.000000 26.000000 -3.095384E+01
-8.000000 24.000000 -3.825711E+01
-8.000000 22.000000 -3.910721E+01
-8.000000 20.000000 -3.338003E+01
-8.000000 18.000000 -3.099061E+01
-8.000000 16.000000 -3.967978E+01
-8.000000 14.000000 -5.183764E+01
-8.000000 12.000000 -5.783378E+01
-8.000000 10.000000 -5.600263E+01
-8.000000 8.000000 -3.838397E+01
-8.000000 6.000000 -8.090839E+00
-8.000000 4.000000 2.685515E+01
-8.000000 2.000000 4.578008E+01
-8.000000 0.000000 4.653772E+01
-8.000000 -2.000000 4.202987E+01
-8.000000 -4.000000 4.498608E+01
-8.000000 -6.000000 4.149410E+01
-8.000000 -8.000000 2.863890E+01
-8.000000 -10.000000 2.279971E+01
-8.000000 -12.000000 2.072625E+01
-8.000000 -14.000000 1.743892E+01
-8.000000 -16.000000 1.231747E+01
-8.000000 -18.000000 1.061063E+01
-8.000000 -20.000000 9.496372E+00
-8.000000 -22.000000 3.173296E+00
-8.000000 -24.000000 -6.619312E+00
-8.000000 -26.000000 -1.562953E+01
-8.000000 -28.000000 -2.114286E+01
-8.000000 -30.000000 -1.414096E+01
-8.000000 -32.000000 5.220534E+00
-8.000000 -34.000000 2.381316E+01
-8.000000 -36.000000 2.197851E+01
-8.000000 -38.000000 7.288405E+00
-8.000000 -40.000000 -1.363876E+01
-6.000000 40.000000 4.063593E+01
-6.000000 38.000000 6.509130E+00
-6.000000 36.000000 -1.916779E+01
-6.000000 34.000000 -3.670753E+01
-6.000000 32.000000 -3.379004E+01
-6.000000 30.000000 -2.358576E+01
-6.000000 28.000000 -1.653443E+01
-6.000000 26.000000 -1.715083E+01
-6.000000 24.000000 -2.382213E+01
-6.000000 22.000000 -2.593920E+01
-6.000000 20.000000 -2.041118E+01
-6.000000 18.000000 -1.836493E+01
-6.000000 16.000000 -2.821211E+01
-6.000000 14.000000 -4.391701E+01
-6.000000 12.000000 -5.531686E+01
-6.000000 10.000000 -5.720386E+01
-6.000000 8.000000 -3.874718E+01
-6.000000 6.000000 -6.473881E+00
-6.000000 4.000000 3.296006E+01
-6.000000 2.000000 5.455207E+01
-6.000000 0.000000 5.444310E+01
-6.000000 -2.000000 4.648800E+01
-6.000000 -4.000000 4.703906E+01
-6.000000 -6.000000 4.246618E+01
-6.000000 -8.000000 2.623809E+01
-6.000000 -10.000000 1.734510E+01
-6.000000 -12.000000 1.373481E+01
-6.000000 -14.000000 7.585206E+00
-6.000000 -16.000000 3.407930E-01
-6.000000 -18.000000 -1.294150E-01
-6.000000 -20.000000 2.999796E+00
-6.000000 -22.000000 3.832531E-02
-6.000000 -24.000000 -6.495274E+00
-6.000000 -26.000000 -1.337146E+01
-6.000000 -28.000000 -2.045130E+01
-6.000000 -30.000000 -1.350145E+01
-6.000000 -32.000000 6.152011E+00
-6.000000 -34.000000 2.543898E+01
-6.000000 -36.000000 2.564542E+01
-6.000000 -38.000000 1.188776E+01
-6.000000 -40.000000 -1.094335E+01
-4.000000 40.000000 3.765030E+01
-4.000000 38.000000 5.193138E+00
-4.000000 36.000000 -1.893963E+01
-4.000000 34.000000 -3.279547E+01
-4.000000 32.000000 -2.435808E+01
-4.000000 30.000000 -9.582180E+00
-4.000000 28.000000 8.993626E-02
-4.000000 26.000000 -8.237514E-01
-4.000000 24.000000 -8.767996E+00
-4.000000 22.000000 -1.429714E+01
-4.000000 20.000000 -9.736772E+00
-4.000000 18.000000 -5.068655E+00
-4.000000 16.000000 -9.411847E+00
-4.000000 14.000000 -2.173540E+01
-4.000000 12.000000 -3.676557E+01
-4.000000 10.000000 -4.374744E+01
-4.000000 8.000000 -2.982225E+01
-4.000000 6.000000 -1.962917E+00
-4.000000 4.000000 3.309922E+01
-4.000000 2.000000 4.706902E+01
-4.000000 0.000000 3.909401E+01
-4.000000 -2.000000 2.808623E+01
-4.000000 -4.000000 2.657427E+01
-4.000000 -6.000000 2.421637E+01
-4.000000 -8.000000 1.276853E+01
-4.000000 -10.000000 6.299631E+00
-4.000000 -12.000000 5.166189E+00
-4.000000 -14.000000 -2.121150E-01
-4.000000 -16.000000 -7.035256E+00
-4.000000 -18.000000 -6.642952E+00
-4.000000 -20.000000 -1.201978E+00
-4.000000 -22.000000 -1.299155E+00
-4.000000 -24.000000 -5.280827E+00
-4.000000 -26.000000 -9.680674E+00
-4.000000 -28.000000 -1.594368E+01
-4.000000 -30.000000 -9.023770E+00
-4.000000 -32.000000 1.059908E+01
-4.000000 -34.000000 3.001514E+01
-4.000000 -36.000000 3.095039E+01
-4.000000 -38.000000 1.707818E+01
-4.000000 -40.000000 -7.724449E+00
-2.000000 40.000000 3.751456E+01
-2.000000 38.000000 6.392655E+00
-2.000000 36.000000 -1.605525E+01
-2.000000 34.000000 -2.723232E+01
-2.000000 32.000000 -1.633370E+01
-2.000000 30.000000 2.042036E-01
-2.000000 28.000000 1.006819E+01
-2.000000 26.000000 7.686467E+00
-2.000000 24.000000 -2.049748E+00
-2.000000 22.000000 -9.894558E+00
-2.000000 20.000000 -4.260180E+00
-2.000000 18.000000 5.968345E+00
-2.000000 16.000000 9.941885E+00
-2.000000 14.000000 4.828187E+00
-2.000000 12.000000 -1.024208E+01
-2.000000 10.000000 -1.967296E+01
-2.000000 8.000000 -1.359213E+01
-2.000000 6.000000 4.401378E+00
-2.000000 4.000000 2.574572E+01
-2.000000 2.000000 2.956125E+01
-2.000000 0.000000 1.520299E+01
-2.000000 -2.000000 2.156425E+00
-2.000000 -4.000000 1.140833E-01
-2.000000 -6.000000 1.288980E+00
-2.000000 -8.000000 -3.242441E+00
-2.000000 -10.000000 -4.404821E+00
-2.000000 -12.000000 -1.959994E+00
-2.000000 -14.000000 -5.960316E+00
-2.000000 -16.000000 -1.207481E+01
-2.000000 -18.000000 -1.017580E+01
-2.000000 -20.000000 -2.330490E+00
-2.000000 -22.000000 6.632442E-01
-2.000000 -24.000000 -1.589464E+00
-2.000000 -26.000000 -4.605117E+00
-2.000000 -28.000000 -8.109797E+00
-2.000000 -30.000000 -1.790945E+00
-2.000000 -32.000000 1.606811E+01
-2.000000 -34.000000 3.442076E+01
-2.000000 -36.000000 3.625800E+01
-2.000000 -38.000000 2.263508E+01
-2.000000 -40.000000 -4.019337E+00
0.000000 40.000000 3.903073E+01
0.000000 38.000000 1.058497E+01
0.000000 36.000000 -9.343068E+00
0.000000 34.000000 -2.026550E+01
0.000000 32.000000 -1.204363E+01
0.000000 30.000000 1.221226E+00
0.000000 28.000000 8.445863E+00
0.000000 26.000000 4.914876E+00
0.000000 24.000000 -4.652173E+00
0.000000 22.000000 -1.107296E+01
0.000000 20.000000 -3.130333E+00
0.000000 18.000000 1.235950E+01
0.000000 16.000000 2.243311E+01
0.000000 14.000000 2.201842E+01
0.000000 12.000000 7.284865E+00
0.000000 10.000000 -5.720147E+00
0.000000 8.000000 -8.389141E+00
0.000000 6.000000 1.853942E+00
0.000000 4.000000 1.373022E+01
0.000000 2.000000 1.217043E+01
0.000000 0.000000 -3.781750E+00
0.000000 -2.000000 -1.716571E+01
0.000000 -4.000000 -1.881908E+01
0.000000 -6.000000 -1.505391E+01
0.000000 -8.000000 -1.425888E+01
0.000000 -10.000000 -9.676665E+00
0.000000 -12.000000 -2.980799E+00
0.000000 -14.000000 -5.007338E+00
0.000000 -16.000000 -9.263428E+00
0.000000 -18.000000 -4.391671E+00
0.000000 -20.000000 6.658156E+00
0.000000 -22.000000 1.145388E+01
0.000000 -24.000000 8.884129E+00
0.000000 -26.000000 5.686192E+00
0.000000 -28.000000 1.242103E+00
0.000000 -30.000000 4.807363E+00
0.000000 -32.000000 2.016012E+01
0.000000 -34.000000 3.629838E+01
0.000000 -36.000000 3.935147E+01
0.000000 -38.000000 2.602234E+01
0.000000 -40.000000 -3.118087E+00
2.000000 40.000000 3.982418E+01
2.000000 38.000000 1.507862E+01
2.000000 36.000000 -7.359400E-01
2.000000 34.000000 -1.268804E+01
2.000000 32.000000 -1.022192E+01
2.000000 30.000000 -3.247906E+00
2.000000 28.000000 3.304844E-01
2.000000 26.000000 -3.961940E+00
2.000000 24.000000 -1.300795E+01
2.000000 22.000000 -1.554614E+01
2.000000 20.000000 -4.655945E+00
2.000000 18.000000 1.242751E+01
2.000000 16.000000 2.131065E+01
2.000000 14.000000 1.798067E+01
2.000000 12.000000 7.767477E-01
2.000000 10.000000 -1.827507E+01
2.000000 8.000000 -2.586232E+01
2.000000 6.000000 -1.597452E+01
2.000000 4.000000 8.482475E-01
2.000000 2.000000 1.935161E+00
2.000000 0.000000 -1.109524E+01
2.000000 -2.000000 -2.111727E+01
2.000000 -4.000000 -2.143483E+01
2.000000 -6.000000 -1.822670E+01
2.000000 -8.000000 -1.553785E+01
2.000000 -10.000000 -8.672105E+00
2.000000 -12.000000 1.856308E+00
2.000000 -14.000000 4.874916E+00
2.000000 -16.000000 6.846906E+00
2.000000 -18.000000 1.536978E+01
2.000000 -20.000000 2.788041E+01
2.000000 -22.000000 3.285911E+01
2.000000 -24.000000 2.641151E+01
2.000000 -26.000000 1.878658E+01
2.000000 -28.000000 1.052292E+01
2.000000 -30.000000 9.595777E+00
2.000000 -32.000000 2.054790E+01
2.000000 -34.000000 3.377402E+01
2.000000 -36.000000 3.602248E+01
2.000000 -38.000000 2.292374E+01
2.000000 -40.000000 -5.866753E+00
4.000000 40.000000 3.907489E+01
4.000000 38.000000 1.699054E+01
4.000000 36.000000 4.949953E+00
4.000000 34.000000 -6.931902E+00
4.000000 32.000000 -8.977365E+00
4.000000 30.000000 -7.426247E+00
4.000000 28.000000 -7.997540E+00
4.000000 26.000000 -1.371088E+01
4.000000 24.000000 -2.221073E+01
4.000000 22.000000 -2.122739E+01
4.000000 20.000000 -7.945261E+00
4.000000 18.000000 7.395740E+00
4.000000 16.000000 1.007882E+01
4.000000 14.000000 -4.228010E-01
4.000000 12.000000 -2.187771E+01
4.000000 10.000000 -4.564794E+01
4.000000 8.000000 -5.351721E+01
4.000000 6.000000 -4.190393E+01
4.000000 4.000000 -1.871439E+01
4.000000 2.000000 -8.942989E+00
4.000000 0.000000 -1.238832E+01
4.000000 -2.000000 -1.565024E+01
4.000000 -4.000000 -1.286808E+01
4.000000 -6.000000 -8.750298E+00
4.000000 -8.000000 -4.586542E+00
4.000000 -10.000000 2.783914E+00
4.000000 -12.000000 1.213522E+01
4.000000 -14.000000 1.823655E+01
4.000000 -16.000000 2.675402E+01
4.000000 -18.000000 4.093782E+01
4.000000 -20.000000 5.353994E+01
4.000000 -22.000000 5.561010E+01
4.000000 -24.000000 4.385812E+01
4.000000 -26.000000 2.933635E+01
4.000000 -28.000000 1.699087E+01
4.000000 -30.000000 1.112644E+01
4.000000 -32.000000 1.568437E+01
4.000000 -34.000000 2.572410E+01
4.000000 -36.000000 2.648527E+01
4.000000 -38.000000 1.542537E+01
4.000000 -40.000000 -9.122420E+00
6.000000 40.000000 3.512915E+01
6.000000 38.000000 1.470069E+01
6.000000 36.000000 4.333664E+00
6.000000 34.000000 -4.878111E+00
6.000000 32.000000 -6.315709E+00
6.000000 30.000000 -7.632961E+00
6.000000 28.000000 -1.215010E+01
6.000000 26.000000 -1.959536E+01
6.000000 24.000000 -2.738784E+01
6.000000 22.000000 -2.435401E+01
6.000000 20.000000 -1.111430E+01
6.000000 18.000000 8.338099E-01
6.000000 16.000000 -2.187621E+00
6.000000 14.000000 -1.899342E+01
6.000000 12.000000 -4.462227E+01
6.000000 10.000000 -7.079254E+01
6.000000 8.000000 -7.881454E+01
6.000000 6.000000 -6.857308E+01
6.000000 4.000000 -4.397111E+01
6.000000 2.000000 -2.508116E+01
6.000000 0.000000 -1.626104E+01
6.000000 -2.000000 -1.009454E+01
6.000000 -4.000000 -9.975940E-01
6.000000 -6.000000 7.179076E+00
6.000000 -8.000000 1.308361E+01
6.000000 -10.000000 2.022458E+01
6.000000 -12.000000 2.520129E+01
6.000000 -14.000000 3.020931E+01
6.000000 -16.000000 4.119656E+01
6.000000 -18.000000 5.957282E+01
6.000000 -20.000000 7.116028E+01
6.000000 -22.000000 6.907715E+01
6.000000 -24.000000 5.295512E+01
6.000000 -26.000000 3.333937E+01
6.000000 -28.000000 1.777134E+01
6.000000 -30.000000 7.867298E+00
6.000000 -32.000000 7.490491E+00
6.000000 -34.000000 1.519059E+01
6.000000 -36.000000 1.653425E+01
6.000000 -38.000000 8.666100E+00
6.000000 -40.000000 -1.220436E+01
8.000000 40.000000 2.741005E+01
8.000000 38.000000 7.121941E+00
8.000000 36.000000 -2.372396E+00
8.000000 34.000000 -6.888608E+00
8.000000 32.000000 -3.555736E+00
8.000000 30.000000 -4.418308E+00
8.000000 28.000000 -1.101507E+01
8.000000 26.000000 -2.000309E+01
8.000000 24.000000 -2.791857E+01
8.000000 22.000000 -2.508384E+01
8.000000 20.000000 -1.284183E+01
8.000000 18.000000 -3.961323E+00
8.000000 16.000000 -1.098760E+01
8.000000 14.000000 -3.153996E+01
8.000000 12.000000 -5.999104E+01
8.000000 10.000000 -8.766417E+01
8.000000 8.000000 -9.596280E+01
8.000000 6.000000 -8.768110E+01
8.000000 4.000000 -6.264147E+01
8.000000 2.000000 -3.803071E+01
8.000000 0.000000 -1.969178E+01
8.000000 -2.000000 -4.007771E+00
8.000000 -4.000000 1.287994E+01
8.000000 -6.000000 2.580360E+01
8.000000 -8.000000 3.135721E+01
8.000000 -10.000000 3.458303E+01
8.000000 -12.000000 3.513049E+01
8.000000 -14.000000 3.729907E+01
8.000000 -16.000000 4.534527E+01
8.000000 -18.000000 6.074315E+01
8.000000 -20.000000 6.989923E+01
8.000000 -22.000000 6.593795E+01
8.000000 -24.000000 4.860319E+01
8.000000 -26.000000 2.771465E+01
8.000000 -28.000000 1.146084E+01
8.000000 -30.000000 9.175482E-01
8.000000 -32.000000 1.729746E-01
8.000000 -34.000000 8.258357E+00
8.000000 -36.000000 1.055337E+01
8.000000 -38.000000 3.864357E+00
8.000000 -40.000000 -1.560861E+01
10.000000 40.000000 1.859191E+01
10.000000 38.000000 -3.514127E+00
10.000000 36.000000 -1.329366E+01
10.000000 34.000000 -1.421025E+01
10.000000 32.000000 -5.251674E+00
10.000000 30.000000 -2.102579E+00
10.000000 28.000000 -7.611678E+00
10.000000 26.000000 -1.710162E+01
10.000000 24.000000 -2.579188E+01
10.000000 22.000000 -2.552758E+01
10.000000 20.000000 -1.491994E+01
10.000000 18.000000 -7.786027E+00
10.000000 16.000000 -1.689462E+01
10.000000 14.000000 -3.826230E+01
10.000000 12.000000 -6.538723E+01
10.000000 10.000000 -8.935903E+01
10.000000 8.000000 -9.410904E+01
10.000000 6.000000 -8.581214E+01
10.000000 4.000000 -6.375859E+01
10.000000 2.000000 -4.018917E+01
10.000000 0.000000 -1.956399E+01
10.000000 -2.000000 1.825031E+00
10.000000 -4.000000 2.513333E+01
10.000000 -6.000000 4.190294E+01
10.000000 -8.000000 4.567248E+01
10.000000 -10.000000 4.382231E+01
10.000000 -12.000000 3.909544E+01
10.000000 -14.000000 3.554970E+01
10.000000 -16.000000 3.573650E+01
10.000000 -18.000000 4.366468E+01
10.000000 -20.000000 5.052041E+01
10.000000 -22.000000 4.661839E+01
10.000000 -24.000000 3.157913E+01
10.000000 -26.000000 1.392699E+01
10.000000 -28.000000 -3.766813E-01
10.000000 -30.000000 -8.145348E+00
10.000000 -32.000000 -4.437590E+00
10.000000 -34.000000 7.094805E+00
10.000000 -36.000000 9.833424E+00
10.000000 -38.000000 1.490819E+00
10.000000 -40.000000 -1.888178E+01
12.000000 40.000000 1.216583E+01
12.000000 38.000000 -1.339461E+01
12.000000 36.000000 -2.664216E+01
12.000000 34.000000 -2.765386E+01
12.000000 32.000000 -1.364283E+01
12.000000 30.000000 -3.814946E+00
12.000000 28.000000 -4.864376E+00
12.000000 26.000000 -1.326102E+01
12.000000 24.000000 -2.353227E+01
12.000000 22.000000 -2.665574E+01
12.000000 20.000000 -1.915258E+01
12.000000 18.000000 -1.205267E+01
12.000000 16.000000 -1.894966E+01
12.000000 14.000000 -3.752101E+01
12.000000 12.000000 -6.013519E+01
12.000000 10.000000 -7.664323E+01
12.000000 8.000000 -7.479157E+01
12.000000 6.000000 -6.333199E+01
12.000000 4.000000 -4.551438E+01
12.000000 2.000000 -2.919472E+01
12.000000 0.000000 -1.404599E+01
12.000000 -2.000000 6.961423E+00
12.000000 -4.000000 3.291580E+01
12.000000 -6.000000 5.159458E+01
12.000000 -8.000000 5.391612E+01
12.000000 -10.000000 4.878702E+01
12.000000 -12.000000 3.905947E+01
12.000000 -14.000000 2.795662E+01
12.000000 -16.000000 1.814313E+01
12.000000 -18.000000 1.831077E+01
12.000000 -20.000000 2.277454E+01
12.000000 -22.000000 1.861971E+01
12.000000 -24.000000 7.218775E+00
12.000000 -26.000000 -4.200333E+00
12.000000 -28.000000 -1.430921E+01
12.000000 -30.000000 -1.763117E+01
12.000000 -32.000000 -7.578740E+00
12.000000 -34.000000 8.290379E+00
12.000000 -36.000000 1.209302E+01
12.000000 -38.000000 1.445941E+00
12.000000 -40.000000 -2.131281E+01
14.000000 40.000000 9.048183E+00
14.000000 38.000000 -2.152359E+01
14.000000 36.000000 -3.960578E+01
14.000000 34.000000 -4.303357E+01
14.000000 32.000000 -2.497773E+01
14.000000 30.000000 -7.834388E+00
14.000000 28.000000 -3.368819E+00
14.000000 26.000000 -1.036748E+01
14.000000 24.000000 -2.193412E+01
14.000000 22.000000 -2.806814E+01
14.000000 20.000000 -2.278127E+01
14.000000 18.000000 -1.384258E+01
14.000000 16.000000 -1.610318E+01
14.000000 14.000000 -2.952678E+01
14.000000 12.000000 -4.725772E+01
14.000000 10.000000 -5.685616E+01
14.000000 8.000000 -4.819763E+01
14.000000 6.000000 -3.101402E+01
14.000000 4.000000 -1.462648E+01
14.000000 2.000000 -7.602730E+00
14.000000 0.000000 -1.940094E+00
14.000000 -2.000000 1.346651E+01
14.000000 -4.000000 3.750482E+01
14.000000 -6.000000 5.519536E+01
14.000000 -8.000000 5.725283E+01
14.000000 -10.000000 5.155153E+01
14.000000 -12.000000 3.679490E+01
14.000000 -14.000000 1.699327E+01
14.000000 -16.000000 -7.127905E-01
14.000000 -18.000000 -6.155863E+00
14.000000 -20.000000 -4.338270E+00
14.000000 -22.000000 -8.492968E+00
14.000000 -24.000000 -1.701839E+01
14.000000 -26.000000 -2.288645E+01
14.000000 -28.000000 -2.668025E+01
14.000000 -30.000000 -2.422812E+01
14.000000 -32.000000 -9.680864E+00
14.000000 -34.000000 8.600513E+00
14.000000 -36.000000 1.249417E+01
14.000000 -38.000000 1.110223E+00
14.000000 -40.000000 -2.203476E+01
16.000000 40.000000 7.802767E+00
16.000000 38.000000 -2.644550E+01
16.000000 36.000000 -4.747144E+01
16.000000 34.000000 -5.366863E+01
16.000000 32.000000 -3.404438E+01
16.000000 30.000000 -1.170956E+01
16.000000 28.000000 -2.661267E+00
16.000000 26.000000 -7.745719E+00
16.000000 24.000000 -1.815332E+01
16.000000 22.000000 -2.512115E+01
16.000000 20.000000 -1.992034E+01
16.000000 18.000000 -9.390734E+00
16.000000 16.000000 -9.296781E+00
16.000000 14.000000 -1.836681E+01
16.000000 12.000000 -3.087526E+01
16.000000 10.000000 -3.428599E+01
16.000000 8.000000 -2.116199E+01
16.000000 6.000000 3.404090E-01
16.000000 4.000000 1.508469E+01
16.000000 2.000000 1.541642E+01
16.000000 0.000000 1.414213E+01
16.000000 -2.000000 2.210111E+01
16.000000 -4.000000 4.117069E+01
16.000000 -6.000000 5.666817E+01
16.000000 -8.000000 5.951831E+01
16.000000 -10.000000 5.421183E+01
16.000000 -12.000000 3.225347E+01
16.000000 -14.000000 1.398285E+00
16.000000 -16.000000 -2.223577E+01
16.000000 -18.000000 -2.763311E+01
16.000000 -20.000000 -2.409668E+01
16.000000 -22.000000 -2.688141E+01
16.000000 -24.000000 -3.334791E+01
16.000000 -26.000000 -3.535354E+01
16.000000 -28.000000 -3.358705E+01
16.000000 -30.000000 -2.633163E+01
16.000000 -32.000000 -1.003405E+01
16.000000 -34.000000 8.225700E+00
16.000000 -36.000000 1.068821E+01
16.000000 -38.000000 -3.750830E-01
16.000000 -40.000000 -2.200871E+01
18.000000 40.000000 8.356177E+00
18.000000 38.000000 -2.575050E+01
18.000000 36.000000 -4.794403E+01
18.000000 34.000000 -5.661913E+01
18.000000 32.000000 -3.765572E+01
18.000000 30.000000 -1.344880E+01
18.000000 28.000000 -8.481256E-01
18.000000 26.000000 -2.201309E+00
18.000000 24.000000 -9.010173E+00
18.000000 22.000000 -1.380479E+01
18.000000 20.000000 -8.139160E+00
18.000000 18.000000 1.450112E+00
18.000000 16.000000 1.452809E+00
18.000000 14.000000 -6.594350E+00
18.000000 12.000000 -1.761023E+01
18.000000 10.000000 -1.936126E+01
18.000000 8.000000 -6.606854E+00
18.000000 6.000000 1.621625E+01
18.000000 4.000000 3.121614E+01
18.000000 2.000000 2.889086E+01
18.000000 0.000000 2.333151E+01
18.000000 -2.000000 2.655717E+01
18.000000 -4.000000 4.276115E+01
18.000000 -6.000000 5.699669E+01
18.000000 -8.000000 6.205310E+01
18.000000 -10.000000 5.883341E+01
18.000000 -12.000000 3.117460E+01
18.000000 -14.000000 -1.067267E+01
18.000000 -16.000000 -3.910978E+01
18.000000 -18.000000 -4.084005E+01
18.000000 -20.000000 -3.168673E+01
18.000000 -22.000000 -3.208198E+01
18.000000 -24.000000 -3.729257E+01
18.000000 -26.000000 -3.652794E+01
18.000000 -28.000000 -3.294759E+01
18.000000 -30.000000 -2.493841E+01
18.000000 -32.000000 -8.553764E+00
18.000000 -34.000000 8.616742E+00
18.000000 -36.000000 9.055156E+00
18.000000 -38.000000 -2.314095E+00
18.000000 -40.000000 -2.348490E+01
20.000000 40.000000 1.122278E+01
20.000000 38.000000 -1.975635E+01
20.000000 36.000000 -4.089865E+01
20.000000 34.000000 -5.061590E+01
20.000000 32.000000 -3.277323E+01
20.000000 30.000000 -8.572545E+00
20.000000 28.000000 5.145934E+00
20.000000 26.000000 6.063750E+00
20.000000 24.000000 2.637140E+00
20.000000 22.000000 -3.725441E-01
20.000000 20.000000 5.448181E+00
20.000000 18.000000 1.337320E+01
20.000000 16.000000 1.147106E+01
20.000000 14.000000 6.512370E-01
20.000000 12.000000 -1.509589E+01
20.000000 10.000000 -2.214884E+01
20.000000 8.000000 -1.343731E+01
20.000000 6.000000 7.239557E+00
20.000000 4.000000 2.326513E+01
20.000000 2.000000 2.153644E+01
20.000000 0.000000 1.621457E+01
20.000000 -2.000000 2.313455E+01
20.000000 -4.000000 4.504993E+01
20.000000 -6.000000 6.547977E+01
20.000000 -8.000000 7.499789E+01
20.000000 -10.000000 7.183109E+01
20.000000 -12.000000 3.834562E+01
20.000000 -14.000000 -1.237602E+01
20.000000 -16.000000 -4.561679E+01
20.000000 -18.000000 -4.533190E+01
20.000000 -20.000000 -3.053484E+01
20.000000 -22.000000 -2.522120E+01
20.000000 -24.000000 -2.811741E+01
20.000000 -26.000000 -2.777581E+01
20.000000 -28.000000 -2.610627E+01
20.000000 -30.000000 -1.988815E+01
20.000000 -32.000000 -5.185835E+00
20.000000 -34.000000 9.751980E+00
20.000000 -36.000000 8.059036E+00
20.000000 -38.000000 -4.595289E+00
20.000000 -40.000000 -2.642700E+01
22.000000 40.000000 1.482534E+01
22.000000 38.000000 -1.016995E+01
22.000000 36.000000 -2.644084E+01
22.000000 34.000000 -3.390950E+01
22.000000 32.000000 -1.763515E+01
22.000000 30.000000 3.618802E+00
22.000000 28.000000 1.427551E+01
22.000000 26.000000 1.318750E+01
22.000000 24.000000 9.289691E+00
22.000000 22.000000 6.239874E+00
22.000000 20.000000 1.291212E+01
22.000000 18.000000 2.053408E+01
22.000000 16.000000 1.551738E+01
22.000000 14.000000 -4.159290E-01
22.000000 12.000000 -2.217569E+01
22.000000 10.000000 -3.698210E+01
22.000000 8.000000 -3.478603E+01
22.000000 6.000000 -2.278925E+01
22.000000 4.000000 -1.477833E+01
22.000000 2.000000 -1.392661E+01
22.000000 0.000000 -9.518584E+00
22.000000 -2.000000 1.145413E+01
22.000000 -4.000000 4.972029E+01
22.000000 -6.000000 8.733755E+01
22.000000 -8.000000 1.035178E+02
22.000000 -10.000000 9.824592E+01
22.000000 -12.000000 5.424271E+01
22.000000 -14.000000 -5.811883E+00
22.000000 -16.000000 -4.494560E+01
22.000000 -18.000000 -4.336214E+01
22.000000 -20.000000 -2.346101E+01
22.000000 -22.000000 -1.210479E+01
22.000000 -24.000000 -1.155929E+01
22.000000 -26.000000 -1.391489E+01
22.000000 -28.000000 -1.666995E+01
22.000000 -30.000000 -1.275707E+01
22.000000 -32.000000 -8.296299E-01
22.000000 -34.000000 1.091353E+01
22.000000 -36.000000 7.932393E+00
22.000000 -38.000000 -5.915513E+00
22.000000 -40.000000 -2.919403E+01
24.000000 40.000000 1.802474E+01
24.000000 38.000000 5.759096E-01
24.000000 36.000000 -9.748490E+00
24.000000 34.000000 -1.276613E+01
24.000000 32.000000 2.164209E+00
24.000000 30.000000 1.788070E+01
24.000000 28.000000 2.296461E+01
24.000000 26.000000 1.717244E+01
24.000000 24.000000 8.649448E+00
24.000000 22.000000 4.421763E+00
24.000000 20.000000 1.247734E+01
24.000000 18.000000 2.199016E+01
24.000000 16.000000 1.699795E+01
24.000000 14.000000 -2.680455E+00
24.000000 12.000000 -3.084833E+01
24.000000 10.000000 -5.534021E+01
24.000000 8.000000 -6.263779E+01
24.000000 6.000000 -6.216899E+01
24.000000 4.000000 -6.298161E+01
24.000000 2.000000 -6.074672E+01
24.000000 0.000000 -4.744994E+01
24.000000 -2.000000 -1.095386E+01
24.000000 -4.000000 4.492764E+01
24.000000 -6.000000 9.969379E+01
24.000000 -8.000000 1.247968E+02
24.000000 -10.000000 1.234958E+02
24.000000 -12.000000 7.624807E+01
24.000000 -14.000000 1.251450E+01
24.000000 -16.000000 -2.988653E+01
24.000000 -18.000000 -2.742425E+01
24.000000 -20.000000 -6.684070E+00
24.000000 -22.000000 3.327330E+00
24.000000 -24.000000 3.138525E+00
24.000000 -26.000000 -1.825470E+00
24.000000 -28.000000 -9.291861E+00
24.000000 -30.000000 -7.801201E+00
24.000000 -32.000000 2.205077E+00
24.000000 -34.000000 1.097800E+01
24.000000 -36.000000 7.475212E+00
24.000000 -38.000000 -6.423224E+00
24.000000 -40.000000 -3.086511E+01
26.000000 40.000000 2.053450E+01
26.000000 38.000000 8.919755E+00
26.000000 36.000000 2.302502E+00
26.000000 34.000000 2.238465E+00
26.000000 32.000000 1.667639E+01
26.000000 30.000000 2.847895E+01
26.000000 28.000000 2.854082E+01
26.000000 26.000000 1.743316E+01
26.000000 24.000000 2.546667E+00
26.000000 22.000000 -3.992250E+00
26.000000 20.000000 5.413700E+00
26.000000 18.000000 1.900895E+01
26.000000 16.000000 1.773297E+01
26.000000 14.000000 -2.575994E+00
26.000000 12.000000 -3.663090E+01
26.000000 10.000000 -7.042797E+01
26.000000 8.000000 -8.709376E+01
26.000000 6.000000 -9.481645E+01
26.000000 4.000000 -9.761022E+01
26.000000 2.000000 -9.610332E+01
26.000000 0.000000 -8.106796E+01
26.000000 -2.000000 -3.606584E+01
26.000000 -4.000000 2.885854E+01
26.000000 -6.000000 9.169355E+01
26.000000 -8.000000 1.261807E+02
26.000000 -10.000000 1.336762E+02
26.000000 -12.000000 9.726357E+01
26.000000 -14.000000 4.395095E+01
26.000000 -16.000000 4.438929E+00
26.000000 -18.000000 4.028597E-01
26.000000 -20.000000 1.146335E+01
26.000000 -22.000000 1.361540E+01
26.000000 -24.000000 8.212593E+00
26.000000 -26.000000 6.579151E-01
26.000000 -28.000000 -7.370382E+00
26.000000 -30.000000 -6.354340E+00
26.000000 -32.000000 2.474709E+00
26.000000 -34.000000 9.764310E+00
26.000000 -36.000000 5.387702E+00
26.000000 -38.000000 -7.841894E+00
26.000000 -40.000000 -3.070813E+01
28.000000 40.000000 2.206305E+01
28.000000 38.000000 1.179934E+01
28.000000 36.000000 5.135650E+00
28.000000 34.000000 4.740630E+00
28.000000 32.000000 1.872758E+01
28.000000 30.000000 2.966386E+01
28.000000 28.000000 2.760094E+01
28.000000 26.000000 1.360616E+01
28.000000 24.000000 -5.840542E+00
28.000000 22.000000 -1.491922E+01
28.000000 20.000000 -5.407430E+00
28.000000 18.000000 1.057492E+01
28.000000 16.000000 1.237260E+01
28.000000 14.000000 -5.949901E+00
28.000000 12.000000 -3.952456E+01
28.000000 10.000000 -7.370339E+01
28.000000 8.000000 -9.236980E+01
28.000000 6.000000 -1.019822E+02
28.000000 4.000000 -1.056195E+02
28.000000 2.000000 -1.050819E+02
28.000000 0.000000 -9.159880E+01
28.000000 -2.000000 -5.010211E+01
28.000000 -4.000000 1.063762E+01
28.000000 -6.000000 7.331051E+01
28.000000 -8.000000 1.146342E+02
28.000000 -10.000000 1.322541E+02
28.000000 -12.000000 1.128968E+02
28.000000 -14.000000 7.560104E+01
28.000000 -16.000000 4.022525E+01
28.000000 -18.000000 2.378846E+01
28.000000 -20.000000 1.861052E+01
28.000000 -22.000000 1.131622E+01
28.000000 -24.000000 1.071171E+00
28.000000 -26.000000 -7.131644E+00
28.000000 -28.000000 -1.122316E+01
28.000000 -30.000000 -7.871839E+00
28.000000 -32.000000 6.694450E-01
28.000000 -34.000000 8.407191E+00
28.000000 -36.000000 3.802185E+00
28.000000 -38.000000 -9.358313E+00
28.000000 -40.000000 -2.967145E+01
30.000000 40.000000 2.229885E+01
30.000000 38.000000 7.903882E+00
30.000000 36.000000 -2.984314E+00
30.000000 34.000000 -6.665439E+00
30.000000 32.000000 7.080247E+00
30.000000 30.000000 2.010873E+01
30.000000 28.000000 1.993091E+01
30.000000 26.000000 6.903789E+00
30.000000 24.000000 -1.308953E+01
30.000000 22.000000 -2.388285E+01
30.000000 20.000000 -1.742986E+01
30.000000 18.000000 -4.083772E+00
30.000000 16.000000 -2.295609E+00
30.000000 14.000000 -1.714913E+01
30.000000 12.000000 -4.288549E+01
30.000000 10.000000 -6.678239E+01
30.000000 8.000000 -7.735800E+01
30.000000 6.000000 -8.005496E+01
30.000000 4.000000 -8.173488E+01
30.000000 2.000000 -8.431676E+01
30.000000 0.000000 -7.782197E+01
30.000000 -2.000000 -4.838703E+01
30.000000 -4.000000 1.331396E-01
30.000000 -6.000000 5.600781E+01
30.000000 -8.000000 9.840447E+01
30.000000 -10.000000 1.236303E+02
30.000000 -12.000000 1.204713E+02
30.000000 -14.000000 9.692664E+01
30.000000 -16.000000 6.364708E+01
30.000000 -18.000000 3.585173E+01
30.000000 -20.000000 1.571161E+01
30.000000 -22.000000 -7.452345E-01
30.000000 -24.000000 -1.332578E+01
30.000000 -26.000000 -1.942557E+01
30.000000 -28.000000 -1.855236E+01
30.000000 -30.000000 -1.203716E+01
30.000000 -32.000000 -2.550235E+00
30.000000 -34.000000 6.452996E+00
30.000000 -36.000000 3.078659E+00
30.000000 -38.000000 -1.027359E+01
30.000000 -40.000000 -2.934405E+01
32.000000 40.000000 2.037210E+01
32.000000 38.000000 -9.432278E-01
32.000000 36.000000 -1.802066E+01
32.000000 34.000000 -2.705455E+01
32.000000 32.000000 -1.329796E+01
32.000000 30.000000 3.945153E+00
32.000000 28.000000 7.852204E+00
32.000000 26.000000 -1.982842E+00
32.000000 24.000000 -1.949065E+01
32.000000 22.000000 -3.097869E+01
32.000000 20.000000 -2.807100E+01
32.000000 18.000000 -1.940152E+01
32.000000 16.000000 -1.964299E+01
32.000000 14.000000 -3.179155E+01
32.000000 12.000000 -4.837847E+01
32.000000 10.000000 -5.866917E+01
32.000000 8.000000 -5.575355E+01
32.000000 6.000000 -4.610938E+01
32.000000 4.000000 -4.225694E+01
32.000000 2.000000 -4.867047E+01
32.000000 0.000000 -5.122153E+01
32.000000 -2.000000 -3.443838E+01
32.000000 -4.000000 1.171434E+00
32.000000 -6.000000 4.618425E+01
32.000000 -8.000000 8.453257E+01
32.000000 -10.000000 1.129184E+02
32.000000 -12.000000 1.210817E+02
32.000000 -14.000000 1.068212E+02
32.000000 -16.000000 7.437478E+01
32.000000 -18.000000 3.838768E+01
32.000000 -20.000000 8.088017E+00
32.000000 -22.000000 -1.367306E+01
32.000000 -24.000000 -2.566545E+01
32.000000 -26.000000 -2.851715E+01
32.000000 -28.000000 -2.492936E+01
32.000000 -30.000000 -1.726691E+01
32.000000 -32.000000 -7.013480E+00
32.000000 -34.000000 2.992700E+00
32.000000 -36.000000 8.443699E-01
32.000000 -38.000000 -1.187345E+01
32.000000 -40.000000 -3.018005E+01
34.000000 40.000000 1.582495E+01
34.000000 38.000000 -1.070110E+01
34.000000 36.000000 -3.266107E+01
34.000000 34.000000 -4.702599E+01
34.000000 32.000000 -3.519863E+01
34.000000 30.000000 -1.583446E+01
34.000000 28.000000 -7.697156E+00
34.000000 26.000000 -1.248849E+01
34.000000 24.000000 -2.462506E+01
34.000000 22.000000 -3.435182E+01
34.000000 20.000000 -3.270361E+01
34.000000 18.000000 -2.729638E+01
34.000000 16.000000 -3.049136E+01
34.000000 14.000000 -4.276385E+01
34.000000 12.000000 -5.437262E+01
34.000000 10.000000 -5.577081E+01
34.000000 8.000000 -4.214094E+01
34.000000 6.000000 -2.251392E+01
34.000000 4.000000 -1.360380E+01
34.000000 2.000000 -1.966442E+01
34.000000 0.000000 -2.558863E+01
34.000000 -2.000000 -1.693486E+01
34.000000 -4.000000 9.347613E+00
34.000000 -6.000000 4.344853E+01
34.000000 -8.000000 7.504271E+01
34.000000 -10.000000 1.040878E+02
34.000000 -12.000000 1.180171E+02
34.000000 -14.000000 1.095822E+02
34.000000 -16.000000 7.767263E+01
34.000000 -18.000000 3.708171E+01
34.000000 -20.000000 2.884805E+00
34.000000 -22.000000 -1.956567E+01
34.000000 -24.000000 -2.912597E+01
34.000000 -26.000000 -2.901503E+01
34.000000 -28.000000 -2.687652E+01
34.000000 -30.000000 -2.187468E+01
34.000000 -32.000000 -1.223122E+01
34.000000 -34.000000 -1.616475E+00
34.000000 -36.000000 -2.939734E+00
34.000000 -38.000000 -1.458392E+01
34.000000 -40.000000 -3.240022E+01
36.000000 40.000000 9.646934E+00
36.000000 38.000000 -1.858340E+01
36.000000 36.000000 -4.295975E+01
36.000000 34.000000 -6.036020E+01
36.000000 32.000000 -5.206060E+01
36.000000 30.000000 -3.473903E+01
36.000000 28.000000 -2.345951E+01
36.000000 26.000000 -2.219188E+01
36.000000 24.000000 -2.781908E+01
36.000000 22.000000 -3.265167E+01
36.000000 20.000000 -2.982031E+01
36.000000 18.000000 -2.419528E+01
36.000000 16.000000 -2.869293E+01
36.000000 14.000000 -4.336569E+01
36.000000 12.000000 -5.751491E+01
36.000000 10.000000 -6.047073E+01
36.000000 8.000000 -4.468163E+01
36.000000 6.000000 -2.119091E+01
36.000000 4.000000 -5.736121E+00
36.000000 2.000000 -6.530750E+00
36.000000 0.000000 -1.087418E+01
36.000000 -2.000000 -4.763406E+00
36.000000 -4.000000 1.633614E+01
36.000000 -6.000000 4.148850E+01
36.000000 -8.000000 6.537911E+01
36.000000 -10.000000 9.345511E+01
36.000000 -12.000000 1.113875E+02
36.000000 -14.000000 1.089140E+02
36.000000 -16.000000 8.065287E+01
36.000000 -18.000000 4.181487E+01
36.000000 -20.000000 8.434184E+00
36.000000 -22.000000 -1.447014E+01
36.000000 -24.000000 -2.358411E+01
36.000000 -26.000000 -2.301302E+01
36.000000 -28.000000 -2.482022E+01
36.000000 -30.000000 -2.466655E+01
36.000000 -32.000000 -1.713932E+01
36.000000 -34.000000 -6.567825E+00
36.000000 -36.000000 -7.324613E+00
36.000000 -38.000000 -1.803540E+01
36.000000 -40.000000 -3.581302E+01
38.000000 40.000000 3.154244E+00
38.000000 38.000000 -2.473458E+01
38.000000 36.000000 -4.909071E+01
38.000000 34.000000 -6.686284E+01
38.000000 32.000000 -6.053133E+01
38.000000 30.000000 -4.577137E+01
38.000000 28.000000 -3.358192E+01
38.000000 26.000000 -2.821113E+01
38.000000 24.000000 -2.835303E+01
38.000000 22.000000 -2.772600E+01
38.000000 20.000000 -2.046949E+01
38.000000 18.000000 -9.781188E+00
38.000000 16.000000 -1.384167E+01
38.000000 14.000000 -3.234024E+01
38.000000 12.000000 -5.440187E+01
38.000000 10.000000 -6.648878E+01
38.000000 8.000000 -5.516880E+01
