-30.000000 2.000000 4.843223E+00
-30.000000 0.000000 3.467628E+00
-30.000000 -2.000000 -5.149059E-01
-30.000000 -4.000000 -1.083043E+00
-30.000000 -6.000000 -1.661489E+00
-30.000000 -8.000000 -2.144841E+00
-30.000000 -10.000000 9.649754E-01
-30.000000 -12.000000 1.655593E+01
-30.000000 -14.000000 4.218511E+01
-30.000000 -16.000000 7.129082E+01
-30.000000 -18.000000 9.271955E+01
-30.000000 -20.000000 1.014845E+02
-30.000000 -22.000000 9.987303E+01
-30.000000 -24.000000 9.053789E+01
-30.000000 -26.000000 8.070304E+01
-30.000000 -28.000000 7.760707E+01
-30.000000 -30.000000 7.661348E+01
-30.000000 -32.000000 7.103416E+01
-30.000000 -34.000000 6.131930E+01
-30.000000 -36.000000 4.291486E+01
-30.000000 -38.000000 2.794008E+01
-30.000000 -40.000000 1.474045E+01
-28.000000 40.000000 4.482774E+01
-28.000000 38.000000 4.218455E+01
-28.000000 36.000000 3.293863E+01
-28.000000 34.000000 1.718082E+01
-28.000000 32.000000 1.248634E+01
-28.000000 30.000000 2.140119E+01
-28.000000 28.000000 3.069011E+01
-28.000000 26.000000 3.034149E+01
-28.000000 24.000000 1.529849E+01
-28.000000 22.000000 1.015825E+00
-28.000000 20.000000 1.189371E+01
-28.000000 18.000000 3.583557E+01
-28.000000 16.000000 4.865183E+01
-28.000000 14.000000 4.300070E+01
-28.000000 12.000000 1.501124E+01
-28.000000 10.000000 -1.856663E+01
-28.000000 8.000000 -2.241500E+01
-28.000000 6.000000 -1.068952E+01
-28.000000 4.000000 3.031170E+00
-28.000000 2.000000 1.416331E+00
-28.000000 0.000000 -7.929852E+00
-28.000000 -2.000000 -1.566114E+01
-28.000000 -4.000000 -1.688294E+01
-28.000000 -6.000000 -1.200893E+01
-28.000000 -8.000000 -5.837259E+00
-28.000000 -10.000000 2.929427E+00
-28.000000 -12.000000 2.124519E+01
-28.000000 -14.000000 4.711463E+01
-28.000000 -16.000000 7.461924E+01
-28.000000 -18.000000 9.375743E+01
-28.000000 -20.000000 1.003712E+02
-28.000000 -22.000000 9.577047E+01
-28.000000 -24.000000 8.285717E+01
-28.000000 -26.000000 7.275387E+01
-28.000000 -28.000000 7.383513E+01
-28.000000 -30.000000 7.883574E+01
-28.000000 -32.000000 7.639151E+01
-28.000000 -34.000000 6.757708E+01
-28.000000 -36.000000 4.719729E+01
-28.000000 -38.000000 3.037188E+01
-28.000000 -40.000000 1.467547E+01
-26.000000 40.000000 4.496880E+01
-26.000000 38.000000 3.893184E+01
-26.000000 36.000000 2.522045E+01
-26.000000 34.000000 5.816618E+00
-26.000000 32.000000 3.733339E-01
-26.000000 30.000000 9.688874E+00
-26.000000 28.000000 2.097186E+01
-26.000000 26.000000 2.008910E+01
-26.000000 24.000000 1.214344E+00
-26.000000 22.000000 -1.650915E+01
-26.000000 20.000000 -1.915578E+00
-26.000000 18.000000 3.095502E+01
-26.000000 16.000000 5.152905E+01
-26.000000 14.000000 5.133236E+01
-26.000000 12.000000 2.542119E+01
-26.000000 10.000000 -9.698289E+00
-26.000000 8.000000 -1.434263E+01
-26.000000 6.000000 2.680638E+00
-26.000000 4.000000 1.348504E+01
-26.000000 2.000000 1.993302E+00
-26.000000 0.000000 -1.879961E+01
-26.000000 -2.000000 -3.087773E+01
-26.000000 -4.000000 -3.075411E+01
-26.000000 -6.000000 -1.920909E+01
-26.000000 -8.000000 -6.153297E+00
-26.000000 -10.000000 6.820895E+00
-26.000000 -12.000000 2.529727E+01
-26.000000 -14.000000 4.910739E+01
-26.000000 -16.000000 7.275265E+01
-26.000000 -18.000000 8.839182E+01
-26.000000 -20.000000 9.257392E+01
-26.000000 -22.000000 8.493926E+01
-26.000000 -24.000000 6.718665E+01
-26.000000 -26.000000 5.619292E+01
-26.000000 -28.000000 6.765097E+01
-26.000000 -30.000000 7.961658E+01
-26.000000 -32.000000 7.890829E+01
-26.000000 -34.000000 7.079018E+01
-26.000000 -36.000000 5.057994E+01
-26.000000 -38.000000 3.235029E+01
-26.000000 -40.000000 1.442409E+01
-24.000000 40.000000 4.472829E+01
-24.000000 38.000000 3.300480E+01
-24.000000 36.000000 1.343008E+01
-24.000000 34.000000 -1.009243E+01
-24.000000 32.000000 -1.988454E+01
-24.000000 30.000000 -1.307548E+01
-24.000000 28.000000 -3.922260E+00
-24.000000 26.000000 -3.610343E+00
-24.000000 24.000000 -2.157093E+01
-24.000000 22.000000 -3.390639E+01
-24.000000 20.000000 -1.888293E+01
-24.000000 18.000000 1.466850E+01
-24.000000 16.000000 4.065084E+01
-24.000000 14.000000 4.807513E+01
-24.000000 12.000000 3.118794E+01
-24.000000 10.000000 5.935942E+00
-24.000000 8.000000 3.011559E+00
-24.000000 6.000000 2.039457E+01
-24.000000 4.000000 2.740063E+01
-24.000000 2.000000 1.184259E+01
-24.000000 0.000000 -1.199672E+01
-24.000000 -2.000000 -2.482106E+01
-24.000000 -4.000000 -2.400270E+01
-24.000000 -6.000000 -9.637529E+00
-24.000000 -8.000000 5.776835E+00
-24.000000 -10.000000 1.626116E+01
-24.000000 -12.000000 2.758451E+01
-24.000000 -14.000000 4.248808E+01
-24.000000 -16.000000 5.822556E+01
-24.000000 -18.000000 7.046535E+01
-24.000000 -20.000000 7.272592E+01
-24.000000 -22.000000 6.310290E+01
-24.000000 -24.000000 4.222024E+01
-24.000000 -26.000000 3.414617E+01
-24.000000 -28.000000 5.366587E+01
-24.000000 -30.000000 7.123700E+01
-24.000000 -32.000000 7.150262E+01
-24.000000 -34.000000 6.518174E+01
-24.000000 -36.000000 5.024688E+01
-24.000000 -38.000000 3.229657E+01
-24.000000 -40.000000 1.477138E+01
-22.000000 40.000000 4.178539E+01
-22.000000 38.000000 2.269710E+01
-22.000000 36.000000 -6.924152E-01
-22.000000 34.000000 -2.828562E+01
-22.000000 32.000000 -4.235983E+01
-22.000000 30.000000 -3.905774E+01
-22.000000 28.000000 -3.366718E+01
-22.000000 26.000000 -3.155326E+01
-22.000000 24.000000 -4.420471E+01
-22.000000 22.000000 -5.145599E+01
-22.000000 20.000000 -3.768017E+01
-22.000000 18.000000 -6.623129E+00
-22.000000 16.000000 2.196324E+01
-22.000000 14.000000 3.511375E+01
-22.000000 12.000000 2.533118E+01
-22.000000 10.000000 1.006682E+01
-22.000000 8.000000 1.310790E+01
-22.000000 6.000000 3.030737E+01
-22.000000 4.000000 3.786910E+01
-22.000000 2.000000 2.749018E+01
-22.000000 0.000000 1.265881E+01
-22.000000 -2.000000 6.662545E+00
-22.000000 -4.000000 1.303413E+01
-22.000000 -6.000000 2.708298E+01
-22.000000 -8.000000 3.490122E+01
-22.000000 -10.000000 3.374132E+01
-22.000000 -12.000000 2.834954E+01
-22.000000 -14.000000 3.029999E+01
-22.000000 -16.000000 4.041921E+01
-22.000000 -18.000000 5.199769E+01
-22.000000 -20.000000 5.440808E+01
-22.000000 -22.000000 4.309487E+01
-22.000000 -24.000000 2.100756E+01
-22.000000 -26.000000 1.390124E+01
-22.000000 -28.000000 3.489735E+01
-22.000000 -30.000000 5.351531E+01
-22.000000 -32.000000 5.619122E+01
-22.000000 -34.000000 5.169396E+01
-22.000000 -36.000000 4.214640E+01
-22.000000 -38.000000 2.959893E+01
-22.000000 -40.000000 1.590720E+01
-20.000000 40.000000 3.768346E+01
-20.000000 38.000000 1.468659E+01
-20.000000 36.000000 -1.011309E+01
-20.000000 34.000000 -4.250279E+01
-20.000000 32.000000 -6.240369E+01
-20.000000 30.000000 -6.215330E+01
-20.000000 28.000000 -5.812415E+01
-20.000000 26.000000 -5.501477E+01
-20.000000 24.000000 -6.457663E+01
-20.000000 22.000000 -6.616662E+01
-20.000000 20.000000 -5.050146E+01
-20.000000 18.000000 -1.962988E+01
-20.000000 16.000000 8.885532E+00
-20.000000 14.000000 2.234799E+01
-20.000000 12.000000 1.349409E+01
-20.000000 10.000000 -1.986208E+00
-20.000000 8.000000 8.694720E+00
-20.000000 6.000000 3.355054E+01
-20.000000 4.000000 4.652519E+01
-20.000000 2.000000 4.310389E+01
-20.000000 0.000000 3.821792E+01
-20.000000 -2.000000 4.286145E+01
-20.000000 -4.000000 5.764687E+01
-20.000000 -6.000000 7.004993E+01
-20.000000 -8.000000 6.702437E+01
-20.000000 -10.000000 5.317727E+01
-20.000000 -12.000000 3.270967E+01
-20.000000 -14.000000 2.372379E+01
-20.000000 -16.000000 2.963916E+01
-20.000000 -18.000000 4.193385E+01
-20.000000 -20.000000 4.627620E+01
-20.000000 -22.000000 3.313924E+01
-20.000000 -24.000000 6.489452E+00
-20.000000 -26.000000 -5.457581E+00
-20.000000 -28.000000 1.495251E+01
-20.000000 -30.000000 3.514195E+01
-20.000000 -32.000000 4.087147E+01
-20.000000 -34.000000 3.741570E+01
-20.000000 -36.000000 2.975858E+01
-20.000000 -38.000000 2.093227E+01
-20.000000 -40.000000 1.201655E+01
-18.000000 40.000000 2.994989E+01
-18.000000 38.000000 8.593416E+00
-18.000000 36.000000 -1.531849E+01
-18.000000 34.000000 -4.885203E+01
-18.000000 32.000000 -7.174548E+01
-18.000000 30.000000 -7.392716E+01
-18.000000 28.000000 -7.034818E+01
-18.000000 26.000000 -6.734079E+01
-18.000000 24.000000 -7.417922E+01
-18.000000 22.000000 -6.860971E+01
-18.000000 20.000000 -4.818180E+01
-18.000000 18.000000 -1.726210E+01
-18.000000 16.000000 7.468611E+00
-18.000000 14.000000 1.510609E+01
-18.000000 12.000000 3.362141E-01
-18.000000 10.000000 -2.224665E+01
-18.000000 8.000000 -4.560143E+00
-18.000000 6.000000 3.400755E+01
-18.000000 4.000000 5.637922E+01
-18.000000 2.000000 5.609334E+01
-18.000000 0.000000 5.392740E+01
-18.000000 -2.000000 6.463575E+01
-18.000000 -4.000000 8.359409E+01
-18.000000 -6.000000 9.485398E+01
-18.000000 -8.000000 8.579925E+01
-18.000000 -10.000000 6.531965E+01
-18.000000 -12.000000 3.850486E+01
-18.000000 -14.000000 2.425627E+01
-18.000000 -16.000000 2.701829E+01
-18.000000 -18.000000 3.988457E+01
-18.000000 -20.000000 4.618704E+01
-18.000000 -22.000000 3.242313E+01
-18.000000 -24.000000 -1.535295E+00
-18.000000 -26.000000 -2.328144E+01
-18.000000 -28.000000 3.932838E-01
-18.000000 -30.000000 2.420464E+01
-18.000000 -32.000000 2.859863E+01
-18.000000 -34.000000 2.510576E+01
-18.000000 -36.000000 1.776363E+01
-18.000000 -38.000000 1.003677E+01
-18.000000 -40.000000 4.470907E+00
-16.000000 40.000000 2.033514E+01
-16.000000 38.000000 3.092445E+00
-16.000000 36.000000 -1.864992E+01
-16.000000 34.000000 -4.719081E+01
-16.000000 32.000000 -6.588973E+01
-16.000000 30.000000 -6.964888E+01
-16.000000 28.000000 -6.905722E+01
-16.000000 26.000000 -6.689554E+01
-16.000000 24.000000 -7.031570E+01
-16.000000 22.000000 -5.861752E+01
-16.000000 20.000000 -3.264307E+01
-16.000000 18.000000 -4.628172E-01
-16.000000 16.000000 1.929500E+01
-16.000000 14.000000 1.791344E+01
-16.000000 12.000000 -4.835042E+00
-16.000000 10.000000 -2.955696E+01
-16.000000 8.000000 -1.129962E+01
-16.000000 6.000000 3.130997E+01
-16.000000 4.000000 5.958956E+01
-16.000000 2.000000 6.071333E+01
-16.000000 0.000000 5.779470E+01
-16.000000 -2.000000 6.563122E+01
-16.000000 -4.000000 8.073497E+01
-16.000000 -6.000000 8.994371E+01
-16.000000 -8.000000 8.098569E+01
-16.000000 -10.000000 6.113045E+01
-16.000000 -12.000000 3.712234E+01
-16.000000 -14.000000 2.459407E+01
-16.000000 -16.000000 2.677078E+01
-16.000000 -18.000000 3.784203E+01
-16.000000 -20.000000 4.355243E+01
-16.000000 -22.000000 3.117482E+01
-16.000000 -24.000000 -3.362421E+00
-16.000000 -26.000000 -2.892439E+01
-16.000000 -28.000000 -4.794113E+00
-16.000000 -30.000000 1.878973E+01
-16.000000 -32.000000 2.081323E+01
-16.000000 -34.000000 1.678235E+01
-16.000000 -36.000000 9.043385E+00
-16.000000 -38.000000 1.832113E+00
-16.000000 -40.000000 -2.148764E+00
-14.000000 40.000000 1.196571E+01
-14.000000 38.000000 -9.779148E-01
-14.000000 36.000000 -1.917206E+01
-14.000000 34.000000 -3.980449E+01
-14.000000 32.000000 -5.011911E+01
-14.000000 30.000000 -5.296554E+01
-14.000000 28.000000 -5.581117E+01
-14.000000 26.000000 -5.527510E+01
-14.000000 24.000000 -5.679813E+01
-14.000000 22.000000 -4.320537E+01
-14.000000 20.000000 -1.161155E+01
-14.000000 18.000000 2.381286E+01
-14.000000 16.000000 4.001671E+01
-14.000000 14.000000 3.134769E+01
-14.000000 12.000000 8.777094E-02
-14.000000 10.000000 -2.733288E+01
-14.000000 8.000000 -1.292879E+01
-14.000000 6.000000 2.574181E+01
-14.000000 4.000000 5.426543E+01
-14.000000 2.000000 5.706792E+01
-14.000000 0.000000 5.223123E+01
-14.000000 -2.000000 5.099647E+01
-14.000000 -4.000000 5.677394E+01
-14.000000 -6.000000 6.186196E+01
-14.000000 -8.000000 5.646241E+01
-14.000000 -10.000000 4.241582E+01
-14.000000 -12.000000 2.649966E+01
-14.000000 -14.000000 1.987080E+01
-14.000000 -16.000000 2.414597E+01
-14.000000 -18.000000 3.284009E+01
-14.000000 -20.000000 3.502761E+01
-14.000000 -22.000000 2.258792E+01
-14.000000 -24.000000 -3.831188E+00
-14.000000 -26.000000 -2.043951E+01
-14.000000 -28.000000 -1.681820E+00
-14.000000 -30.000000 1.655450E+01
-14.000000 -32.000000 1.954793E+01
-14.000000 -34.000000 1.480293E+01
-14.000000 -36.000000 5.024134E+00
-14.000000 -38.000000 -1.917526E+00
-14.000000 -40.000000 -6.058838E+00
-12.000000 40.000000 6.090796E+00
-12.000000 38.000000 -3.042084E+00
-12.000000 36.000000 -1.636587E+01
-12.000000 34.000000 -2.919646E+01
-12.000000 32.000000 -3.087030E+01
-12.000000 30.000000 -3.032348E+01
-12.000000 28.000000 -3.425843E+01
-12.000000 26.000000 -3.613641E+01
-12.000000 24.000000 -3.947875E+01
-12.000000 22.000000 -2.879694E+01
-12.000000 20.000000 6.242768E+00
-12.000000 18.000000 4.598172E+01
-12.000000 16.000000 6.055517E+01
-12.000000 14.000000 4.676766E+01
-12.000000 12.000000 6.060571E+00
-12.000000 10.000000 -3.313268E+01
-12.000000 8.000000 -2.388204E+01
-12.000000 6.000000 1.456440E+01
-12.000000 4.000000 4.498355E+01
-12.000000 2.000000 4.801318E+01
-12.000000 0.000000 3.905540E+01
-12.000000 -2.000000 3.175686E+01
-12.000000 -4.000000 3.045939E+01
-12.000000 -6.000000 3.168274E+01
-12.000000 -8.000000 2.789441E+01
-12.000000 -10.000000 1.786377E+01
-12.000000 -12.000000 1.043155E+01
-12.000000 -14.000000 1.043900E+01
-12.000000 -16.000000 1.760850E+01
-12.000000 -18.000000 2.739223E+01
-12.000000 -20.000000 2.770846E+01
-12.000000 -22.000000 1.398365E+01
-12.000000 -24.000000 -5.349592E+00
-12.000000 -26.000000 -1.124981E+01
-12.000000 -28.000000 6.468588E+00
-12.000000 -30.000000 2.055781E+01
-12.000000 -32.000000 2.368180E+01
-12.000000 -34.000000 1.828695E+01
-12.000000 -36.000000 6.198978E+00
-12.000000 -38.000000 -1.754284E+00
-12.000000 -40.000000 -7.382793E+00
-10.000000 40.000000 3.996458E+00
-10.000000 38.000000 -2.933298E+00
-10.000000 36.000000 -1.141751E+01
-10.000000 34.000000 -1.644585E+01
-10.000000 32.000000 -1.199332E+01
-10.000000 30.000000 -8.156210E+00
-10.000000 28.000000 -1.195671E+01
-10.000000 26.000000 -1.772394E+01
-10.000000 24.000000 -2.533873E+01
-10.000000 22.000000 -1.917174E+01
-10.000000 20.000000 1.332859E+01
-10.000000 18.000000 5.348490E+01
-10.000000 16.000000 6.761862E+01
-10.000000 14.000000 5.027489E+01
-10.000000 12.000000 2.798893E+00
-10.000000 10.000000 -4.657391E+01
-10.000000 8.000000 -4.155508E+01
-10.000000 6.000000 -2.056328E+00
-10.000000 4.000000 3.322177E+01
-10.000000 2.000000 3.708582E+01
-10.000000 0.000000 2.499539E+01
-10.000000 -2.000000 1.631618E+01
-10.000000 -4.000000 1.241005E+01
-10.000000 -6.000000 1.168125E+01
-10.000000 -8.000000 6.935187E+00
-10.000000 -10.000000 -2.854860E+00
-10.000000 -12.000000 -3.599068E+00
-10.000000 -14.000000 2.130806E+00
-10.000000 -16.000000 1.157838E+01
-10.000000 -18.000000 2.547308E+01
-10.000000 -20.000000 2.670802E+01
-10.000000 -22.000000 1.305325E+01
-10.000000 -24.000000 -4.087042E+00
-10.000000 -26.000000 -5.392685E+00
-10.000000 -28.000000 1.590110E+01
-10.000000 -30.000000 2.796811E+01
-10.000000 -32.000000 2.917277E+01
-10.000000 -34.000000 2.429229E+01
-10.000000 -36.000000 1.130198E+01
-10.000000 -38.000000 1.694462E+00
-10.000000 -40.000000 -5.911453E+00
-8.000000 40.000000 5.743521E+00
-8.000000 38.000000 -7.099075E-01
-8.000000 36.000000 -6.515374E+00
-8.000000 34.000000 -5.098670E+00
-8.000000 32.000000 4.089270E+00
-8.000000 30.000000 9.033221E+00
-8.000000 28.000000 3.225178E+00
-8.000000 26.000000 -7.142584E+00
-8.000000 24.000000 -1.889435E+01
-8.000000 22.000000 -1.795161E+01
-8.000000 20.000000 6.697765E+00
-8.000000 18.000000 4.088493E+01
-8.000000 16.000000 5.445503E+01
-8.000000 14.000000 3.630418E+01
-8.000000 12.000000 -1.065940E+01
-8.000000 10.000000 -5.688918E+01
-8.000000 8.000000 -5.107553E+01
-8.000000 6.000000 -1.447753E+01
-8.000000 4.000000 2.074936E+01
-8.000000 2.000000 2.638866E+01
-8.000000 0.000000 1.577704E+01
-8.000000 -2.000000 7.651749E+00
-8.000000 -4.000000 3.612352E+00
-8.000000 -6.000000 1.893878E+00
-8.000000 -8.000000 -3.423855E+00
-8.000000 -10.000000 -1.193047E+01
-8.000000 -12.000000 -8.774754E+00
-8.000000 -14.000000 -3.127537E-01
-8.000000 -16.000000 1.138516E+01
-8.000000 -18.000000 2.718275E+01
-8.000000 -20.000000 3.099650E+01
-8.000000 -22.000000 2.083055E+01
-8.000000 -24.000000 4.081369E+00
-8.000000 -26.000000 9.628258E-01
-8.000000 -28.000000 2.127229E+01
-8.000000 -30.000000 3.203727E+01
-8.000000 -32.000000 3.313516E+01
-8.000000 -34.000000 3.042778E+01
-8.000000 -36.000000 1.842359E+01
-8.000000 -38.000000 7.972982E+00
-8.000000 -40.000000 -1.394382E+00
-6.000000 40.000000 1.055789E+01
-6.000000 38.000000 3.270376E+00
-6.000000 36.000000 -4.044662E+00
-6.000000 34.000000 -1.425543E+00
-6.000000 32.000000 1.118593E+01
-6.000000 30.000000 1.601342E+01
-6.000000 28.000000 7.379674E+00
-6.000000 26.000000 -5.803230E+00
-6.000000 24.000000 -2.132787E+01
-6.000000 22.000000 -2.667901E+01
-6.000000 20.000000 -9.098460E+00
-6.000000 18.000000 1.871306E+01
-6.000000 16.000000 3.284079E+01
-6.000000 14.000000 1.779936E+01
-6.000000 12.000000 -2.406124E+01
-6.000000 10.000000 -6.020904E+01
-6.000000 8.000000 -4.508433E+01
-6.000000 6.000000 -8.612594E+00
-6.000000 4.000000 1.755657E+01
-6.000000 2.000000 1.701305E+01
-6.000000 0.000000 6.979507E+00
-6.000000 -2.000000 9.246817E-01
-6.000000 -4.000000 3.939400E-01
-6.000000 -6.000000 7.842941E-01
-6.000000 -8.000000 -2.334202E+00
-6.000000 -10.000000 -7.004189E+00
-6.000000 -12.000000 -4.250721E+00
-6.000000 -14.000000 2.963369E+00
-6.000000 -16.000000 1.501776E+01
-6.000000 -18.000000 2.906719E+01
-6.000000 -20.000000 3.509506E+01
-6.000000 -22.000000 2.859947E+01
-6.000000 -24.000000 1.407404E+01
-6.000000 -26.000000 8.312996E+00
-6.000000 -28.000000 2.120224E+01
-6.000000 -30.000000 3.170153E+01
-6.000000 -32.000000 3.671162E+01
-6.000000 -34.000000 3.726078E+01
-6.000000 -36.000000 2.707879E+01
-6.000000 -38.000000 1.637692E+01
-6.000000 -40.000000 5.298420E+00
-4.000000 40.000000 1.699179E+01
-4.000000 38.000000 7.965179E+00
-4.000000 36.000000 -3.902330E+00
-4.000000 34.000000 -7.900330E+00
-4.000000 32.000000 2.320151E+00
-4.000000 30.000000 7.862210E+00
-4.000000 28.000000 3.926468E-02
-4.000000 26.000000 -1.256561E+01
-4.000000 24.000000 -3.107443E+01
-4.000000 22.000000 -3.992873E+01
-4.000000 20.000000 -2.420915E+01
-4.000000 18.000000 1.851324E+00
-4.000000 16.000000 1.697781E+01
-4.000000 14.000000 5.951832E+00
-4.000000 12.000000 -2.719442E+01
-4.000000 10.000000 -4.816404E+01
-4.000000 8.000000 -1.942398E+01
-4.000000 6.000000 1.895463E+01
-4.000000 4.000000 2.686169E+01
-4.000000 2.000000 7.437580E+00
-4.000000 0.000000 -8.068106E+00
-4.000000 -2.000000 -8.410265E+00
-4.000000 -4.000000 6.642199E-01
-4.000000 -6.000000 8.425940E+00
-4.000000 -8.000000 8.787840E+00
-4.000000 -10.000000 5.971507E+00
-4.000000 -12.000000 5.251911E+00
-4.000000 -14.000000 8.292111E+00
-4.000000 -16.000000 1.677476E+01
-4.000000 -18.000000 2.802382E+01
-4.000000 -20.000000 3.600939E+01
-4.000000 -22.000000 3.278818E+01
-4.000000 -24.000000 1.922746E+01
-4.000000 -26.000000 1.106144E+01
-4.000000 -28.000000 2.005228E+01
-4.000000 -30.000000 3.143371E+01
-4.000000 -32.000000 4.100734E+01
-4.000000 -34.000000 4.561673E+01
-4.000000 -36.000000 3.733046E+01
-4.000000 -38.000000 2.565052E+01
-4.000000 -40.000000 1.205646E+01
-2.000000 40.000000 2.192280E+01
-2.000000 38.000000 1.001254E+01
-2.000000 36.000000 -5.828850E+00
-2.000000 34.000000 -1.965350E+01
-2.000000 32.000000 -1.831002E+01
-2.000000 30.000000 -1.277591E+01
-2.000000 28.000000 -1.706459E+01
-2.000000 26.000000 -2.680039E+01
-2.000000 24.000000 -4.469752E+01
-2.000000 22.000000 -5.045266E+01
-2.000000 20.000000 -3.203791E+01
-2.000000 18.000000 -4.812841E+00
-2.000000 16.000000 8.945267E+00
-2.000000 14.000000 1.154625E+00
-2.000000 12.000000 -1.965827E+01
-2.000000 10.000000 -2.222900E+01
-2.000000 8.000000 1.680572E+01
-2.000000 6.000000 5.231585E+01
-2.000000 4.000000 3.952933E+01
-2.000000 2.000000 1.527376E+00
-2.000000 0.000000 -1.992572E+01
-2.000000 -2.000000 -1.413886E+01
-2.000000 -4.000000 3.995012E+00
-2.000000 -6.000000 1.896625E+01
-2.000000 -8.000000 2.193528E+01
-2.000000 -10.000000 1.863748E+01
-2.000000 -12.000000 1.434225E+01
-2.000000 -14.000000 1.317488E+01
-2.000000 -16.000000 1.749636E+01
-2.000000 -18.000000 2.633399E+01
-2.000000 -20.000000 3.559327E+01
-2.000000 -22.000000 3.648188E+01
-2.000000 -24.000000 2.288762E+01
-2.000000 -26.000000 1.149606E+01
-2.000000 -28.000000 2.083410E+01
-2.000000 -30.000000 3.248171E+01
-2.000000 -32.000000 4.393638E+01
-2.000000 -34.000000 5.271318E+01
-2.000000 -36.000000 4.693499E+01
-2.000000 -38.000000 3.416032E+01
-2.000000 -40.000000 1.765799E+01
0.000000 40.000000 2.556775E+01
0.000000 38.000000 9.576652E+00
0.000000 36.000000 -1.108268E+01
0.000000 34.000000 -3.418500E+01
0.000000 32.000000 -4.120948E+01
0.000000 30.000000 -3.797794E+01
0.000000 28.000000 -4.058972E+01
0.000000 26.000000 -4.643337E+01
0.000000 24.000000 -5.990273E+01
0.000000 22.000000 -5.871469E+01
0.000000 20.000000 -3.683258E+01
0.000000 18.000000 -9.166213E+00
0.000000 16.000000 3.835780E+00
0.000000 14.000000 1.185822E+00
0.000000 12.000000 -5.237582E+00
0.000000 10.000000 8.596530E+00
0.000000 8.000000 4.759003E+01
0.000000 6.000000 7.288525E+01
0.000000 4.000000 4.767791E+01
0.000000 2.000000 4.421156E+00
0.000000 0.000000 -1.836901E+01
0.000000 -2.000000 -1.058633E+01
0.000000 -4.000000 1.067118E+01
0.000000 -6.000000 2.828557E+01
0.000000 -8.000000 3.102271E+01
0.000000 -10.000000 2.646750E+01
0.000000 -12.000000 2.027996E+01
0.000000 -14.000000 1.696882E+01
0.000000 -16.000000 1.976180E+01
0.000000 -18.000000 2.844518E+01
0.000000 -20.000000 3.773956E+01
0.000000 -22.000000 4.202703E+01
0.000000 -24.000000 3.127043E+01
0.000000 -26.000000 1.843332E+01
0.000000 -28.000000 2.575658E+01
0.000000 -30.000000 3.422896E+01
0.000000 -32.000000 4.450372E+01
0.000000 -34.000000 5.480500E+01
0.000000 -36.000000 5.155212E+01
0.000000 -38.000000 3.981983E+01
0.000000 -40.000000 2.286939E+01
2.000000 40.000000 2.913999E+01
2.000000 38.000000 9.606221E+00
2.000000 36.000000 -1.792049E+01
2.000000 34.000000 -5.092158E+01
2.000000 32.000000 -6.314314E+01
2.000000 30.000000 -5.993008E+01
2.000000 28.000000 -6.106534E+01
2.000000 26.000000 -6.288944E+01
2.000000 24.000000 -7.393457E+01
2.000000 22.000000 -6.970651E+01
2.000000 20.000000 -4.507402E+01
2.000000 18.000000 -1.630753E+01
2.000000 16.000000 -1.853310E+00
2.000000 14.000000 1.968982E+00
2.000000 12.000000 8.256519E+00
2.000000 10.000000 3.115277E+01
2.000000 8.000000 6.190266E+01
2.000000 6.000000 7.504738E+01
2.000000 4.000000 4.772768E+01
2.000000 2.000000 1.043566E+01
2.000000 0.000000 -8.792777E+00
2.000000 -2.000000 -1.397188E+00
2.000000 -4.000000 1.936671E+01
2.000000 -6.000000 3.625836E+01
2.000000 -8.000000 3.702709E+01
2.000000 -10.000000 3.132861E+01
2.000000 -12.000000 2.385255E+01
2.000000 -14.000000 2.015246E+01
2.000000 -16.000000 2.410130E+01
2.000000 -18.000000 3.485904E+01
2.000000 -20.000000 4.602195E+01
2.000000 -22.000000 5.221712E+01
2.000000 -24.000000 4.570121E+01
2.000000 -26.000000 3.455630E+01
2.000000 -28.000000 3.631964E+01
2.000000 -30.000000 3.927409E+01
2.000000 -32.000000 4.583486E+01
2.000000 -34.000000 5.346506E+01
2.000000 -36.000000 5.015479E+01
2.000000 -38.000000 4.040575E+01
2.000000 -40.000000 2.601836E+01
4.000000 40.000000 3.081306E+01
4.000000 38.000000 9.811647E+00
4.000000 36.000000 -2.347687E+01
4.000000 34.000000 -6.416539E+01
4.000000 32.000000 -7.935235E+01
4.000000 30.000000 -7.249390E+01
4.000000 28.000000 -6.899330E+01
4.000000 26.000000 -6.802914E+01
4.000000 24.000000 -8.270158E+01
4.000000 22.000000 -8.302070E+01
4.000000 20.000000 -5.843354E+01
4.000000 18.000000 -2.617890E+01
4.000000 16.000000 -8.725113E+00
4.000000 14.000000 -7.215459E-01
4.000000 12.000000 1.317263E+01
4.000000 10.000000 3.760463E+01
4.000000 8.000000 5.797129E+01
4.000000 6.000000 6.398264E+01
4.000000 4.000000 4.354128E+01
4.000000 2.000000 1.415590E+01
4.000000 0.000000 -2.347313E+00
4.000000 -2.000000 4.758467E+00
4.000000 -4.000000 2.581394E+01
4.000000 -6.000000 4.275576E+01
4.000000 -8.000000 4.111873E+01
4.000000 -10.000000 3.265311E+01
4.000000 -12.000000 2.500280E+01
4.000000 -14.000000 2.402515E+01
4.000000 -16.000000 3.158009E+01
4.000000 -18.000000 4.611374E+01
4.000000 -20.000000 6.076603E+01
4.000000 -22.000000 6.802347E+01
4.000000 -24.000000 6.219802E+01
4.000000 -26.000000 5.072978E+01
4.000000 -28.000000 4.908636E+01
4.000000 -30.000000 4.869523E+01
4.000000 -32.000000 5.010650E+01
4.000000 -34.000000 5.337008E+01
4.000000 -36.000000 4.768809E+01
4.000000 -38.000000 3.681392E+01
4.000000 -40.000000 2.415158E+01
6.000000 40.000000 2.881440E+01
6.000000 38.000000 7.613809E+00
6.000000 36.000000 -2.656793E+01
6.000000 34.000000 -6.720865E+01
6.000000 32.000000 -8.234976E+01
6.000000 30.000000 -7.273392E+01
6.000000 28.000000 -6.421215E+01
6.000000 26.000000 -6.282367E+01
6.000000 24.000000 -8.199708E+01
6.000000 22.000000 -8.803498E+01
6.000000 20.000000 -6.730296E+01
6.000000 18.000000 -3.475287E+01
6.000000 16.000000 -1.422105E+01
6.000000 14.000000 -4.064792E+00
6.000000 12.000000 7.906937E+00
6.000000 10.000000 2.431031E+01
6.000000 8.000000 3.708660E+01
6.000000 6.000000 4.303369E+01
6.000000 4.000000 3.553580E+01
6.000000 2.000000 1.538469E+01
6.000000 0.000000 1.147959E+00
6.000000 -2.000000 9.168230E+00
6.000000 -4.000000 3.127104E+01
6.000000 -6.000000 4.800744E+01
6.000000 -8.000000 4.162405E+01
6.000000 -10.000000 2.810434E+01
6.000000 -12.000000 2.254868E+01
6.000000 -14.000000 2.793536E+01
6.000000 -16.000000 4.124378E+01
6.000000 -18.000000 6.032161E+01
6.000000 -20.000000 7.613453E+01
6.000000 -22.000000 8.233307E+01
6.000000 -24.000000 7.393654E+01
6.000000 -26.000000 5.850482E+01
6.000000 -28.000000 5.708253E+01
6.000000 -30.000000 5.692881E+01
6.000000 -32.000000 5.311486E+01
6.000000 -34.000000 5.390310E+01
6.000000 -36.000000 4.699102E+01
6.000000 -38.000000 3.272233E+01
6.000000 -40.000000 2.013210E+01
8.000000 40.000000 2.481923E+01
8.000000 38.000000 4.265539E+00
8.000000 36.000000 -2.711754E+01
8.000000 34.000000 -6.247001E+01
8.000000 32.000000 -7.418258E+01
8.000000 30.000000 -6.295676E+01
8.000000 28.000000 -5.275363E+01
8.000000 26.000000 -5.187607E+01
8.000000 24.000000 -6.955556E+01
8.000000 22.000000 -7.679551E+01
8.000000 20.000000 -6.087916E+01
8.000000 18.000000 -3.266876E+01
8.000000 16.000000 -1.336249E+01
8.000000 14.000000 -5.288759E+00
8.000000 12.000000 -2.728930E+00
8.000000 10.000000 -8.237314E-02
8.000000 8.000000 8.002829E+00
8.000000 6.000000 1.772326E+01
8.000000 4.000000 1.992281E+01
8.000000 2.000000 1.115064E+01
8.000000 0.000000 6.146582E+00
8.000000 -2.000000 1.858622E+01
8.000000 -4.000000 4.028798E+01
8.000000 -6.000000 5.052173E+01
8.000000 -8.000000 3.602420E+01
8.000000 -10.000000 1.774947E+01
8.000000 -12.000000 1.708712E+01
8.000000 -14.000000 3.217525E+01
8.000000 -16.000000 5.337306E+01
8.000000 -18.000000 7.425506E+01
8.000000 -20.000000 8.458493E+01
8.000000 -22.000000 8.432560E+01
8.000000 -24.000000 7.158388E+01
8.000000 -26.000000 5.306207E+01
8.000000 -28.000000 5.340520E+01
8.000000 -30.000000 5.600293E+01
8.000000 -32.000000 5.091590E+01
8.000000 -34.000000 5.215468E+01
8.000000 -36.000000 4.631570E+01
8.000000 -38.000000 3.169253E+01
8.000000 -40.000000 1.966034E+01
10.000000 40.000000 2.120766E+01
10.000000 38.000000 2.983923E+00
10.000000 36.000000 -2.474381E+01
10.000000 34.000000 -5.566594E+01
10.000000 32.000000 -6.219109E+01
10.000000 30.000000 -4.705170E+01
10.000000 28.000000 -3.610623E+01
10.000000 26.000000 -3.480461E+01
10.000000 24.000000 -4.910010E+01
10.000000 22.000000 -5.658103E+01
10.000000 20.000000 -4.116235E+01
10.000000 18.000000 -1.687559E+01
10.000000 16.000000 -2.397587E+00
10.000000 14.000000 -1.805391E+00
10.000000 12.000000 -1.283504E+01
10.000000 10.000000 -2.622902E+01
10.000000 8.000000 -2.198845E+01
10.000000 6.000000 -8.061778E+00
10.000000 4.000000 -2.841539E-01
10.000000 2.000000 1.659670E-01
10.000000 0.000000 9.744282E+00
10.000000 -2.000000 3.240328E+01
10.000000 -4.000000 5.446026E+01
10.000000 -6.000000 5.241857E+01
10.000000 -8.000000 2.665145E+01
10.000000 -10.000000 5.222907E+00
10.000000 -12.000000 1.462052E+01
10.000000 -14.000000 4.436268E+01
10.000000 -16.000000 7.493839E+01
10.000000 -18.000000 8.947764E+01
10.000000 -20.000000 8.297816E+01
10.000000 -22.000000 6.631871E+01
10.000000 -24.000000 4.598992E+01
10.000000 -26.000000 3.135855E+01
10.000000 -28.000000 3.563830E+01
10.000000 -30.000000 4.237124E+01
10.000000 -32.000000 4.292831E+01
10.000000 -34.000000 4.723829E+01
10.000000 -36.000000 4.429472E+01
10.000000 -38.000000 3.449610E+01
10.000000 -40.000000 2.445048E+01
12.000000 40.000000 1.897430E+01
12.000000 38.000000 3.722123E+00
12.000000 36.000000 -2.011081E+01
12.000000 34.000000 -4.700351E+01
12.000000 32.000000 -4.908040E+01
12.000000 30.000000 -3.033156E+01
12.000000 28.000000 -1.724733E+01
12.000000 26.000000 -1.461665E+01
12.000000 24.000000 -2.676790E+01
12.000000 22.000000 -3.362809E+01
12.000000 20.000000 -1.580498E+01
12.000000 18.000000 7.739823E+00
12.000000 16.000000 1.971782E+01
12.000000 14.000000 1.172487E+01
12.000000 12.000000 -1.474835E+01
12.000000 10.000000 -4.715843E+01
12.000000 8.000000 -4.916822E+01
12.000000 6.000000 -3.454847E+01
12.000000 4.000000 -2.521753E+01
12.000000 2.000000 -1.906321E+01
12.000000 0.000000 4.129801E+00
12.000000 -2.000000 4.139033E+01
12.000000 -4.000000 6.615674E+01
12.000000 -6.000000 5.319201E+01
12.000000 -8.000000 1.730397E+01
12.000000 -10.000000 -5.492609E+00
12.000000 -12.000000 2.171739E+01
12.000000 -14.000000 7.255633E+01
12.000000 -16.000000 1.112090E+02
12.000000 -18.000000 1.100926E+02
12.000000 -20.000000 7.484041E+01
12.000000 -22.000000 3.380741E+01
12.000000 -24.000000 2.045946E+00
12.000000 -26.000000 -6.325474E+00
12.000000 -28.000000 8.023537E+00
12.000000 -30.000000 2.111751E+01
12.000000 -32.000000 2.943522E+01
12.000000 -34.000000 3.971625E+01
12.000000 -36.000000 4.305678E+01
12.000000 -38.000000 3.879499E+01
12.000000 -40.000000 3.119413E+01
14.000000 40.000000 1.792050E+01
14.000000 38.000000 5.336835E+00
14.000000 36.000000 -1.446782E+01
14.000000 34.000000 -3.456973E+01
14.000000 32.000000 -3.361442E+01
14.000000 30.000000 -1.487765E+01
14.000000 28.000000 -4.394569E-01
14.000000 26.000000 3.162638E+00
14.000000 24.000000 -6.868411E+00
14.000000 22.000000 -1.060225E+01
14.000000 20.000000 8.664083E+00
14.000000 18.000000 3.535648E+01
14.000000 16.000000 4.802967E+01
14.000000 14.000000 3.320989E+01
14.000000 12.000000 -7.951605E+00
14.000000 10.000000 -5.701427E+01
14.000000 8.000000 -7.164974E+01
14.000000 6.000000 -6.547839E+01
14.000000 4.000000 -5.720805E+01
14.000000 2.000000 -4.464552E+01
14.000000 0.000000 -1.041141E+01
14.000000 -2.000000 3.859556E+01
14.000000 -4.000000 6.532109E+01
14.000000 -6.000000 4.623089E+01
14.000000 -8.000000 6.752095E+00
14.000000 -10.000000 -1.133466E+01
14.000000 -12.000000 4.074630E+01
14.000000 -14.000000 1.165546E+02
14.000000 -16.000000 1.594737E+02
14.000000 -18.000000 1.361353E+02
14.000000 -20.000000 6.592478E+01
14.000000 -22.000000 -6.057110E-01
14.000000 -24.000000 -4.255235E+01
14.000000 -26.000000 -4.621182E+01
14.000000 -28.000000 -2.045662E+01
14.000000 -30.000000 -1.102531E+00
14.000000 -32.000000 1.294055E+01
14.000000 -34.000000 2.996198E+01
14.000000 -36.000000 4.196306E+01
14.000000 -38.000000 4.210231E+01
14.000000 -40.000000 3.664330E+01
16.000000 40.000000 1.816543E+01
16.000000 38.000000 8.753158E+00
16.000000 36.000000 -7.530219E+00
16.000000 34.000000 -2.202734E+01
16.000000 32.000000 -1.840841E+01
16.000000 30.000000 -6.403995E-02
16.000000 28.000000 1.317697E+01
16.000000 26.000000 1.612838E+01
16.000000 24.000000 7.455047E+00
16.000000 22.000000 5.497567E+00
16.000000 20.000000 2.695094E+01
16.000000 18.000000 5.935680E+01
16.000000 16.000000 7.346437E+01
16.000000 14.000000 5.531848E+01
16.000000 12.000000 3.249310E+00
16.000000 10.000000 -5.761068E+01
16.000000 8.000000 -8.838515E+01
16.000000 6.000000 -9.670921E+01
16.000000 4.000000 -9.282291E+01
16.000000 2.000000 -7.331780E+01
16.000000 0.000000 -3.078865E+01
16.000000 -2.000000 2.123613E+01
16.000000 -4.000000 4.696404E+01
16.000000 -6.000000 2.667457E+01
16.000000 -8.000000 -4.582230E+00
16.000000 -10.000000 -4.496524E+00
16.000000 -12.000000 7.256766E+01
16.000000 -14.000000 1.672067E+02
16.000000 -16.000000 2.083140E+02
16.000000 -18.000000 1.619065E+02
16.000000 -20.000000 6.193972E+01
16.000000 -22.000000 -2.519542E+01
16.000000 -24.000000 -7.071456E+01
16.000000 -26.000000 -7.018762E+01
16.000000 -28.000000 -4.204768E+01
16.000000 -30.000000 -1.953177E+01
16.000000 -32.000000 -7.051582E-01
16.000000 -34.000000 2.012573E+01
16.000000 -36.000000 3.784163E+01
16.000000 -38.000000 4.169643E+01
16.000000 -40.000000 3.917325E+01
18.000000 40.000000 2.035863E+01
18.000000 38.000000 1.460914E+01
18.000000 36.000000 5.959158E-01
18.000000 34.000000 -1.237793E+01
18.000000 32.000000 -7.290463E+00
18.000000 30.000000 1.186475E+01
18.000000 28.000000 2.306295E+01
18.000000 26.000000 2.478196E+01
18.000000 24.000000 1.416030E+01
18.000000 22.000000 8.610122E+00
18.000000 20.000000 3.215049E+01
18.000000 18.000000 7.011403E+01
18.000000 16.000000 8.714746E+01
18.000000 14.000000 6.912693E+01
18.000000 12.000000 1.030526E+01
18.000000 10.000000 -6.115211E+01
18.000000 8.000000 -1.034581E+02
18.000000 6.000000 -1.188886E+02
18.000000 4.000000 -1.185486E+02
18.000000 2.000000 -9.802724E+01
18.000000 0.000000 -5.521435E+01
18.000000 -2.000000 -5.566461E+00
18.000000 -4.000000 1.976302E+01
18.000000 -6.000000 6.643762E+00
18.000000 -8.000000 -6.362890E+00
18.000000 -10.000000 1.831328E+01
18.000000 -12.000000 1.113126E+02
18.000000 -14.000000 2.103069E+02
18.000000 -16.000000 2.435589E+02
18.000000 -18.000000 1.810310E+02
18.000000 -20.000000 6.730522E+01
18.000000 -22.000000 -2.893362E+01
18.000000 -24.000000 -7.701150E+01
18.000000 -26.000000 -7.691919E+01
18.000000 -28.000000 -5.232048E+01
18.000000 -30.000000 -2.918472E+01
18.000000 -32.000000 -7.901051E+00
18.000000 -34.000000 1.277465E+01
18.000000 -36.000000 3.027455E+01
18.000000 -38.000000 3.650948E+01
18.000000 -40.000000 3.785896E+01
20.000000 40.000000 2.488729E+01
20.000000 38.000000 2.141853E+01
20.000000 36.000000 9.061231E+00
20.000000 34.000000 -3.810312E+00
20.000000 32.000000 5.187140E-01
20.000000 30.000000 1.816389E+01
20.000000 28.000000 2.677461E+01
20.000000 26.000000 2.690589E+01
20.000000 24.000000 1.162444E+01
20.000000 22.000000 -4.561160E-01
20.000000 20.000000 2.217028E+01
20.000000 18.000000 6.098116E+01
20.000000 16.000000 8.037834E+01
20.000000 14.000000 6.441870E+01
20.000000 12.000000 3.963964E+00
20.000000 10.000000 -7.439760E+01
20.000000 8.000000 -1.209223E+02
20.000000 6.000000 -1.316201E+02
20.000000 4.000000 -1.269330E+02
20.000000 2.000000 -1.099215E+02
20.000000 0.000000 -7.399059E+01
20.000000 -2.000000 -2.627300E+01
20.000000 -4.000000 2.581676E+00
20.000000 -6.000000 3.250412E+00
20.000000 -8.000000 8.221835E+00
20.000000 -10.000000 4.915551E+01
20.000000 -12.000000 1.453862E+02
20.000000 -14.000000 2.386917E+02
20.000000 -16.000000 2.612516E+02
20.000000 -18.000000 1.902401E+02
20.000000 -20.000000 7.635938E+01
20.000000 -22.000000 -1.692615E+01
20.000000 -24.000000 -6.570602E+01
20.000000 -26.000000 -7.058086E+01
20.000000 -28.000000 -4.939501E+01
20.000000 -30.000000 -2.771870E+01
20.000000 -32.000000 -9.421066E+00
20.000000 -34.000000 7.508064E+00
20.000000 -36.000000 2.194823E+01
20.000000 -38.000000 2.843164E+01
20.000000 -40.000000 3.309001E+01
22.000000 40.000000 3.072166E+01
22.000000 38.000000 2.771683E+01
22.000000 36.000000 1.661640E+01
22.000000 34.000000 4.625359E+00
22.000000 32.000000 6.496211E+00
22.000000 30.000000 1.894074E+01
22.000000 28.000000 2.335283E+01
22.000000 26.000000 1.916771E+01
22.000000 24.000000 -6.963809E-01
22.000000 22.000000 -1.487570E+01
22.000000 20.000000 2.874013E+00
22.000000 18.000000 3.627543E+01
22.000000 16.000000 5.452451E+01
22.000000 14.000000 3.958547E+01
22.000000 12.000000 -1.885797E+01
22.000000 10.000000 -9.572610E+01
22.000000 8.000000 -1.386524E+02
22.000000 6.000000 -1.403164E+02
22.000000 4.000000 -1.226142E+02
22.000000 2.000000 -1.026203E+02
22.000000 0.000000 -6.869281E+01
22.000000 -2.000000 -2.142690E+01
22.000000 -4.000000 1.027903E+01
22.000000 -6.000000 1.928080E+01
22.000000 -8.000000 3.062459E+01
22.000000 -10.000000 7.356042E+01
22.000000 -12.000000 1.626869E+02
22.000000 -14.000000 2.455951E+02
22.000000 -16.000000 2.584904E+02
22.000000 -18.000000 1.840912E+02
22.000000 -20.000000 7.721097E+01
22.000000 -22.000000 -2.814062E+00
22.000000 -24.000000 -4.348564E+01
22.000000 -26.000000 -5.108920E+01
22.000000 -28.000000 -3.306472E+01
22.000000 -30.000000 -1.634105E+01
22.000000 -32.000000 -7.018524E+00
22.000000 -34.000000 3.548265E+00
22.000000 -36.000000 1.478637E+01
22.000000 -38.000000 1.999769E+01
22.000000 -40.000000 2.652540E+01
24.000000 40.000000 3.556303E+01
24.000000 38.000000 3.338065E+01
24.000000 36.000000 2.174723E+01
24.000000 34.000000 8.715549E+00
24.000000 32.000000 7.682210E+00
24.000000 30.000000 1.545716E+01
24.000000 28.000000 1.557974E+01
24.000000 26.000000 6.243746E+00
24.000000 24.000000 -1.579748E+01
24.000000 22.000000 -2.835152E+01
24.000000 20.000000 -1.546539E+01
24.000000 18.000000 1.196303E+01
24.000000 16.000000 2.665801E+01
24.000000 14.000000 9.556560E+00
24.000000 12.000000 -4.747664E+01
24.000000 10.000000 -1.188413E+02
24.000000 8.000000 -1.535552E+02
24.000000 6.000000 -1.476473E+02
24.000000 4.000000 -1.157500E+02
24.000000 2.000000 -8.130249E+01
24.000000 0.000000 -3.855703E+01
24.000000 -2.000000 8.406165E+00
24.000000 -4.000000 3.961037E+01
24.000000 -6.000000 4.812760E+01
24.000000 -8.000000 5.414457E+01
24.000000 -10.000000 8.672601E+01
24.000000 -12.000000 1.568069E+02
24.000000 -14.000000 2.213357E+02
24.000000 -16.000000 2.258738E+02
24.000000 -18.000000 1.570455E+02
24.000000 -20.000000 6.531067E+01
24.000000 -22.000000 4.997216E+00
24.000000 -24.000000 -1.938434E+01
24.000000 -26.000000 -2.169456E+01
24.000000 -28.000000 -7.871956E+00
24.000000 -30.000000 1.197653E+00
24.000000 -32.000000 -3.081493E-01
24.000000 -34.000000 2.048008E+00
24.000000 -36.000000 9.306219E+00
24.000000 -38.000000 1.350638E+01
24.000000 -40.000000 2.014265E+01
26.000000 40.000000 3.733503E+01
26.000000 38.000000 3.732509E+01
26.000000 36.000000 2.260664E+01
26.000000 34.000000 4.220853E+00
26.000000 32.000000 1.255879E+00
26.000000 30.000000 8.605846E+00
26.000000 28.000000 7.138967E+00
26.000000 26.000000 -5.030611E+00
26.000000 24.000000 -2.814491E+01
26.000000 22.000000 -3.768352E+01
26.000000 20.000000 -2.363585E+01
26.000000 18.000000 2.990527E+00
26.000000 16.000000 1.453432E+01
26.000000 14.000000 -6.423303E+00
26.000000 12.000000 -6.480905E+01
26.000000 10.000000 -1.345113E+02
26.000000 8.000000 -1.618214E+02
26.000000 6.000000 -1.483344E+02
26.000000 4.000000 -1.050497E+02
26.000000 2.000000 -5.592372E+01
26.000000 0.000000 -3.714701E+00
26.000000 -2.000000 4.395258E+01
26.000000 -4.000000 7.378620E+01
26.000000 -6.000000 7.658402E+01
26.000000 -8.000000 7.089675E+01
26.000000 -10.000000 8.537225E+01
26.000000 -12.000000 1.282598E+02
26.000000 -14.000000 1.689985E+02
26.000000 -16.000000 1.672189E+02
26.000000 -18.000000 1.133973E+02
26.000000 -20.000000 4.435011E+01
26.000000 -22.000000 3.203015E+00
26.000000 -24.000000 -5.350689E+00
26.000000 -26.000000 2.795858E+00
26.000000 -28.000000 1.509800E+01
26.000000 -30.000000 2.051084E+01
26.000000 -32.000000 1.286628E+01
26.000000 -34.000000 7.033754E+00
26.000000 -36.000000 7.378630E+00
26.000000 -38.000000 9.906679E+00
26.000000 -40.000000 1.442674E+01
28.000000 40.000000 3.544864E+01
28.000000 38.000000 3.646134E+01
28.000000 36.000000 1.854202E+01
28.000000 34.000000 -5.628660E+00
28.000000 32.000000 -1.093277E+01
28.000000 30.000000 -2.218503E+00
28.000000 28.000000 -2.091181E+00
28.000000 26.000000 -1.345901E+01
28.000000 24.000000 -3.693263E+01
28.000000 22.000000 -4.298990E+01
28.000000 20.000000 -2.361158E+01
28.000000 18.000000 8.906924E+00
28.000000 16.000000 2.119808E+01
28.000000 14.000000 -4.108948E+00
28.000000 12.000000 -6.501380E+01
28.000000 10.000000 -1.354944E+02
28.000000 8.000000 -1.576811E+02
28.000000 6.000000 -1.347976E+02
28.000000 4.000000 -8.225956E+01
28.000000 2.000000 -2.779456E+01
28.000000 0.000000 2.381905E+01
28.000000 -2.000000 6.886743E+01
28.000000 -4.000000 9.530306E+01
28.000000 -6.000000 9.234281E+01
28.000000 -8.000000 7.392651E+01
28.000000 -10.000000 6.673359E+01
28.000000 -12.000000 8.151127E+01
28.000000 -14.000000 1.016866E+02
28.000000 -16.000000 9.907640E+01
28.000000 -18.000000 6.377733E+01
28.000000 -20.000000 1.721913E+01
28.000000 -22.000000 -9.264060E+00
28.000000 -24.000000 -6.850178E+00
28.000000 -26.000000 9.980128E+00
28.000000 -28.000000 2.790550E+01
28.000000 -30.000000 3.779634E+01
28.000000 -32.000000 2.926914E+01
28.000000 -34.000000 1.786991E+01
28.000000 -36.000000 9.956516E+00
28.000000 -38.000000 8.629192E+00
28.000000 -40.000000 8.890036E+00
30.000000 40.000000 2.988911E+01
30.000000 38.000000 2.949197E+01
30.000000 36.000000 1.197057E+01
30.000000 34.000000 -1.363582E+01
30.000000 32.000000 -2.414013E+01
30.000000 30.000000 -1.840657E+01
30.000000 28.000000 -1.670654E+01
30.000000 26.000000 -2.407434E+01
30.000000 24.000000 -4.396844E+01
30.000000 22.000000 -4.582928E+01
30.000000 20.000000 -2.169543E+01
30.000000 18.000000 1.677153E+01
30.000000 16.000000 3.201285E+01
30.000000 14.000000 7.357014E+00
30.000000 12.000000 -5.211525E+01
30.000000 10.000000 -1.195008E+02
30.000000 8.000000 -1.352649E+02
30.000000 6.000000 -1.012032E+02
30.000000 4.000000 -4.264187E+01
30.000000 2.000000 7.369995E+00
30.000000 0.000000 4.787595E+01
30.000000 -2.000000 8.198289E+01
30.000000 -4.000000 9.990444E+01
30.000000 -6.000000 9.021297E+01
30.000000 -8.000000 5.936021E+01
30.000000 -10.000000 3.161472E+01
30.000000 -12.000000 2.466004E+01
30.000000 -14.000000 3.235831E+01
30.000000 -16.000000 3.471287E+01
30.000000 -18.000000 1.643490E+01
30.000000 -20.000000 -1.401797E+01
30.000000 -22.000000 -2.975930E+01
30.000000 -24.000000 -1.990342E+01
30.000000 -26.000000 3.411648E+00
30.000000 -28.000000 3.121012E+01
30.000000 -30.000000 4.910841E+01
30.000000 -32.000000 4.179624E+01
30.000000 -34.000000 2.801106E+01
30.000000 -36.000000 1.397204E+01
30.000000 -38.000000 8.076073E+00
30.000000 -40.000000 3.413713E+00
32.000000 40.000000 1.956615E+01
32.000000 38.000000 1.852719E+01
32.000000 36.000000 3.840014E+00
32.000000 34.000000 -2.304742E+01
32.000000 32.000000 -3.926079E+01
32.000000 30.000000 -3.720252E+01
32.000000 28.000000 -3.341116E+01
32.000000 26.000000 -3.529996E+01
32.000000 24.000000 -4.785953E+01
32.000000 22.000000 -4.470462E+01
32.000000 20.000000 -1.735193E+01
32.000000 18.000000 2.157972E+01
32.000000 16.000000 3.750781E+01
32.000000 14.000000 1.687744E+01
32.000000 12.000000 -3.735744E+01
32.000000 10.000000 -9.338580E+01
32.000000 8.000000 -9.747457E+01
32.000000 6.000000 -5.434454E+01
32.000000 4.000000 5.321112E+00
32.000000 2.000000 4.688627E+01
32.000000 0.000000 7.223940E+01
32.000000 -2.000000 8.557584E+01
32.000000 -4.000000 8.810249E+01
32.000000 -6.000000 6.908987E+01
32.000000 -8.000000 3.000035E+01
32.000000 -10.000000 -1.051669E+01
32.000000 -12.000000 -2.927334E+01
32.000000 -14.000000 -2.642568E+01
32.000000 -16.000000 -1.605169E+01
32.000000 -18.000000 -2.110418E+01
32.000000 -20.000000 -4.088557E+01
32.000000 -22.000000 -4.964098E+01
32.000000 -24.000000 -3.556516E+01
32.000000 -26.000000 -8.024955E+00
32.000000 -28.000000 2.536989E+01
32.000000 -30.000000 4.836120E+01
32.000000 -32.000000 4.461459E+01
32.000000 -34.000000 3.231179E+01
32.000000 -36.000000 1.576185E+01
32.000000 -38.000000 5.964607E+00
32.000000 -40.000000 -2.327299E+00
34.000000 40.000000 4.882242E+00
34.000000 38.000000 3.738116E+00
34.000000 36.000000 -9.286957E+00
34.000000 34.000000 -3.994121E+01
34.000000 32.000000 -5.874057E+01
34.000000 30.000000 -5.508253E+01
34.000000 28.000000 -4.529501E+01
34.000000 26.000000 -3.916590E+01
34.000000 24.000000 -4.443813E+01
34.000000 22.000000 -3.844834E+01
34.000000 20.000000 -7.327367E+00
34.000000 18.000000 3.035281E+01
34.000000 16.000000 4.400016E+01
34.000000 14.000000 2.503237E+01
34.000000 12.000000 -2.500497E+01
34.000000 10.000000 -7.323771E+01
34.000000 8.000000 -6.408183E+01
34.000000 6.000000 -1.158905E+01
34.000000 4.000000 4.646635E+01
34.000000 2.000000 7.512719E+01
34.000000 0.000000 8.092056E+01
34.000000 -2.000000 7.323323E+01
34.000000 -4.000000 6.124993E+01
34.000000 -6.000000 3.706248E+01
34.000000 -8.000000 -1.931692E+00
34.000000 -10.000000 -4.451860E+01
34.000000 -12.000000 -6.470126E+01
34.000000 -14.000000 -6.093916E+01
34.000000 -16.000000 -4.474243E+01
34.000000 -18.000000 -4.141086E+01
34.000000 -20.000000 -5.195273E+01
34.000000 -22.000000 -5.696939E+01
34.000000 -24.000000 -4.516222E+01
34.000000 -26.000000 -2.105218E+01
34.000000 -28.000000 9.514307E+00
34.000000 -30.000000 3.291500E+01
34.000000 -32.000000 3.493639E+01
34.000000 -34.000000 2.709568E+01
34.000000 -36.000000 1.206627E+01
34.000000 -38.000000 7.294884E-01
34.000000 -40.000000 -8.215052E+00
36.000000 40.000000 -1.116761E+01
36.000000 38.000000 -1.691702E+01
36.000000 36.000000 -3.261034E+01
36.000000 34.000000 -6.352069E+01
36.000000 32.000000 -7.772705E+01
36.000000 30.000000 -6.794438E+01
36.000000 28.000000 -4.891967E+01
36.000000 26.000000 -3.383061E+01
36.000000 24.000000 -3.281405E+01
36.000000 22.000000 -2.591175E+01
36.000000 20.000000 5.677343E+00
36.000000 18.000000 4.088145E+01
36.000000 16.000000 5.131513E+01
36.000000 14.000000 3.188332E+01
36.000000 12.000000 -1.494013E+01
36.000000 10.000000 -6.138972E+01
36.000000 8.000000 -4.269611E+01
36.000000 6.000000 1.539227E+01
36.000000 4.000000 6.689503E+01
36.000000 2.000000 7.859719E+01
36.000000 0.000000 6.442417E+01
36.000000 -2.000000 4.419797E+01
36.000000 -4.000000 2.592519E+01
36.000000 -6.000000 6.023973E+00
36.000000 -8.000000 -2.531104E+01
36.000000 -10.000000 -6.187830E+01
36.000000 -12.000000 -7.720136E+01
36.000000 -14.000000 -6.943186E+01
36.000000 -16.000000 -5.090248E+01
36.000000 -18.000000 -4.291002E+01
36.000000 -20.000000 -4.657424E+01
36.000000 -22.000000 -5.033192E+01
36.000000 -24.000000 -4.713424E+01
36.000000 -26.000000 -3.611240E+01
36.000000 -28.000000 -1.094063E+01
36.000000 -30.000000 1.105097E+01
36.000000 -32.000000 1.648814E+01
36.000000 -34.000000 1.355001E+01
36.000000 -36.000000 2.991835E+00
36.000000 -38.000000 -7.424671E+00
36.000000 -40.000000 -1.492198E+01
38.000000 40.000000 -2.603838E+01
38.000000 38.000000 -4.150731E+01
38.000000 36.000000 -6.311844E+01
38.000000 34.000000 -8.736845E+01
38.000000 32.000000 -8.862885E+01
38.000000 30.000000 -6.944797E+01
38.000000 28.000000 -4.435020E+01
38.000000 26.000000 -2.572176E+01
38.000000 24.000000 -2.087235E+01
38.000000 22.000000 -1.364659E+01
38.000000 20.000000 1.148557E+01
38.000000 18.000000 4.175969E+01
38.000000 16.000000 5.155159E+01
38.000000 14.000000 3.459407E+01
38.000000 12.000000 -6.668724E+00
38.000000 10.000000 -4.621676E+01
38.000000 8.000000 -2.745901E+01
38.000000 6.000000 2.540649E+01
38.000000 4.000000 6.518917E+01
38.000000 2.000000 6.127041E+01
38.000000 0.000000 3.518800E+01
38.000000 -2.000000 1.050864E+01
38.000000 -4.000000 -6.798825E+00
38.000000 -6.000000 -1.781915E+01
38.000000 -8.000000 -3.875482E+01
38.000000 -10.000000 -6.596659E+01
38.000000 -12.000000 -7.636560E+01
38.000000 -14.000000 -6.491996E+01
38.000000 -16.000000 -4.469992E+01
38.000000 -18.000000 -3.388625E+01
38.000000 -20.000000 -3.377073E+01
38.000000 -22.000000 -3.794155E+01
38.000000 -24.000000 -4.494713E+01
38.000000 -26.000000 -4.803900E+01
38.000000 -28.000000 -2.701833E+01
38.000000 -30.000000 -7.775367E+00
38.000000 -32.000000 -2.351265E+00
38.000000 -34.000000 -1.342677E+00
38.000000 -36.000000 -7.955593E+00
38.000000 -38.000000 -1.732026E+01
38.000000 -40.000000 -2.374040E+01
40.000000 40.000000 -3.827418E+01
40.000000 38.000000 -6.395280E+01
40.000000 36.000000 -9.171658E+01
