-28.000000 40.000000 -2.656860E+01
-28.000000 38.000000 -3.270844E+01
-28.000000 36.000000 -3.774699E+01
-28.000000 34.000000 -4.144322E+01
-28.000000 32.000000 -4.249840E+01
-28.000000 30.000000 -4.652715E+01
-28.000000 28.000000 -5.471035E+01
-28.000000 26.000000 -6.351722E+01
-28.000000 24.000000 -7.169182E+01
-28.000000 22.000000 -7.377909E+01
-28.000000 20.000000 -7.170244E+01
-28.000000 18.000000 -6.296487E+01
-28.000000 16.000000 -5.031160E+01
-28.000000 14.000000 -4.385858E+01
-28.000000 12.000000 -4.050223E+01
-28.000000 10.000000 -3.189956E+01
-28.000000 8.000000 -1.930921E+01
-28.000000 6.000000 -6.475477E+00
-28.000000 4.000000 -5.153809E-01
-28.000000 2.000000 2.026865E+00
-28.000000 0.000000 8.492146E+00
-28.000000 -2.000000 2.117834E+01
-28.000000 -4.000000 3.712813E+01
-28.000000 -6.000000 4.399472E+01
-28.000000 -8.000000 3.887790E+01
-28.000000 -10.000000 3.516913E+01
-28.000000 -12.000000 3.639009E+01
-28.000000 -14.000000 3.896382E+01
-28.000000 -16.000000 3.978295E+01
-28.000000 -18.000000 3.472436E+01
-28.000000 -20.000000 2.949704E+01
-28.000000 -22.000000 2.939016E+01
-28.000000 -24.000000 3.342371E+01
-28.000000 -26.000000 3.827029E+01
-28.000000 -28.000000 4.087895E+01
-28.000000 -30.000000 3.367607E+01
-28.000000 -32.000000 2.268204E+01
-28.000000 -34.000000 1.659797E+01
-28.000000 -36.000000 1.891797E+01
-28.000000 -38.000000 2.004119E+01
-28.000000 -40.000000 1.829152E+01
-26.000000 40.000000 -2.506120E+01
-26.000000 38.000000 -2.976196E+01
-26.000000 36.000000 -3.393733E+01
-26.000000 34.000000 -3.676261E+01
-26.000000 32.000000 -3.758339E+01
-26.000000 30.000000 -4.002985E+01
-26.000000 28.000000 -4.775044E+01
-26.000000 26.000000 -5.798837E+01
-26.000000 24.000000 -6.871228E+01
-26.000000 22.000000 -7.487679E+01
-26.000000 20.000000 -7.703510E+01
-26.000000 18.000000 -6.908804E+01
-26.000000 16.000000 -5.674450E+01
-26.000000 14.000000 -5.206810E+01
-26.000000 12.000000 -5.067759E+01
-26.000000 10.000000 -4.276303E+01
-26.000000 8.000000 -2.913782E+01
-26.000000 6.000000 -1.660814E+01
-26.000000 4.000000 -1.278892E+01
-26.000000 2.000000 -1.459330E+01
-26.000000 0.000000 -1.034378E+01
-26.000000 -2.000000 3.008183E+00
-26.000000 -4.000000 1.933689E+01
-26.000000 -6.000000 2.632725E+01
-26.000000 -8.000000 2.263544E+01
-26.000000 -10.000000 2.024809E+01
-26.000000 -12.000000 2.640200E+01
-26.000000 -14.000000 3.478059E+01
-26.000000 -16.000000 4.281108E+01
-26.000000 -18.000000 4.471895E+01
-26.000000 -20.000000 4.329891E+01
-26.000000 -22.000000 4.345933E+01
-26.000000 -24.000000 4.541823E+01
-26.000000 -26.000000 4.646574E+01
-26.000000 -28.000000 4.615315E+01
-26.000000 -30.000000 4.038840E+01
-26.000000 -32.000000 2.767625E+01
-26.000000 -34.000000 1.818814E+01
-26.000000 -36.000000 1.697583E+01
-26.000000 -38.000000 1.651309E+01
-26.000000 -40.000000 1.320474E+01
-24.000000 40.000000 -2.516908E+01
-24.000000 38.000000 -2.787860E+01
-24.000000 36.000000 -3.083764E+01
-24.000000 34.000000 -3.198913E+01
-24.000000 32.000000 -3.140707E+01
-24.000000 30.000000 -3.183577E+01
-24.000000 28.000000 -3.682995E+01
-24.000000 26.000000 -4.343985E+01
-24.000000 24.000000 -5.082542E+01
-24.000000 22.000000 -6.081661E+01
-24.000000 20.000000 -6.536212E+01
-24.000000 18.000000 -6.110976E+01
-24.000000 16.000000 -5.534623E+01
-24.000000 14.000000 -5.748109E+01
-24.000000 12.000000 -6.178849E+01
-24.000000 10.000000 -5.876765E+01
-24.000000 8.000000 -4.875985E+01
-24.000000 6.000000 -4.007697E+01
-24.000000 4.000000 -3.931594E+01
-24.000000 2.000000 -4.263666E+01
-24.000000 0.000000 -3.773187E+01
-24.000000 -2.000000 -2.266340E+01
-24.000000 -4.000000 -7.598451E+00
-24.000000 -6.000000 1.298946E+00
-24.000000 -8.000000 3.877188E+00
-24.000000 -10.000000 5.606947E+00
-24.000000 -12.000000 1.723187E+01
-24.000000 -14.000000 3.109256E+01
-24.000000 -16.000000 4.636751E+01
-24.000000 -18.000000 5.648825E+01
-24.000000 -20.000000 6.002794E+01
-24.000000 -22.000000 6.015915E+01
-24.000000 -24.000000 5.976956E+01
-24.000000 -26.000000 5.691162E+01
-24.000000 -28.000000 5.484818E+01
-24.000000 -30.000000 4.791564E+01
-24.000000 -32.000000 3.315469E+01
-24.000000 -34.000000 1.979666E+01
-24.000000 -36.000000 1.412053E+01
-24.000000 -38.000000 1.315467E+01
-24.000000 -40.000000 8.278305E+00
-22.000000 40.000000 -2.599601E+01
-22.000000 38.000000 -2.681868E+01
-22.000000 36.000000 -2.823179E+01
-22.000000 34.000000 -2.871840E+01
-22.000000 32.000000 -2.704354E+01
-22.000000 30.000000 -2.535680E+01
-22.000000 28.000000 -2.669548E+01
-22.000000 26.000000 -2.769673E+01
-22.000000 24.000000 -3.054479E+01
-22.000000 22.000000 -4.129471E+01
-22.000000 20.000000 -4.431657E+01
-22.000000 18.000000 -4.199822E+01
-22.000000 16.000000 -4.530034E+01
-22.000000 14.000000 -5.556954E+01
-22.000000 12.000000 -6.712052E+01
-22.000000 10.000000 -7.021138E+01
-22.000000 8.000000 -6.566162E+01
-22.000000 6.000000 -6.344019E+01
-22.000000 4.000000 -6.360164E+01
-22.000000 2.000000 -6.277683E+01
-22.000000 0.000000 -5.641683E+01
-22.000000 -2.000000 -4.180085E+01
-22.000000 -4.000000 -2.669982E+01
-22.000000 -6.000000 -1.412542E+01
-22.000000 -8.000000 -6.697900E+00
-22.000000 -10.000000 -1.754275E+00
-22.000000 -12.000000 1.129593E+01
-22.000000 -14.000000 2.740142E+01
-22.000000 -16.000000 4.485221E+01
-22.000000 -18.000000 5.706892E+01
-22.000000 -20.000000 6.241945E+01
-22.000000 -22.000000 6.372488E+01
-22.000000 -24.000000 6.266746E+01
-22.000000 -26.000000 6.027206E+01
-22.000000 -28.000000 5.739397E+01
-22.000000 -30.000000 4.902757E+01
-22.000000 -32.000000 3.360714E+01
-22.000000 -34.000000 1.861865E+01
-22.000000 -36.000000 1.052131E+01
-22.000000 -38.000000 9.102979E+00
-22.000000 -40.000000 4.163078E+00
-20.000000 40.000000 -2.456719E+01
-20.000000 38.000000 -2.527848E+01
-20.000000 36.000000 -2.700542E+01
-20.000000 34.000000 -2.682961E+01
-20.000000 32.000000 -2.330744E+01
-20.000000 30.000000 -2.032644E+01
-20.000000 28.000000 -2.184944E+01
-20.000000 26.000000 -2.158532E+01
-20.000000 24.000000 -2.225814E+01
-20.000000 22.000000 -3.218787E+01
-20.000000 20.000000 -3.415562E+01
-20.000000 18.000000 -3.159935E+01
-20.000000 16.000000 -3.770826E+01
-20.000000 14.000000 -4.997453E+01
-20.000000 12.000000 -6.428198E+01
-20.000000 10.000000 -6.840174E+01
-20.000000 8.000000 -6.678534E+01
-20.000000 6.000000 -6.739774E+01
-20.000000 4.000000 -6.665632E+01
-20.000000 2.000000 -6.168868E+01
-20.000000 0.000000 -5.523412E+01
-20.000000 -2.000000 -4.374563E+01
-20.000000 -4.000000 -2.972392E+01
-20.000000 -6.000000 -1.576596E+01
-20.000000 -8.000000 -7.816121E+00
-20.000000 -10.000000 -3.264347E+00
-20.000000 -12.000000 6.164670E+00
-20.000000 -14.000000 1.984784E+01
-20.000000 -16.000000 3.509901E+01
-20.000000 -18.000000 4.444769E+01
-20.000000 -20.000000 4.841925E+01
-20.000000 -22.000000 5.129194E+01
-20.000000 -24.000000 5.224871E+01
-20.000000 -26.000000 5.162940E+01
-20.000000 -28.000000 5.083180E+01
-20.000000 -30.000000 4.268131E+01
-20.000000 -32.000000 2.728568E+01
-20.000000 -34.000000 1.322030E+01
-20.000000 -36.000000 6.116011E+00
-20.000000 -38.000000 6.318797E+00
-20.000000 -40.000000 3.500671E+00
-18.000000 40.000000 -2.106632E+01
-18.000000 38.000000 -2.300220E+01
-18.000000 36.000000 -2.523932E+01
-18.000000 34.000000 -2.468370E+01
-18.000000 32.000000 -2.091978E+01
-18.000000 30.000000 -1.950954E+01
-18.000000 28.000000 -2.398289E+01
-18.000000 26.000000 -2.575126E+01
-18.000000 24.000000 -2.857991E+01
-18.000000 22.000000 -3.785858E+01
-18.000000 20.000000 -3.870103E+01
-18.000000 18.000000 -3.262382E+01
-18.000000 16.000000 -3.429274E+01
-18.000000 14.000000 -4.257647E+01
-18.000000 12.000000 -5.385481E+01
-18.000000 10.000000 -5.619833E+01
-18.000000 8.000000 -5.537347E+01
-18.000000 6.000000 -5.144542E+01
-18.000000 4.000000 -4.516092E+01
-18.000000 2.000000 -3.974646E+01
-18.000000 0.000000 -3.641980E+01
-18.000000 -2.000000 -2.874602E+01
-18.000000 -4.000000 -1.755837E+01
-18.000000 -6.000000 -6.726649E+00
-18.000000 -8.000000 -2.709752E+00
-18.000000 -10.000000 -2.107074E+00
-18.000000 -12.000000 1.338940E+00
-18.000000 -14.000000 1.026420E+01
-18.000000 -16.000000 2.121180E+01
-18.000000 -18.000000 2.606990E+01
-18.000000 -20.000000 2.623178E+01
-18.000000 -22.000000 2.885621E+01
-18.000000 -24.000000 3.210405E+01
-18.000000 -26.000000 3.439169E+01
-18.000000 -28.000000 3.643715E+01
-18.000000 -30.000000 2.935993E+01
-18.000000 -32.000000 1.544750E+01
-18.000000 -34.000000 4.425255E+00
-18.000000 -36.000000 9.577498E-01
-18.000000 -38.000000 4.202931E+00
-18.000000 -40.000000 4.847622E+00
-16.000000 40.000000 -1.652861E+01
-16.000000 38.000000 -2.046651E+01
-16.000000 36.000000 -2.199753E+01
-16.000000 34.000000 -2.128435E+01
-16.000000 32.000000 -1.983445E+01
-16.000000 30.000000 -2.288659E+01
-16.000000 28.000000 -3.036747E+01
-16.000000 26.000000 -3.577209E+01
-16.000000 24.000000 -4.423543E+01
-16.000000 22.000000 -5.115586E+01
-16.000000 20.000000 -4.872515E+01
-16.000000 18.000000 -3.564068E+01
-16.000000 16.000000 -3.091002E+01
-16.000000 14.000000 -3.628462E+01
-16.000000 12.000000 -4.407817E+01
-16.000000 10.000000 -4.565048E+01
-16.000000 8.000000 -4.531023E+01
-16.000000 6.000000 -3.347005E+01
-16.000000 4.000000 -1.376027E+01
-16.000000 2.000000 -3.555716E+00
-16.000000 0.000000 -3.378497E+00
-16.000000 -2.000000 -2.638165E+00
-16.000000 -4.000000 1.710766E+00
-16.000000 -6.000000 5.586753E+00
-16.000000 -8.000000 4.317783E+00
-16.000000 -10.000000 7.495320E-01
-16.000000 -12.000000 -1.069658E+00
-16.000000 -14.000000 3.758973E+00
-16.000000 -16.000000 1.049193E+01
-16.000000 -18.000000 1.108838E+01
-16.000000 -20.000000 6.930263E+00
-16.000000 -22.000000 6.825229E+00
-16.000000 -24.000000 9.633790E+00
-16.000000 -26.000000 1.440461E+01
-16.000000 -28.000000 1.791252E+01
-16.000000 -30.000000 1.228568E+01
-16.000000 -32.000000 1.390096E+00
-16.000000 -34.000000 -5.752715E+00
-16.000000 -36.000000 -4.069309E+00
-16.000000 -38.000000 2.643873E+00
-16.000000 -40.000000 6.614694E+00
-14.000000 40.000000 -9.651066E+00
-14.000000 38.000000 -1.570096E+01
-14.000000 36.000000 -1.683027E+01
-14.000000 34.000000 -1.649787E+01
-14.000000 32.000000 -1.775121E+01
-14.000000 30.000000 -2.573872E+01
-14.000000 28.000000 -3.808124E+01
-14.000000 26.000000 -4.792319E+01
-14.000000 24.000000 -6.020222E+01
-14.000000 22.000000 -6.243285E+01
-14.000000 20.000000 -5.439719E+01
-14.000000 18.000000 -3.411793E+01
-14.000000 16.000000 -2.460162E+01
-14.000000 14.000000 -3.299350E+01
-14.000000 12.000000 -4.386934E+01
-14.000000 10.000000 -5.113132E+01
-14.000000 8.000000 -4.834455E+01
-14.000000 6.000000 -2.516433E+01
-14.000000 4.000000 1.280198E+01
-14.000000 2.000000 3.223742E+01
-14.000000 0.000000 3.179219E+01
-14.000000 -2.000000 2.503777E+01
-14.000000 -4.000000 2.074925E+01
-14.000000 -6.000000 1.647312E+01
-14.000000 -8.000000 1.109385E+01
-14.000000 -10.000000 5.818280E+00
-14.000000 -12.000000 2.053089E+00
-14.000000 -14.000000 4.778035E+00
-14.000000 -16.000000 8.894045E+00
-14.000000 -18.000000 5.667559E+00
-14.000000 -20.000000 -2.929358E+00
-14.000000 -22.000000 -7.289971E+00
-14.000000 -24.000000 -7.444099E+00
-14.000000 -26.000000 -3.656956E+00
-14.000000 -28.000000 1.644315E+00
-14.000000 -30.000000 -2.079386E+00
-14.000000 -32.000000 -1.132853E+01
-14.000000 -34.000000 -1.546298E+01
-14.000000 -36.000000 -7.923769E+00
-14.000000 -38.000000 2.690891E+00
-14.000000 -40.000000 9.089369E+00
-12.000000 40.000000 -4.799423E-01
-12.000000 38.000000 -7.054199E+00
-12.000000 36.000000 -8.677341E+00
-12.000000 34.000000 -9.486389E+00
-12.000000 32.000000 -1.336216E+01
-12.000000 30.000000 -2.629450E+01
-12.000000 28.000000 -4.392971E+01
-12.000000 26.000000 -5.622181E+01
-12.000000 24.000000 -6.779322E+01
-12.000000 22.000000 -6.548593E+01
-12.000000 20.000000 -5.158766E+01
-12.000000 18.000000 -2.802269E+01
-12.000000 16.000000 -1.717242E+01
-12.000000 14.000000 -3.100873E+01
-12.000000 12.000000 -5.324204E+01
-12.000000 10.000000 -7.223286E+01
-12.000000 8.000000 -6.426921E+01
-12.000000 6.000000 -2.824054E+01
-12.000000 4.000000 2.246840E+01
-12.000000 2.000000 4.825733E+01
-12.000000 0.000000 4.868435E+01
-12.000000 -2.000000 3.986962E+01
-12.000000 -4.000000 3.205797E+01
-12.000000 -6.000000 2.405627E+01
-12.000000 -8.000000 1.778047E+01
-12.000000 -10.000000 1.230049E+01
-12.000000 -12.000000 1.011550E+01
-12.000000 -14.000000 1.416573E+01
-12.000000 -16.000000 1.797310E+01
-12.000000 -18.000000 1.193257E+01
-12.000000 -20.000000 -1.623650E-01
-12.000000 -22.000000 -8.756281E+00
-12.000000 -24.000000 -1.211054E+01
-12.000000 -26.000000 -1.087541E+01
-12.000000 -28.000000 -4.485935E+00
-12.000000 -30.000000 -7.608217E+00
-12.000000 -32.000000 -1.729766E+01
-12.000000 -34.000000 -2.046291E+01
-12.000000 -36.000000 -9.490639E+00
-12.000000 -38.000000 2.906092E+00
-12.000000 -40.000000 9.825616E+00
-10.000000 40.000000 9.390358E+00
-10.000000 38.000000 4.543362E+00
-10.000000 36.000000 1.773251E+00
-10.000000 34.000000 -2.038536E-01
-10.000000 32.000000 -6.333282E+00
-10.000000 30.000000 -2.522552E+01
-10.000000 28.000000 -4.510689E+01
-10.000000 26.000000 -5.509278E+01
-10.000000 24.000000 -6.370808E+01
-10.000000 22.000000 -5.939593E+01
-10.000000 20.000000 -4.078729E+01
-10.000000 18.000000 -1.906117E+01
-10.000000 16.000000 -1.211195E+01
-10.000000 14.000000 -3.085307E+01
-10.000000 12.000000 -6.626640E+01
-10.000000 10.000000 -9.680342E+01
-10.000000 8.000000 -8.707799E+01
-10.000000 6.000000 -4.522689E+01
-10.000000 4.000000 1.125095E+01
-10.000000 2.000000 4.083883E+01
-10.000000 0.000000 4.246266E+01
-10.000000 -2.000000 3.699344E+01
-10.000000 -4.000000 3.213557E+01
-10.000000 -6.000000 2.610332E+01
-10.000000 -8.000000 2.212703E+01
-10.000000 -10.000000 1.726848E+01
-10.000000 -12.000000 1.830476E+01
-10.000000 -14.000000 2.574258E+01
-10.000000 -16.000000 3.165291E+01
-10.000000 -18.000000 2.670062E+01
-10.000000 -20.000000 1.450451E+01
-10.000000 -22.000000 4.718969E+00
-10.000000 -24.000000 -4.803429E-01
-10.000000 -26.000000 -1.425109E-01
-10.000000 -28.000000 3.403995E+00
-10.000000 -30.000000 -1.728270E+00
-10.000000 -32.000000 -1.217572E+01
-10.000000 -34.000000 -1.645568E+01
-10.000000 -36.000000 -7.866711E+00
-10.000000 -38.000000 1.113338E+00
-10.000000 -40.000000 5.693612E+00
-8.000000 40.000000 1.873959E+01
-8.000000 38.000000 1.690171E+01
-8.000000 36.000000 1.476471E+01
-8.000000 34.000000 1.233890E+01
-8.000000 32.000000 3.283485E+00
-8.000000 30.000000 -2.079715E+01
-8.000000 28.000000 -4.265138E+01
-8.000000 26.000000 -5.117346E+01
-8.000000 24.000000 -5.660897E+01
-8.000000 22.000000 -5.122544E+01
-8.000000 20.000000 -3.215546E+01
-8.000000 18.000000 -1.421762E+01
-8.000000 16.000000 -1.210183E+01
-8.000000 14.000000 -3.484833E+01
-8.000000 12.000000 -7.646473E+01
-8.000000 10.000000 -1.107459E+02
-8.000000 8.000000 -1.016174E+02
-8.000000 6.000000 -6.330426E+01
-8.000000 4.000000 -1.048479E+01
-8.000000 2.000000 2.010080E+01
-8.000000 0.000000 2.498728E+01
-8.000000 -2.000000 2.431617E+01
-8.000000 -4.000000 2.433522E+01
-8.000000 -6.000000 2.338003E+01
-8.000000 -8.000000 2.186278E+01
-8.000000 -10.000000 1.928190E+01
-8.000000 -12.000000 2.318949E+01
-8.000000 -14.000000 3.418885E+01
-8.000000 -16.000000 4.345626E+01
-8.000000 -18.000000 4.355075E+01
-8.000000 -20.000000 3.639162E+01
-8.000000 -22.000000 2.923031E+01
-8.000000 -24.000000 2.314942E+01
-8.000000 -26.000000 2.105413E+01
-8.000000 -28.000000 2.001645E+01
-8.000000 -30.000000 1.280716E+01
-8.000000 -32.000000 6.439619E-01
-8.000000 -34.000000 -6.914106E+00
-8.000000 -36.000000 -4.088135E+00
-8.000000 -38.000000 -8.449321E-01
-8.000000 -40.000000 -6.822689E-01
-6.000000 40.000000 2.759593E+01
-6.000000 38.000000 2.810664E+01
-6.000000 36.000000 2.849395E+01
-6.000000 34.000000 2.572198E+01
-6.000000 32.000000 1.165981E+01
-6.000000 30.000000 -1.471786E+01
-6.000000 28.000000 -4.004601E+01
-6.000000 26.000000 -5.121959E+01
-6.000000 24.000000 -5.511195E+01
-6.000000 22.000000 -4.929040E+01
-6.000000 20.000000 -3.498899E+01
-6.000000 18.000000 -1.991165E+01
-6.000000 16.000000 -1.949029E+01
-6.000000 14.000000 -4.314289E+01
-6.000000 12.000000 -8.123868E+01
-6.000000 10.000000 -1.092423E+02
-6.000000 8.000000 -9.830284E+01
-6.000000 6.000000 -6.562980E+01
-6.000000 4.000000 -2.288500E+01
-6.000000 2.000000 3.614655E+00
-6.000000 0.000000 1.004091E+01
-6.000000 -2.000000 1.226116E+01
-6.000000 -4.000000 1.629620E+01
-6.000000 -6.000000 2.015608E+01
-6.000000 -8.000000 2.069503E+01
-6.000000 -10.000000 2.034608E+01
-6.000000 -12.000000 2.578407E+01
-6.000000 -14.000000 3.807039E+01
-6.000000 -16.000000 5.021902E+01
-6.000000 -18.000000 5.571134E+01
-6.000000 -20.000000 5.506310E+01
-6.000000 -22.000000 5.187690E+01
-6.000000 -24.000000 4.669624E+01
-6.000000 -26.000000 4.160707E+01
-6.000000 -28.000000 3.679806E+01
-6.000000 -30.000000 2.920416E+01
-6.000000 -32.000000 1.501055E+01
-6.000000 -34.000000 3.725740E+00
-6.000000 -36.000000 1.081046E+00
-6.000000 -38.000000 -6.772130E-01
-6.000000 -40.000000 -5.820426E+00
-4.000000 40.000000 3.772856E+01
-4.000000 38.000000 3.816946E+01
-4.000000 36.000000 3.725100E+01
-4.000000 34.000000 3.089205E+01
-4.000000 32.000000 1.272775E+01
-4.000000 30.000000 -1.359532E+01
-4.000000 28.000000 -3.973239E+01
-4.000000 26.000000 -5.325217E+01
-4.000000 24.000000 -5.882199E+01
-4.000000 22.000000 -5.614556E+01
-4.000000 20.000000 -4.762474E+01
-4.000000 18.000000 -3.622831E+01
-4.000000 16.000000 -3.590367E+01
-4.000000 14.000000 -5.321240E+01
-4.000000 12.000000 -7.762074E+01
-4.000000 10.000000 -9.091759E+01
-4.000000 8.000000 -7.645283E+01
-4.000000 6.000000 -4.699199E+01
-4.000000 4.000000 -1.686329E+01
-4.000000 2.000000 -2.156448E-01
-4.000000 0.000000 3.916594E+00
-4.000000 -2.000000 5.797310E+00
-4.000000 -4.000000 1.177378E+01
-4.000000 -6.000000 1.908320E+01
-4.000000 -8.000000 2.143021E+01
-4.000000 -10.000000 2.209574E+01
-4.000000 -12.000000 2.709142E+01
-4.000000 -14.000000 3.749511E+01
-4.000000 -16.000000 5.003581E+01
-4.000000 -18.000000 5.766038E+01
-4.000000 -20.000000 6.098019E+01
-4.000000 -22.000000 6.226474E+01
-4.000000 -24.000000 6.072572E+01
-4.000000 -26.000000 5.676823E+01
-4.000000 -28.000000 5.071986E+01
-4.000000 -30.000000 4.271696E+01
-4.000000 -32.000000 2.828579E+01
-4.000000 -34.000000 1.558409E+01
-4.000000 -36.000000 7.785499E+00
-4.000000 -38.000000 7.228005E-02
-4.000000 -40.000000 -1.051777E+01
-2.000000 40.000000 4.821372E+01
-2.000000 38.000000 4.490403E+01
-2.000000 36.000000 3.771445E+01
-2.000000 34.000000 2.496037E+01
-2.000000 32.000000 4.820171E+00
-2.000000 30.000000 -1.877549E+01
-2.000000 28.000000 -4.150678E+01
-2.000000 26.000000 -5.440282E+01
-2.000000 24.000000 -6.225960E+01
-2.000000 22.000000 -6.546034E+01
-2.000000 20.000000 -6.309009E+01
-2.000000 18.000000 -5.587794E+01
-2.000000 16.000000 -5.390494E+01
-2.000000 14.000000 -6.095414E+01
-2.000000 12.000000 -6.941166E+01
-2.000000 10.000000 -6.574125E+01
-2.000000 8.000000 -4.498209E+01
-2.000000 6.000000 -1.848429E+01
-2.000000 4.000000 -1.769953E+00
-2.000000 2.000000 2.918335E+00
-2.000000 0.000000 2.751954E+00
-2.000000 -2.000000 4.901368E+00
-2.000000 -4.000000 1.242256E+01
-2.000000 -6.000000 2.192472E+01
-2.000000 -8.000000 2.528172E+01
-2.000000 -10.000000 2.671150E+01
-2.000000 -12.000000 2.993708E+01
-2.000000 -14.000000 3.583456E+01
-2.000000 -16.000000 4.362265E+01
-2.000000 -18.000000 4.857263E+01
-2.000000 -20.000000 5.303759E+01
-2.000000 -22.000000 5.856943E+01
-2.000000 -24.000000 6.198701E+01
-2.000000 -26.000000 6.271746E+01
-2.000000 -28.000000 5.899412E+01
-2.000000 -30.000000 5.164533E+01
-2.000000 -32.000000 3.900099E+01
-2.000000 -34.000000 2.754348E+01
-2.000000 -36.000000 1.514094E+01
-2.000000 -38.000000 2.933581E-01
-2.000000 -40.000000 -1.550834E+01
0.000000 40.000000 5.598721E+01
0.000000 38.000000 4.486081E+01
0.000000 36.000000 3.062474E+01
0.000000 34.000000 1.307591E+01
0.000000 32.000000 -7.845894E+00
0.000000 30.000000 -2.741677E+01
0.000000 28.000000 -4.371942E+01
0.000000 26.000000 -5.321860E+01
0.000000 24.000000 -6.280754E+01
0.000000 22.000000 -7.210902E+01
0.000000 20.000000 -7.477974E+01
0.000000 18.000000 -6.772557E+01
0.000000 16.000000 -6.200478E+01
0.000000 14.000000 -6.190584E+01
0.000000 12.000000 -6.022087E+01
0.000000 10.000000 -4.672292E+01
0.000000 8.000000 -2.141913E+01
0.000000 6.000000 1.608351E+00
0.000000 4.000000 8.902216E+00
0.000000 2.000000 6.019621E+00
0.000000 0.000000 3.829775E+00
0.000000 -2.000000 8.204421E+00
0.000000 -4.000000 1.743784E+01
0.000000 -6.000000 2.784724E+01
0.000000 -8.000000 3.114269E+01
0.000000 -10.000000 3.360967E+01
0.000000 -12.000000 3.474125E+01
0.000000 -14.000000 3.518632E+01
0.000000 -16.000000 3.475371E+01
0.000000 -18.000000 3.267291E+01
0.000000 -20.000000 3.601042E+01
0.000000 -22.000000 4.382560E+01
0.000000 -24.000000 5.222407E+01
0.000000 -26.000000 5.840258E+01
0.000000 -28.000000 5.855305E+01
0.000000 -30.000000 5.455873E+01
0.000000 -32.000000 4.586655E+01
0.000000 -34.000000 3.712633E+01
0.000000 -36.000000 2.151582E+01
0.000000 -38.000000 4.014819E-01
0.000000 -40.000000 -2.026684E+01
2.000000 40.000000 6.054573E+01
2.000000 38.000000 4.013508E+01
2.000000 36.000000 1.955063E+01
2.000000 34.000000 -1.542213E+00
2.000000 32.000000 -2.158205E+01
2.000000 30.000000 -3.638350E+01
2.000000 28.000000 -4.633947E+01
2.000000 26.000000 -5.307194E+01
2.000000 24.000000 -6.403891E+01
2.000000 22.000000 -7.426281E+01
2.000000 20.000000 -7.646584E+01
2.000000 18.000000 -6.375618E+01
2.000000 16.000000 -5.333169E+01
2.000000 14.000000 -5.170715E+01
2.000000 12.000000 -4.824955E+01
2.000000 10.000000 -3.730580E+01
2.000000 8.000000 -1.684400E+01
2.000000 6.000000 2.541167E+00
2.000000 4.000000 1.002507E+01
2.000000 2.000000 8.976653E+00
2.000000 0.000000 8.127487E+00
2.000000 -2.000000 1.322311E+01
2.000000 -4.000000 2.134142E+01
2.000000 -6.000000 2.852560E+01
2.000000 -8.000000 3.126334E+01
2.000000 -10.000000 3.490159E+01
2.000000 -12.000000 3.543136E+01
2.000000 -14.000000 3.406043E+01
2.000000 -16.000000 2.879952E+01
2.000000 -18.000000 2.104655E+01
2.000000 -20.000000 2.023615E+01
2.000000 -22.000000 2.595369E+01
2.000000 -24.000000 3.634035E+01
2.000000 -26.000000 4.574341E+01
2.000000 -28.000000 5.001573E+01
2.000000 -30.000000 5.112636E+01
2.000000 -32.000000 4.785283E+01
2.000000 -34.000000 4.240706E+01
2.000000 -36.000000 2.507767E+01
2.000000 -38.000000 -3.507710E-02
2.000000 -40.000000 -2.494400E+01
4.000000 40.000000 6.295576E+01
4.000000 38.000000 3.449763E+01
4.000000 36.000000 8.126532E+00
4.000000 34.000000 -1.773310E+01
4.000000 32.000000 -3.492707E+01
4.000000 30.000000 -4.337065E+01
4.000000 28.000000 -4.924033E+01
4.000000 26.000000 -5.616779E+01
4.000000 24.000000 -6.633980E+01
4.000000 22.000000 -6.864300E+01
4.000000 20.000000 -6.225834E+01
4.000000 18.000000 -4.259019E+01
4.000000 16.000000 -3.026623E+01
4.000000 14.000000 -3.101151E+01
4.000000 12.000000 -3.427271E+01
4.000000 10.000000 -3.435046E+01
4.000000 8.000000 -2.706953E+01
4.000000 6.000000 -1.364167E+01
4.000000 4.000000 1.395689E+00
4.000000 2.000000 1.144424E+01
4.000000 0.000000 1.625166E+01
4.000000 -2.000000 1.999611E+01
4.000000 -4.000000 2.172266E+01
4.000000 -6.000000 2.051715E+01
4.000000 -8.000000 2.035557E+01
4.000000 -10.000000 2.395756E+01
4.000000 -12.000000 2.731049E+01
4.000000 -14.000000 2.915422E+01
4.000000 -16.000000 2.586481E+01
4.000000 -18.000000 1.772441E+01
4.000000 -20.000000 1.136579E+01
4.000000 -22.000000 1.189738E+01
4.000000 -24.000000 2.026532E+01
4.000000 -26.000000 3.013895E+01
4.000000 -28.000000 3.740922E+01
4.000000 -30.000000 4.279789E+01
4.000000 -32.000000 4.466646E+01
4.000000 -34.000000 4.226421E+01
4.000000 -36.000000 2.457440E+01
4.000000 -38.000000 -2.029958E+00
4.000000 -40.000000 -3.018576E+01
6.000000 40.000000 6.454895E+01
6.000000 38.000000 2.882835E+01
6.000000 36.000000 -3.405387E+00
6.000000 34.000000 -3.383775E+01
6.000000 32.000000 -4.681630E+01
6.000000 30.000000 -4.792482E+01
6.000000 28.000000 -4.978243E+01
6.000000 26.000000 -5.654700E+01
6.000000 24.000000 -6.079189E+01
6.000000 22.000000 -5.073189E+01
6.000000 20.000000 -3.271985E+01
6.000000 18.000000 -8.649743E+00
6.000000 16.000000 -1.138350E+00
6.000000 14.000000 -7.530191E+00
6.000000 12.000000 -2.162302E+01
6.000000 10.000000 -3.640553E+01
6.000000 8.000000 -4.617900E+01
6.000000 6.000000 -4.183039E+01
6.000000 4.000000 -1.612075E+01
6.000000 2.000000 1.201941E+01
6.000000 0.000000 2.807481E+01
6.000000 -2.000000 3.162098E+01
6.000000 -4.000000 2.513585E+01
6.000000 -6.000000 1.295519E+01
6.000000 -8.000000 6.088112E+00
6.000000 -10.000000 5.785111E+00
6.000000 -12.000000 1.174790E+01
6.000000 -14.000000 1.899922E+01
6.000000 -16.000000 2.171980E+01
6.000000 -18.000000 1.646209E+01
6.000000 -20.000000 6.320982E+00
6.000000 -22.000000 2.242846E+00
6.000000 -24.000000 7.802891E+00
6.000000 -26.000000 1.671204E+01
6.000000 -28.000000 2.422747E+01
6.000000 -30.000000 3.146600E+01
6.000000 -32.000000 3.670071E+01
6.000000 -34.000000 3.710742E+01
6.000000 -36.000000 2.043179E+01
6.000000 -38.000000 -6.484244E+00
6.000000 -40.000000 -3.683833E+01
8.000000 40.000000 6.471020E+01
8.000000 38.000000 2.307876E+01
8.000000 36.000000 -1.409426E+01
8.000000 34.000000 -4.690442E+01
8.000000 32.000000 -5.462886E+01
8.000000 30.000000 -4.806633E+01
8.000000 28.000000 -4.411111E+01
8.000000 26.000000 -4.657032E+01
8.000000 24.000000 -3.947027E+01
8.000000 22.000000 -1.817628E+01
8.000000 20.000000 6.265564E+00
8.000000 18.000000 2.577558E+01
8.000000 16.000000 2.049950E+01
8.000000 14.000000 3.197686E+00
8.000000 12.000000 -1.875295E+01
8.000000 10.000000 -4.467455E+01
8.000000 8.000000 -6.707521E+01
8.000000 6.000000 -6.943132E+01
8.000000 4.000000 -3.609692E+01
8.000000 2.000000 7.903454E+00
8.000000 0.000000 4.033595E+01
8.000000 -2.000000 5.302615E+01
8.000000 -4.000000 4.374979E+01
8.000000 -6.000000 2.054313E+01
8.000000 -8.000000 8.036051E-01
8.000000 -10.000000 -1.035418E+01
8.000000 -12.000000 -7.005711E+00
8.000000 -14.000000 3.329084E+00
8.000000 -16.000000 1.387731E+01
8.000000 -18.000000 1.404789E+01
8.000000 -20.000000 2.681875E+00
8.000000 -22.000000 -4.900999E+00
8.000000 -24.000000 -1.762615E+00
8.000000 -26.000000 6.568250E+00
8.000000 -28.000000 1.268616E+01
8.000000 -30.000000 1.862702E+01
8.000000 -32.000000 2.475637E+01
8.000000 -34.000000 2.756088E+01
8.000000 -36.000000 1.309141E+01
8.000000 -38.000000 -1.294799E+01
8.000000 -40.000000 -4.420307E+01
10.000000 40.000000 6.090150E+01
10.000000 38.000000 1.727702E+01
10.000000 36.000000 -2.162221E+01
10.000000 34.000000 -5.378157E+01
10.000000 32.000000 -5.631537E+01
10.000000 30.000000 -4.330106E+01
10.000000 28.000000 -3.221324E+01
10.000000 26.000000 -2.504482E+01
10.000000 24.000000 -3.608798E+00
10.000000 22.000000 2.615363E+01
10.000000 20.000000 4.807758E+01
10.000000 18.000000 4.890647E+01
10.000000 16.000000 2.728532E+01
10.000000 14.000000 -5.988011E-01
10.000000 12.000000 -2.805395E+01
10.000000 10.000000 -6.029620E+01
10.000000 8.000000 -8.652412E+01
10.000000 6.000000 -9.051509E+01
10.000000 4.000000 -5.430753E+01
10.000000 2.000000 -9.624549E-01
10.000000 0.000000 4.924145E+01
10.000000 -2.000000 7.946936E+01
10.000000 -4.000000 7.613660E+01
10.000000 -6.000000 4.499249E+01
10.000000 -8.000000 7.949880E+00
10.000000 -10.000000 -1.936068E+01
10.000000 -12.000000 -2.273531E+01
10.000000 -14.000000 -1.210082E+01
10.000000 -16.000000 8.259602E+00
10.000000 -18.000000 1.557903E+01
10.000000 -20.000000 1.772288E+00
10.000000 -22.000000 -1.061601E+01
10.000000 -24.000000 -9.799747E+00
10.000000 -26.000000 -5.561695E-01
10.000000 -28.000000 4.637773E+00
10.000000 -30.000000 7.734786E+00
10.000000 -32.000000 1.190259E+01
10.000000 -34.000000 1.489240E+01
10.000000 -36.000000 3.109860E+00
10.000000 -38.000000 -1.996270E+01
10.000000 -40.000000 -5.088380E+01
12.000000 40.000000 5.447317E+01
12.000000 38.000000 1.269837E+01
12.000000 36.000000 -2.521292E+01
12.000000 34.000000 -5.574887E+01
12.000000 32.000000 -5.447376E+01
12.000000 30.000000 -3.722514E+01
12.000000 28.000000 -1.981630E+01
12.000000 26.000000 -3.458093E+00
12.000000 24.000000 3.015794E+01
12.000000 22.000000 6.478060E+01
12.000000 20.000000 8.036501E+01
12.000000 18.000000 6.092575E+01
12.000000 16.000000 2.638553E+01
12.000000 14.000000 -9.428473E+00
12.000000 12.000000 -4.493730E+01
12.000000 10.000000 -7.943552E+01
12.000000 8.000000 -1.033605E+02
12.000000 6.000000 -1.054586E+02
12.000000 4.000000 -7.089371E+01
12.000000 2.000000 -1.410815E+01
12.000000 0.000000 4.833426E+01
12.000000 -2.000000 9.604107E+01
12.000000 -4.000000 1.076900E+02
12.000000 -6.000000 7.229961E+01
12.000000 -8.000000 1.928258E+01
12.000000 -10.000000 -2.089445E+01
12.000000 -12.000000 -2.641723E+01
12.000000 -14.000000 -1.293824E+01
12.000000 -16.000000 1.831733E+01
12.000000 -18.000000 2.956989E+01
12.000000 -20.000000 8.618072E+00
12.000000 -22.000000 -1.106904E+01
12.000000 -24.000000 -1.349978E+01
12.000000 -26.000000 -4.275881E+00
12.000000 -28.000000 1.522461E+00
12.000000 -30.000000 3.708348E+00
12.000000 -32.000000 4.497577E+00
12.000000 -34.000000 5.016943E+00
12.000000 -36.000000 -6.386909E+00
12.000000 -38.000000 -2.772513E+01
12.000000 -40.000000 -5.938678E+01
14.000000 40.000000 4.991986E+01
14.000000 38.000000 1.064810E+01
14.000000 36.000000 -2.634174E+01
14.000000 34.000000 -5.643554E+01
14.000000 32.000000 -5.315425E+01
14.000000 30.000000 -3.342057E+01
14.000000 28.000000 -1.179761E+01
14.000000 26.000000 6.788863E+00
14.000000 24.000000 4.390918E+01
14.000000 22.000000 7.856492E+01
14.000000 20.000000 8.753025E+01
14.000000 18.000000 5.822829E+01
14.000000 16.000000 1.903373E+01
14.000000 14.000000 -2.153262E+01
14.000000 12.000000 -6.441090E+01
14.000000 10.000000 -9.986814E+01
14.000000 8.000000 -1.219541E+02
14.000000 6.000000 -1.248534E+02
14.000000 4.000000 -9.555373E+01
14.000000 2.000000 -3.850042E+01
14.000000 0.000000 3.105873E+01
14.000000 -2.000000 9.374272E+01
14.000000 -4.000000 1.211023E+02
14.000000 -6.000000 8.864567E+01
14.000000 -8.000000 3.215918E+01
14.000000 -10.000000 -7.074101E+00
14.000000 -12.000000 1.732540E+00
14.000000 -14.000000 3.206080E+01
14.000000 -16.000000 6.654119E+01
14.000000 -18.000000 6.307041E+01
14.000000 -20.000000 2.404603E+01
14.000000 -22.000000 -6.453579E+00
14.000000 -24.000000 -1.297400E+01
14.000000 -26.000000 -5.650951E+00
14.000000 -28.000000 2.066320E+00
14.000000 -30.000000 6.058317E+00
14.000000 -32.000000 5.014065E+00
14.000000 -34.000000 2.473940E+00
14.000000 -36.000000 -1.284829E+01
14.000000 -38.000000 -3.715532E+01
14.000000 -40.000000 -7.214671E+01
16.000000 40.000000 5.161505E+01
16.000000 38.000000 1.092559E+01
16.000000 36.000000 -2.801223E+01
16.000000 34.000000 -5.822118E+01
16.000000 32.000000 -5.371357E+01
16.000000 30.000000 -3.352561E+01
16.000000 28.000000 -1.211626E+01
16.000000 26.000000 1.507550E+00
16.000000 24.000000 2.847099E+01
16.000000 22.000000 5.294506E+01
16.000000 20.000000 5.788836E+01
16.000000 18.000000 3.574190E+01
16.000000 16.000000 1.910572E+00
16.000000 14.000000 -3.713743E+01
16.000000 12.000000 -8.238077E+01
16.000000 10.000000 -1.228183E+02
16.000000 8.000000 -1.478750E+02
16.000000 6.000000 -1.562615E+02
16.000000 4.000000 -1.314033E+02
16.000000 2.000000 -7.418223E+01
16.000000 0.000000 -4.425049E-02
16.000000 -2.000000 7.439638E+01
16.000000 -4.000000 1.144154E+02
16.000000 -6.000000 9.583146E+01
16.000000 -8.000000 5.534781E+01
16.000000 -10.000000 3.605678E+01
16.000000 -12.000000 7.342911E+01
16.000000 -14.000000 1.273338E+02
16.000000 -16.000000 1.520399E+02
16.000000 -18.000000 1.147559E+02
16.000000 -20.000000 4.588826E+01
16.000000 -22.000000 2.674828E-01
16.000000 -24.000000 -1.056133E+01
16.000000 -26.000000 -4.749872E+00
16.000000 -28.000000 4.288364E+00
16.000000 -30.000000 9.356991E+00
16.000000 -32.000000 7.674201E+00
16.000000 -34.000000 2.978498E+00
16.000000 -36.000000 -1.797082E+01
16.000000 -38.000000 -4.704877E+01
16.000000 -40.000000 -8.599201E+01
18.000000 40.000000 5.930351E+01
18.000000 38.000000 1.323898E+01
18.000000 36.000000 -3.058194E+01
18.000000 34.000000 -6.237324E+01
18.000000 32.000000 -5.862588E+01
18.000000 30.000000 -4.127124E+01
18.000000 28.000000 -2.518794E+01
18.000000 26.000000 -2.039454E+01
18.000000 24.000000 -1.089334E+01
18.000000 22.000000 -1.042046E+00
18.000000 20.000000 2.313063E+00
18.000000 18.000000 -3.682197E+00
18.000000 16.000000 -2.410359E+01
18.000000 14.000000 -5.618663E+01
18.000000 12.000000 -1.002601E+02
18.000000 10.000000 -1.462943E+02
18.000000 8.000000 -1.757237E+02
18.000000 6.000000 -1.889564E+02
18.000000 4.000000 -1.664008E+02
18.000000 2.000000 -1.092980E+02
18.000000 0.000000 -3.239272E+01
18.000000 -2.000000 4.768990E+01
18.000000 -4.000000 9.864938E+01
18.000000 -6.000000 1.016078E+02
18.000000 -8.000000 8.994482E+01
18.000000 -10.000000 1.041913E+02
18.000000 -12.000000 1.708732E+02
18.000000 -14.000000 2.388815E+02
18.000000 -16.000000 2.459327E+02
18.000000 -18.000000 1.720409E+02
18.000000 -20.000000 7.118955E+01
18.000000 -22.000000 8.521866E+00
18.000000 -24.000000 -7.243151E+00
18.000000 -26.000000 -1.532906E+00
18.000000 -28.000000 7.429689E+00
18.000000 -30.000000 1.146308E+01
18.000000 -32.000000 7.881541E+00
18.000000 -34.000000 1.218494E+00
18.000000 -36.000000 -2.439700E+01
18.000000 -38.000000 -5.678903E+01
18.000000 -40.000000 -9.834658E+01
20.000000 40.000000 6.786489E+01
20.000000 38.000000 1.750008E+01
20.000000 36.000000 -3.048147E+01
20.000000 34.000000 -6.784730E+01
20.000000 32.000000 -6.955676E+01
20.000000 30.000000 -5.866824E+01
20.000000 28.000000 -5.085731E+01
20.000000 26.000000 -5.353748E+01
20.000000 24.000000 -5.797374E+01
20.000000 22.000000 -5.691006E+01
20.000000 20.000000 -5.372352E+01
20.000000 18.000000 -4.666943E+01
20.000000 16.000000 -5.251327E+01
20.000000 14.000000 -7.629532E+01
20.000000 12.000000 -1.160429E+02
20.000000 10.000000 -1.651056E+02
20.000000 8.000000 -1.986478E+02
20.000000 6.000000 -2.135250E+02
20.000000 4.000000 -1.909068E+02
20.000000 2.000000 -1.330036E+02
20.000000 0.000000 -5.447088E+01
20.000000 -2.000000 2.560010E+01
20.000000 -4.000000 8.353587E+01
20.000000 -6.000000 1.085763E+02
20.000000 -8.000000 1.287370E+02
20.000000 -10.000000 1.781736E+02
20.000000 -12.000000 2.676539E+02
20.000000 -14.000000 3.390717E+02
20.000000 -16.000000 3.242589E+02
20.000000 -18.000000 2.172941E+02
20.000000 -20.000000 8.961049E+01
20.000000 -22.000000 1.274613E+01
20.000000 -24.000000 -6.561573E+00
20.000000 -26.000000 1.419395E+00
20.000000 -28.000000 9.817061E+00
20.000000 -30.000000 1.282599E+01
20.000000 -32.000000 5.128796E+00
20.000000 -34.000000 -5.124235E+00
20.000000 -36.000000 -3.340220E+01
20.000000 -38.000000 -6.703754E+01
20.000000 -40.000000 -1.096129E+02
22.000000 40.000000 7.721489E+01
22.000000 38.000000 2.259116E+01
22.000000 36.000000 -2.964166E+01
22.000000 34.000000 -7.468789E+01
22.000000 32.000000 -8.403263E+01
22.000000 30.000000 -8.069001E+01
22.000000 28.000000 -8.067793E+01
22.000000 26.000000 -8.697143E+01
22.000000 24.000000 -9.836946E+01
22.000000 22.000000 -9.838049E+01
22.000000 20.000000 -9.303067E+01
22.000000 18.000000 -7.731005E+01
22.000000 16.000000 -7.346354E+01
22.000000 14.000000 -9.142143E+01
22.000000 12.000000 -1.268055E+02
22.000000 10.000000 -1.749890E+02
22.000000 8.000000 -2.113192E+02
22.000000 6.000000 -2.257185E+02
22.000000 4.000000 -2.004381E+02
22.000000 2.000000 -1.389258E+02
22.000000 0.000000 -5.787540E+01
22.000000 -2.000000 2.247350E+01
22.000000 -4.000000 8.184164E+01
22.000000 -6.000000 1.218238E+02
22.000000 -8.000000 1.672168E+02
22.000000 -10.000000 2.430205E+02
22.000000 -12.000000 3.439247E+02
22.000000 -14.000000 4.080001E+02
22.000000 -16.000000 3.694449E+02
22.000000 -18.000000 2.346783E+02
22.000000 -20.000000 8.623989E+01
22.000000 -22.000000 9.488792E-01
22.000000 -24.000000 -1.645480E+01
22.000000 -26.000000 -2.382952E+00
22.000000 -28.000000 7.056372E+00
22.000000 -30.000000 9.480194E+00
22.000000 -32.000000 -2.570164E+00
22.000000 -34.000000 -1.532629E+01
22.000000 -36.000000 -4.281694E+01
22.000000 -38.000000 -7.510671E+01
22.000000 -40.000000 -1.168221E+02
24.000000 40.000000 8.856626E+01
24.000000 38.000000 2.720635E+01
24.000000 36.000000 -3.125296E+01
24.000000 34.000000 -8.193069E+01
24.000000 32.000000 -9.632668E+01
24.000000 30.000000 -9.769977E+01
24.000000 28.000000 -1.023288E+02
24.000000 26.000000 -1.101023E+02
24.000000 24.000000 -1.225162E+02
24.000000 22.000000 -1.180328E+02
24.000000 20.000000 -1.090735E+02
24.000000 18.000000 -8.622178E+01
24.000000 16.000000 -7.682408E+01
24.000000 14.000000 -9.279877E+01
24.000000 12.000000 -1.267834E+02
24.000000 10.000000 -1.736922E+02
24.000000 8.000000 -2.103160E+02
24.000000 6.000000 -2.230548E+02
24.000000 4.000000 -1.946149E+02
24.000000 2.000000 -1.303424E+02
24.000000 0.000000 -4.604672E+01
24.000000 -2.000000 3.754815E+01
24.000000 -4.000000 1.002934E+02
24.000000 -6.000000 1.486657E+02
24.000000 -8.000000 2.052701E+02
24.000000 -10.000000 2.904399E+02
24.000000 -12.000000 3.865026E+02
24.000000 -14.000000 4.326371E+02
24.000000 -16.000000 3.703083E+02
24.000000 -18.000000 2.153533E+02
24.000000 -20.000000 5.479300E+01
24.000000 -22.000000 -3.261750E+01
24.000000 -24.000000 -4.203949E+01
24.000000 -26.000000 -1.764421E+01
24.000000 -28.000000 -4.397594E+00
24.000000 -30.000000 -2.493935E+00
24.000000 -32.000000 -1.561098E+01
24.000000 -34.000000 -2.610245E+01
24.000000 -36.000000 -4.891654E+01
24.000000 -38.000000 -7.728736E+01
24.000000 -40.000000 -1.162914E+02
26.000000 40.000000 9.632101E+01
26.000000 38.000000 3.084233E+01
26.000000 36.000000 -3.181635E+01
26.000000 34.000000 -8.467065E+01
26.000000 32.000000 -9.953779E+01
26.000000 30.000000 -1.004230E+02
26.000000 28.000000 -1.048252E+02
26.000000 26.000000 -1.112887E+02
26.000000 24.000000 -1.197211E+02
26.000000 22.000000 -1.098328E+02
26.000000 20.000000 -9.687897E+01
26.000000 18.000000 -7.130608E+01
26.000000 16.000000 -6.034233E+01
26.000000 14.000000 -7.614015E+01
26.000000 12.000000 -1.132938E+02
26.000000 10.000000 -1.622695E+02
26.000000 8.000000 -2.003236E+02
26.000000 6.000000 -2.124260E+02
26.000000 4.000000 -1.830611E+02
26.000000 2.000000 -1.212784E+02
26.000000 0.000000 -3.612067E+01
26.000000 -2.000000 5.308402E+01
26.000000 -4.000000 1.264237E+02
26.000000 -6.000000 1.808614E+02
26.000000 -8.000000 2.361447E+02
26.000000 -10.000000 3.140309E+02
26.000000 -12.000000 3.888086E+02
26.000000 -14.000000 4.108165E+02
26.000000 -16.000000 3.297254E+02
26.000000 -18.000000 1.664712E+02
26.000000 -20.000000 6.990936E+00
26.000000 -22.000000 -7.470929E+01
26.000000 -24.000000 -7.372837E+01
26.000000 -26.000000 -3.950760E+01
26.000000 -28.000000 -2.156531E+01
26.000000 -30.000000 -1.856602E+01
26.000000 -32.000000 -2.863372E+01
26.000000 -34.000000 -3.390113E+01
26.000000 -36.000000 -5.075349E+01
26.000000 -38.000000 -7.437792E+01
26.000000 -40.000000 -1.100629E+02
28.000000 40.000000 9.534919E+01
28.000000 38.000000 3.270077E+01
28.000000 36.000000 -2.816597E+01
28.000000 34.000000 -7.857811E+01
28.000000 32.000000 -8.817308E+01
28.000000 30.000000 -8.218812E+01
28.000000 28.000000 -7.956018E+01
28.000000 26.000000 -8.182369E+01
28.000000 24.000000 -8.564766E+01
28.000000 22.000000 -7.505875E+01
28.000000 20.000000 -6.035096E+01
28.000000 18.000000 -3.830518E+01
28.000000 16.000000 -3.077179E+01
28.000000 14.000000 -4.981013E+01
28.000000 12.000000 -9.574772E+01
28.000000 10.000000 -1.515188E+02
28.000000 8.000000 -1.915098E+02
28.000000 6.000000 -2.039300E+02
28.000000 4.000000 -1.770300E+02
28.000000 2.000000 -1.196645E+02
28.000000 0.000000 -3.607414E+01
28.000000 -2.000000 5.693699E+01
28.000000 -4.000000 1.380581E+02
28.000000 -6.000000 1.955060E+02
28.000000 -8.000000 2.450651E+02
28.000000 -10.000000 3.078120E+02
28.000000 -12.000000 3.554887E+02
28.000000 -14.000000 3.553322E+02
28.000000 -16.000000 2.646854E+02
28.000000 -18.000000 1.086712E+02
28.000000 -20.000000 -3.589679E+01
28.000000 -22.000000 -1.066922E+02
28.000000 -24.000000 -9.773874E+01
28.000000 -26.000000 -5.837107E+01
28.000000 -28.000000 -3.704963E+01
28.000000 -30.000000 -3.091213E+01
28.000000 -32.000000 -3.546707E+01
28.000000 -34.000000 -3.536419E+01
28.000000 -36.000000 -4.785168E+01
28.000000 -38.000000 -6.836826E+01
28.000000 -40.000000 -1.019516E+02
30.000000 40.000000 8.605900E+01
30.000000 38.000000 3.056248E+01
30.000000 36.000000 -2.254138E+01
30.000000 34.000000 -6.464883E+01
30.000000 32.000000 -6.231633E+01
30.000000 30.000000 -4.257231E+01
30.000000 28.000000 -2.734667E+01
30.000000 26.000000 -2.587806E+01
30.000000 24.000000 -3.071133E+01
30.000000 22.000000 -2.967664E+01
30.000000 20.000000 -1.765715E+01
30.000000 18.000000 -1.837706E+00
30.000000 16.000000 -2.074785E+00
30.000000 14.000000 -2.871932E+01
30.000000 12.000000 -8.329143E+01
30.000000 10.000000 -1.462629E+02
30.000000 8.000000 -1.847783E+02
30.000000 6.000000 -1.947960E+02
30.000000 4.000000 -1.700552E+02
30.000000 2.000000 -1.179819E+02
30.000000 0.000000 -4.145535E+01
30.000000 -2.000000 4.653589E+01
30.000000 -4.000000 1.238588E+02
30.000000 -6.000000 1.782358E+02
30.000000 -8.000000 2.219047E+02
30.000000 -10.000000 2.699881E+02
30.000000 -12.000000 2.982245E+02
30.000000 -14.000000 2.848914E+02
30.000000 -16.000000 1.957434E+02
30.000000 -18.000000 5.915271E+01
30.000000 -20.000000 -6.166224E+01
30.000000 -22.000000 -1.193268E+02
30.000000 -24.000000 -1.074557E+02
30.000000 -26.000000 -6.894603E+01
30.000000 -28.000000 -4.561086E+01
30.000000 -30.000000 -3.437754E+01
30.000000 -32.000000 -3.327079E+01
30.000000 -34.000000 -2.803194E+01
30.000000 -36.000000 -3.809756E+01
30.000000 -38.000000 -5.931147E+01
30.000000 -40.000000 -9.427765E+01
32.000000 40.000000 7.513044E+01
32.000000 38.000000 2.510828E+01
32.000000 36.000000 -2.049308E+01
32.000000 34.000000 -5.156183E+01
32.000000 32.000000 -3.292196E+01
32.000000 30.000000 5.627840E+00
32.000000 28.000000 3.356926E+01
32.000000 26.000000 3.276356E+01
32.000000 24.000000 2.170319E+01
32.000000 22.000000 9.309404E+00
32.000000 20.000000 1.511098E+01
32.000000 18.000000 2.486664E+01
32.000000 16.000000 1.552875E+01
32.000000 14.000000 -1.940778E+01
32.000000 12.000000 -7.673048E+01
32.000000 10.000000 -1.375935E+02
32.000000 8.000000 -1.686938E+02
32.000000 6.000000 -1.710361E+02
32.000000 4.000000 -1.438432E+02
32.000000 2.000000 -9.987855E+01
32.000000 0.000000 -4.052495E+01
32.000000 -2.000000 2.649395E+01
32.000000 -4.000000 8.473322E+01
32.000000 -6.000000 1.284863E+02
32.000000 -8.000000 1.662386E+02
32.000000 -10.000000 2.068836E+02
32.000000 -12.000000 2.325074E+02
32.000000 -14.000000 2.165216E+02
32.000000 -16.000000 1.385357E+02
32.000000 -18.000000 2.589085E+01
32.000000 -20.000000 -6.910473E+01
32.000000 -22.000000 -1.117821E+02
32.000000 -24.000000 -1.006695E+02
32.000000 -26.000000 -6.846360E+01
32.000000 -28.000000 -4.485882E+01
32.000000 -30.000000 -2.877393E+01
32.000000 -32.000000 -2.339319E+01
32.000000 -34.000000 -1.420829E+01
32.000000 -36.000000 -2.276093E+01
32.000000 -38.000000 -4.757787E+01
32.000000 -40.000000 -8.814929E+01
34.000000 40.000000 7.020518E+01
34.000000 38.000000 1.948019E+01
34.000000 36.000000 -2.623499E+01
34.000000 34.000000 -4.960945E+01
34.000000 32.000000 -1.647549E+01
34.000000 30.000000 4.059110E+01
34.000000 28.000000 7.772063E+01
34.000000 26.000000 6.909328E+01
34.000000 24.000000 5.262905E+01
34.000000 22.000000 3.369588E+01
34.000000 20.000000 3.312408E+01
34.000000 18.000000 3.684960E+01
34.000000 16.000000 2.148769E+01
34.000000 14.000000 -1.884538E+01
34.000000 12.000000 -7.340414E+01
34.000000 10.000000 -1.217218E+02
34.000000 8.000000 -1.367575E+02
34.000000 6.000000 -1.246780E+02
34.000000 4.000000 -9.326214E+01
34.000000 2.000000 -6.042496E+01
34.000000 0.000000 -2.506804E+01
34.000000 -2.000000 1.042911E+01
34.000000 -4.000000 3.851583E+01
34.000000 -6.000000 6.228660E+01
34.000000 -8.000000 9.544916E+01
34.000000 -10.000000 1.373672E+02
34.000000 -12.000000 1.723211E+02
34.000000 -14.000000 1.621124E+02
34.000000 -16.000000 1.002352E+02
34.000000 -18.000000 1.159284E+01
34.000000 -20.000000 -5.921686E+01
34.000000 -22.000000 -8.736467E+01
34.000000 -24.000000 -7.880506E+01
34.000000 -26.000000 -5.615279E+01
34.000000 -28.000000 -3.584522E+01
34.000000 -30.000000 -1.823255E+01
34.000000 -32.000000 -1.107263E+01
34.000000 -34.000000 3.554878E-01
34.000000 -36.000000 -6.351059E+00
34.000000 -38.000000 -3.476909E+01
34.000000 -40.000000 -8.330017E+01
36.000000 40.000000 7.002816E+01
36.000000 38.000000 1.469605E+01
36.000000 36.000000 -3.596333E+01
36.000000 34.000000 -5.801775E+01
36.000000 32.000000 -1.836190E+01
36.000000 30.000000 4.669463E+01
36.000000 28.000000 8.344757E+01
36.000000 26.000000 6.979704E+01
36.000000 24.000000 5.410264E+01
36.000000 22.000000 3.738660E+01
36.000000 20.000000 3.610065E+01
36.000000 18.000000 3.592180E+01
36.000000 16.000000 1.920831E+01
36.000000 14.000000 -1.957864E+01
36.000000 12.000000 -6.659350E+01
36.000000 10.000000 -9.709294E+01
36.000000 8.000000 -9.178152E+01
36.000000 6.000000 -6.574056E+01
36.000000 4.000000 -3.491273E+01
36.000000 2.000000 -1.221410E+01
36.000000 0.000000 -2.322826E-01
36.000000 -2.000000 6.499866E+00
36.000000 -4.000000 5.845367E+00
36.000000 -6.000000 5.149900E+00
36.000000 -8.000000 3.717595E+01
36.000000 -10.000000 8.739365E+01
36.000000 -12.000000 1.314109E+02
36.000000 -14.000000 1.302397E+02
36.000000 -16.000000 8.477137E+01
36.000000 -18.000000 1.880427E+01
36.000000 -20.000000 -3.216685E+01
36.000000 -22.000000 -5.075141E+01
36.000000 -24.000000 -4.765107E+01
36.000000 -26.000000 -3.659291E+01
36.000000 -28.000000 -2.451827E+01
36.000000 -30.000000 -1.060678E+01
36.000000 -32.000000 -2.330963E+00
36.000000 -34.000000 1.172849E+01
36.000000 -36.000000 5.733961E+00
36.000000 -38.000000 -2.533585E+01
36.000000 -40.000000 -7.852101E+01
38.000000 40.000000 7.190815E+01
38.000000 38.000000 1.140419E+01
38.000000 36.000000 -4.471345E+01
38.000000 34.000000 -7.153107E+01
38.000000 32.000000 -3.603897E+01
38.000000 30.000000 2.204426E+01
38.000000 28.000000 4.874377E+01
38.000000 26.000000 3.578448E+01
38.000000 24.000000 2.732153E+01
38.000000 22.000000 1.986451E+01
38.000000 20.000000 2.385221E+01
38.000000 18.000000 2.562789E+01
38.000000 16.000000 1.229777E+01
38.000000 14.000000 -1.708264E+01
38.000000 12.000000 -5.131624E+01
38.000000 10.000000 -6.539986E+01
38.000000 8.000000 -4.648541E+01
38.000000 6.000000 -1.499497E+01
38.000000 4.000000 1.068248E+01
38.000000 2.000000 2.187936E+01
38.000000 0.000000 1.979016E+01
38.000000 -2.000000 1.291630E+01
38.000000 -4.000000 4.407463E-01
38.000000 -6.000000 -8.606291E+00
38.000000 -8.000000 2.024460E+01
38.000000 -10.000000 6.993170E+01
38.000000 -12.000000 1.139866E+02
38.000000 -14.000000 1.211803E+02
38.000000 -16.000000 9.075824E+01
38.000000 -18.000000 4.401997E+01
38.000000 -20.000000 5.511541E+00
38.000000 -22.000000 -1.161665E+01
38.000000 -24.000000 -1.722500E+01
38.000000 -26.000000 -1.850249E+01
38.000000 -28.000000 -1.678051E+01
38.000000 -30.000000 -9.299034E+00
38.000000 -32.000000 1.349388E+00
38.000000 -34.000000 1.911241E+01
38.000000 -36.000000 1.126779E+01
38.000000 -38.000000 -2.143943E+01
38.000000 -40.000000 -7.310959E+01
40.000000 40.000000 7.662792E+01
40.000000 38.000000 1.138228E+01
40.000000 36.000000 -5.052283E+01
40.000000 34.000000 -8.751733E+01
40.000000 32.000000 -6.487193E+01
40.000000 30.000000 -2.442640E+01
40.000000 28.000000 -7.707029E+00
40.000000 26.000000 -1.460792E+01
40.000000 24.000000 -1.503553E+01
40.000000 22.000000 -1.055944E+01
40.000000 20.000000 -7.569504E-01
40.000000 18.000000 7.874403E+00
40.000000 16.000000 3.142677E+00
40.000000 14.000000 -1.280949E+01
40.000000 12.000000 -3.142356E+01
40.000000 10.000000 -3.303247E+01
40.000000 8.000000 -1.058372E+01
40.000000 6.000000 1.682948E+01
40.000000 4.000000 3.496487E+01
40.000000 2.000000 3.644926E+01
