-8.000000 38.000000 2.408369E+00
-8.000000 36.000000 2.050056E+01
-8.000000 34.000000 3.777424E+01
-8.000000 32.000000 4.498908E+01
-8.000000 30.000000 4.454377E+01
-8.000000 28.000000 3.788701E+01
-8.000000 26.000000 3.060127E+01
-8.000000 24.000000 2.490125E+01
-8.000000 22.000000 1.865902E+01
-8.000000 20.000000 1.249391E+01
-8.000000 18.000000 2.526843E+01
-8.000000 16.000000 6.601634E+01
-8.000000 14.000000 1.149478E+02
-8.000000 12.000000 1.457028E+02
-8.000000 10.000000 1.416161E+02
-8.000000 8.000000 9.517437E+01
-8.000000 6.000000 3.491859E+01
-8.000000 4.000000 -7.638515E+00
-8.000000 2.000000 -1.626299E+01
-8.000000 0.000000 -8.026112E+00
-8.000000 -2.000000 -1.517776E+00
-8.000000 -4.000000 -3.843100E+00
-8.000000 -6.000000 -6.146276E+00
-8.000000 -8.000000 2.973156E-01
-8.000000 -10.000000 7.295536E+00
-8.000000 -12.000000 3.042772E+00
-8.000000 -14.000000 -9.244373E+00
-8.000000 -16.000000 -1.807133E+01
-8.000000 -18.000000 -1.153362E+01
-8.000000 -20.000000 5.582695E+00
-8.000000 -22.000000 1.673893E+01
-8.000000 -24.000000 1.427803E+01
-8.000000 -26.000000 6.913196E+00
-8.000000 -28.000000 2.690373E+00
-8.000000 -30.000000 1.561870E+00
-8.000000 -32.000000 1.126773E+00
-8.000000 -34.000000 1.779354E+00
-8.000000 -36.000000 7.002195E+00
-8.000000 -38.000000 1.150840E+01
-8.000000 -40.000000 1.896913E+01
-6.000000 40.000000 -1.737598E+01
-6.000000 38.000000 1.162642E+00
-6.000000 36.000000 2.014754E+01
-6.000000 34.000000 3.674052E+01
-6.000000 32.000000 4.321975E+01
-6.000000 30.000000 4.321824E+01
-6.000000 28.000000 3.784537E+01
-6.000000 26.000000 3.283724E+01
-6.000000 24.000000 2.954442E+01
-6.000000 22.000000 2.431429E+01
-6.000000 20.000000 2.107598E+01
-6.000000 18.000000 3.198283E+01
-6.000000 16.000000 6.576658E+01
-6.000000 14.000000 1.066847E+02
-6.000000 12.000000 1.314087E+02
-6.000000 10.000000 1.242678E+02
-6.000000 8.000000 7.908433E+01
-6.000000 6.000000 2.253176E+01
-6.000000 4.000000 -1.317721E+01
-6.000000 2.000000 -1.700587E+01
-6.000000 0.000000 -6.515621E+00
-6.000000 -2.000000 1.337778E+00
-6.000000 -4.000000 1.269588E-01
-6.000000 -6.000000 -1.595671E+00
-6.000000 -8.000000 4.035261E+00
-6.000000 -10.000000 9.736210E+00
-6.000000 -12.000000 4.513277E+00
-6.000000 -14.000000 -8.532135E+00
-6.000000 -16.000000 -1.823418E+01
-6.000000 -18.000000 -1.295819E+01
-6.000000 -20.000000 -4.911842E-01
-6.000000 -22.000000 6.797154E+00
-6.000000 -24.000000 7.260911E+00
-6.000000 -26.000000 4.131411E+00
-6.000000 -28.000000 1.302902E+00
-6.000000 -30.000000 1.021272E+00
-6.000000 -32.000000 1.689903E+00
-6.000000 -34.000000 2.686296E+00
-6.000000 -36.000000 5.992057E+00
-6.000000 -38.000000 9.538987E+00
-6.000000 -40.000000 1.753770E+01
-4.000000 40.000000 -1.825304E+01
-4.000000 38.000000 8.064957E-01
-4.000000 36.000000 1.788678E+01
-4.000000 34.000000 3.046878E+01
-4.000000 32.000000 3.511741E+01
-4.000000 30.000000 3.662597E+01
-4.000000 28.000000 3.391023E+01
-4.000000 26.000000 3.145873E+01
-4.000000 24.000000 3.332035E+01
-4.000000 22.000000 3.363336E+01
-4.000000 20.000000 3.329305E+01
-4.000000 18.000000 4.153099E+01
-4.000000 16.000000 6.886480E+01
-4.000000 14.000000 1.028143E+02
-4.000000 12.000000 1.241110E+02
-4.000000 10.000000 1.149533E+02
-4.000000 8.000000 6.943533E+01
-4.000000 6.000000 1.556760E+01
-4.000000 4.000000 -1.492319E+01
-4.000000 2.000000 -1.612415E+01
-4.000000 0.000000 -5.908615E+00
-4.000000 -2.000000 1.002815E+00
-4.000000 -4.000000 -6.519947E-01
-4.000000 -6.000000 -3.671551E-01
-4.000000 -8.000000 6.112783E+00
-4.000000 -10.000000 1.124687E+01
-4.000000 -12.000000 5.617088E+00
-4.000000 -14.000000 -7.778355E+00
-4.000000 -16.000000 -1.894883E+01
-4.000000 -18.000000 -1.657919E+01
-4.000000 -20.000000 -8.859957E+00
-4.000000 -22.000000 -2.892210E+00
-4.000000 -24.000000 1.811424E+00
-4.000000 -26.000000 2.905128E+00
-4.000000 -28.000000 2.215328E-01
-4.000000 -30.000000 -1.205231E+00
-4.000000 -32.000000 -8.436747E-01
-4.000000 -34.000000 7.636867E-01
-4.000000 -36.000000 3.921000E+00
-4.000000 -38.000000 7.411921E+00
-4.000000 -40.000000 1.620518E+01
-2.000000 40.000000 -1.710671E+01
-2.000000 38.000000 1.458838E+00
-2.000000 36.000000 1.500337E+01
-2.000000 34.000000 2.034543E+01
-2.000000 32.000000 2.219635E+01
-2.000000 30.000000 2.643359E+01
-2.000000 28.000000 2.721157E+01
-2.000000 26.000000 2.648552E+01
-2.000000 24.000000 3.316533E+01
-2.000000 22.000000 3.889350E+01
-2.000000 20.000000 3.856463E+01
-2.000000 18.000000 4.380605E+01
-2.000000 16.000000 6.738328E+01
-2.000000 14.000000 9.957315E+01
-2.000000 12.000000 1.226753E+02
-2.000000 10.000000 1.171753E+02
-2.000000 8.000000 7.211113E+01
-2.000000 6.000000 1.985744E+01
-2.000000 4.000000 -7.202164E+00
-2.000000 2.000000 -8.104687E+00
-2.000000 0.000000 -2.114632E+00
-2.000000 -2.000000 -5.419216E-01
-2.000000 -4.000000 -5.026234E+00
-2.000000 -6.000000 -4.303427E+00
-2.000000 -8.000000 4.590315E+00
-2.000000 -10.000000 1.152795E+01
-2.000000 -12.000000 5.990423E+00
-2.000000 -14.000000 -8.001118E+00
-2.000000 -16.000000 -2.058323E+01
-2.000000 -18.000000 -2.176806E+01
-2.000000 -20.000000 -1.492286E+01
-2.000000 -22.000000 -5.529452E+00
-2.000000 -24.000000 2.377465E+00
-2.000000 -26.000000 4.336356E+00
-2.000000 -28.000000 -1.058148E+00
-2.000000 -30.000000 -6.405144E+00
-2.000000 -32.000000 -7.640354E+00
-2.000000 -34.000000 -4.210893E+00
-2.000000 -36.000000 1.332504E+00
-2.000000 -38.000000 5.823055E+00
-2.000000 -40.000000 1.490608E+01
0.000000 40.000000 -1.445490E+01
0.000000 38.000000 3.050512E+00
0.000000 36.000000 1.201560E+01
0.000000 34.000000 9.526995E+00
0.000000 32.000000 7.847198E+00
0.000000 30.000000 1.450820E+01
0.000000 28.000000 1.960603E+01
0.000000 26.000000 2.027622E+01
0.000000 24.000000 2.834210E+01
0.000000 22.000000 3.584451E+01
0.000000 20.000000 3.470192E+01
0.000000 18.000000 3.884920E+01
0.000000 16.000000 6.137090E+01
0.000000 14.000000 9.578982E+01
0.000000 12.000000 1.224751E+02
0.000000 10.000000 1.230473E+02
0.000000 8.000000 8.250392E+01
0.000000 6.000000 3.326348E+01
0.000000 4.000000 6.282608E+00
0.000000 2.000000 2.226501E+00
0.000000 0.000000 2.335135E+00
0.000000 -2.000000 -1.524822E+00
0.000000 -4.000000 -8.584097E+00
0.000000 -6.000000 -8.883331E+00
0.000000 -8.000000 2.251661E+00
0.000000 -10.000000 1.124701E+01
0.000000 -12.000000 5.958874E+00
0.000000 -14.000000 -8.544996E+00
0.000000 -16.000000 -2.288785E+01
0.000000 -18.000000 -2.526420E+01
0.000000 -20.000000 -1.487859E+01
0.000000 -22.000000 -4.940748E-01
0.000000 -24.000000 8.291594E+00
0.000000 -26.000000 8.188031E+00
0.000000 -28.000000 -3.181602E+00
0.000000 -30.000000 -1.471620E+01
0.000000 -32.000000 -1.754691E+01
0.000000 -34.000000 -1.055403E+01
0.000000 -36.000000 -1.304341E+00
0.000000 -38.000000 4.550976E+00
0.000000 -40.000000 1.397907E+01
2.000000 40.000000 -1.113674E+01
2.000000 38.000000 3.954399E+00
2.000000 36.000000 8.575094E+00
2.000000 34.000000 1.985355E+00
2.000000 32.000000 -1.978813E+00
2.000000 30.000000 5.456520E+00
2.000000 28.000000 1.307476E+01
2.000000 26.000000 1.550133E+01
2.000000 24.000000 2.192835E+01
2.000000 22.000000 2.713862E+01
2.000000 20.000000 2.478574E+01
2.000000 18.000000 2.906379E+01
2.000000 16.000000 5.243326E+01
2.000000 14.000000 8.813348E+01
2.000000 12.000000 1.170600E+02
2.000000 10.000000 1.218275E+02
2.000000 8.000000 8.941007E+01
2.000000 6.000000 4.772896E+01
2.000000 4.000000 2.013770E+01
2.000000 2.000000 9.835670E+00
2.000000 0.000000 4.341658E+00
2.000000 -2.000000 -2.105579E+00
2.000000 -4.000000 -7.977457E+00
2.000000 -6.000000 -7.701895E+00
2.000000 -8.000000 4.030775E+00
2.000000 -10.000000 1.265339E+01
2.000000 -12.000000 6.558590E+00
2.000000 -14.000000 -7.299576E+00
2.000000 -16.000000 -2.196106E+01
2.000000 -18.000000 -2.298858E+01
2.000000 -20.000000 -9.046020E+00
2.000000 -22.000000 7.981484E+00
2.000000 -24.000000 1.549240E+01
2.000000 -26.000000 1.148647E+01
2.000000 -28.000000 -6.425586E+00
2.000000 -30.000000 -2.387184E+01
2.000000 -32.000000 -2.826980E+01
2.000000 -34.000000 -1.778085E+01
2.000000 -36.000000 -4.357722E+00
2.000000 -38.000000 3.713724E+00
2.000000 -40.000000 1.436111E+01
4.000000 40.000000 -8.504105E+00
4.000000 38.000000 3.883902E+00
4.000000 36.000000 5.865856E+00
4.000000 34.000000 -1.367748E+00
4.000000 32.000000 -5.346672E+00
4.000000 30.000000 3.214010E+00
4.000000 28.000000 1.135618E+01
4.000000 26.000000 1.462195E+01
4.000000 24.000000 1.816251E+01
4.000000 22.000000 1.866555E+01
4.000000 20.000000 1.265274E+01
4.000000 18.000000 1.548165E+01
4.000000 16.000000 3.999022E+01
4.000000 14.000000 7.536067E+01
4.000000 12.000000 1.063798E+02
4.000000 10.000000 1.165302E+02
4.000000 8.000000 9.492722E+01
4.000000 6.000000 6.134126E+01
4.000000 4.000000 3.093279E+01
4.000000 2.000000 1.093147E+01
4.000000 0.000000 -1.146563E+00
4.000000 -2.000000 -6.547663E+00
4.000000 -4.000000 -6.622219E+00
4.000000 -6.000000 -1.034624E+00
4.000000 -8.000000 1.071878E+01
4.000000 -10.000000 1.719070E+01
4.000000 -12.000000 9.458170E+00
4.000000 -14.000000 -3.950757E+00
4.000000 -16.000000 -1.736735E+01
4.000000 -18.000000 -1.733955E+01
4.000000 -20.000000 -2.736297E+00
4.000000 -22.000000 1.398803E+01
4.000000 -24.000000 1.916794E+01
4.000000 -26.000000 1.070009E+01
4.000000 -28.000000 -9.882849E+00
4.000000 -30.000000 -2.974938E+01
4.000000 -32.000000 -3.567233E+01
4.000000 -34.000000 -2.394758E+01
4.000000 -36.000000 -6.929384E+00
4.000000 -38.000000 4.268795E+00
4.000000 -40.000000 1.606102E+01
6.000000 40.000000 -7.491833E+00
6.000000 38.000000 2.949738E+00
6.000000 36.000000 4.670793E+00
6.000000 34.000000 -1.210747E-01
6.000000 32.000000 -2.150499E+00
6.000000 30.000000 7.217617E+00
6.000000 28.000000 1.611383E+01
6.000000 26.000000 1.987310E+01
6.000000 24.000000 2.069417E+01
6.000000 22.000000 1.561804E+01
6.000000 20.000000 4.968674E+00
6.000000 18.000000 2.781111E+00
6.000000 16.000000 2.477195E+01
6.000000 14.000000 6.022031E+01
6.000000 12.000000 9.700458E+01
6.000000 10.000000 1.179122E+02
6.000000 8.000000 1.079955E+02
6.000000 6.000000 7.743241E+01
6.000000 4.000000 3.616084E+01
6.000000 2.000000 3.825665E-01
6.000000 0.000000 -2.130642E+01
6.000000 -2.000000 -2.378360E+01
6.000000 -4.000000 -1.384593E+01
6.000000 -6.000000 2.104679E+00
6.000000 -8.000000 1.703468E+01
6.000000 -10.000000 2.333623E+01
6.000000 -12.000000 1.373055E+01
6.000000 -14.000000 1.070995E-01
6.000000 -16.000000 -1.223246E+01
6.000000 -18.000000 -1.257480E+01
6.000000 -20.000000 2.155962E-01
6.000000 -22.000000 1.483066E+01
6.000000 -24.000000 1.836217E+01
6.000000 -26.000000 8.054948E+00
6.000000 -28.000000 -1.145095E+01
6.000000 -30.000000 -3.061006E+01
6.000000 -32.000000 -3.729135E+01
6.000000 -34.000000 -2.572633E+01
6.000000 -36.000000 -6.791370E+00
6.000000 -38.000000 5.961753E+00
6.000000 -40.000000 1.795420E+01
8.000000 40.000000 -8.929913E+00
8.000000 38.000000 1.845967E+00
8.000000 36.000000 6.038934E+00
8.000000 34.000000 5.617110E+00
8.000000 32.000000 6.626845E+00
8.000000 30.000000 1.613883E+01
8.000000 28.000000 2.541319E+01
8.000000 26.000000 2.941850E+01
8.000000 24.000000 2.945124E+01
8.000000 22.000000 1.998316E+01
8.000000 20.000000 4.253628E+00
8.000000 18.000000 -3.535606E+00
8.000000 16.000000 1.348110E+01
8.000000 14.000000 4.997692E+01
8.000000 12.000000 9.566711E+01
8.000000 10.000000 1.298852E+02
8.000000 8.000000 1.288766E+02
8.000000 6.000000 9.675123E+01
8.000000 4.000000 3.950121E+01
8.000000 2.000000 -1.775427E+01
8.000000 0.000000 -5.480227E+01
8.000000 -2.000000 -5.858969E+01
8.000000 -4.000000 -3.852327E+01
8.000000 -6.000000 -8.627520E+00
8.000000 -8.000000 1.471108E+01
8.000000 -10.000000 2.600183E+01
8.000000 -12.000000 1.721507E+01
8.000000 -14.000000 2.886258E+00
8.000000 -16.000000 -9.130816E+00
8.000000 -18.000000 -9.404330E+00
8.000000 -20.000000 9.479718E-01
8.000000 -22.000000 1.306317E+01
8.000000 -24.000000 1.625253E+01
8.000000 -26.000000 6.924619E+00
8.000000 -28.000000 -1.019405E+01
8.000000 -30.000000 -2.712907E+01
8.000000 -32.000000 -3.337696E+01
8.000000 -34.000000 -2.238477E+01
8.000000 -36.000000 -3.900459E+00
8.000000 -38.000000 8.005376E+00
8.000000 -40.000000 1.963918E+01
10.000000 40.000000 -1.231359E+01
10.000000 38.000000 1.496753E+00
10.000000 36.000000 1.004592E+01
10.000000 34.000000 1.362131E+01
10.000000 32.000000 1.699332E+01
10.000000 30.000000 2.661764E+01
10.000000 28.000000 3.541829E+01
10.000000 26.000000 3.857511E+01
10.000000 24.000000 3.998346E+01
10.000000 22.000000 3.042310E+01
10.000000 20.000000 1.175364E+01
10.000000 18.000000 -3.558979E-01
10.000000 16.000000 1.214004E+01
10.000000 14.000000 4.978424E+01
10.000000 12.000000 1.040480E+02
10.000000 10.000000 1.512757E+02
10.000000 8.000000 1.555405E+02
10.000000 6.000000 1.193458E+02
10.000000 4.000000 4.525916E+01
10.000000 2.000000 -3.523763E+01
10.000000 0.000000 -9.185184E+01
10.000000 -2.000000 -1.031213E+02
10.000000 -4.000000 -7.790586E+01
10.000000 -6.000000 -3.406432E+01
10.000000 -8.000000 1.582483E+00
10.000000 -10.000000 2.153298E+01
10.000000 -12.000000 1.544007E+01
10.000000 -14.000000 5.338383E-01
10.000000 -16.000000 -1.125846E+01
10.000000 -18.000000 -1.036820E+01
10.000000 -20.000000 -1.811650E-01
10.000000 -22.000000 1.154049E+01
10.000000 -24.000000 1.528510E+01
10.000000 -26.000000 7.536306E+00
10.000000 -28.000000 -6.916026E+00
10.000000 -30.000000 -2.019814E+01
10.000000 -32.000000 -2.391594E+01
10.000000 -34.000000 -1.427542E+01
10.000000 -36.000000 1.018808E+00
10.000000 -38.000000 1.039882E+01
10.000000 -40.000000 2.092204E+01
12.000000 40.000000 -1.602371E+01
12.000000 38.000000 1.084130E+00
12.000000 36.000000 1.415282E+01
12.000000 34.000000 2.169587E+01
12.000000 32.000000 2.571457E+01
12.000000 30.000000 3.325984E+01
12.000000 28.000000 4.006952E+01
12.000000 26.000000 4.260994E+01
12.000000 24.000000 4.699365E+01
12.000000 22.000000 4.131183E+01
12.000000 20.000000 2.592456E+01
12.000000 18.000000 1.367834E+01
12.000000 16.000000 2.385794E+01
12.000000 14.000000 6.197776E+01
12.000000 12.000000 1.211116E+02
12.000000 10.000000 1.768191E+02
12.000000 8.000000 1.836663E+02
12.000000 6.000000 1.438613E+02
12.000000 4.000000 5.661009E+01
12.000000 2.000000 -4.332516E+01
12.000000 0.000000 -1.194706E+02
12.000000 -2.000000 -1.431247E+02
12.000000 -4.000000 -1.206355E+02
12.000000 -6.000000 -6.788499E+01
12.000000 -8.000000 -2.083096E+01
12.000000 -10.000000 6.236347E+00
12.000000 -12.000000 2.839967E+00
12.000000 -14.000000 -1.043267E+01
12.000000 -16.000000 -2.066692E+01
12.000000 -18.000000 -1.688032E+01
12.000000 -20.000000 -3.127920E+00
12.000000 -22.000000 1.097597E+01
12.000000 -24.000000 1.608894E+01
12.000000 -26.000000 9.914782E+00
12.000000 -28.000000 -1.951251E+00
12.000000 -30.000000 -1.090537E+01
12.000000 -32.000000 -1.076796E+01
12.000000 -34.000000 -2.860958E+00
12.000000 -36.000000 7.174591E+00
12.000000 -38.000000 1.237853E+01
12.000000 -40.000000 2.103187E+01
14.000000 40.000000 -1.928062E+01
14.000000 38.000000 -3.182507E-01
14.000000 36.000000 1.638853E+01
14.000000 34.000000 2.696998E+01
14.000000 32.000000 2.935521E+01
14.000000 30.000000 3.250595E+01
14.000000 28.000000 3.580043E+01
14.000000 26.000000 3.870035E+01
14.000000 24.000000 4.835194E+01
14.000000 22.000000 4.981593E+01
14.000000 20.000000 4.188029E+01
14.000000 18.000000 3.332125E+01
14.000000 16.000000 4.403937E+01
14.000000 14.000000 8.093810E+01
14.000000 12.000000 1.384554E+02
14.000000 10.000000 1.946082E+02
14.000000 8.000000 2.030226E+02
14.000000 6.000000 1.647068E+02
14.000000 4.000000 7.656864E+01
14.000000 2.000000 -3.137589E+01
14.000000 0.000000 -1.222112E+02
14.000000 -2.000000 -1.628735E+02
14.000000 -4.000000 -1.533043E+02
14.000000 -6.000000 -1.032912E+02
14.000000 -8.000000 -5.256057E+01
14.000000 -10.000000 -2.258432E+01
14.000000 -12.000000 -2.186182E+01
14.000000 -14.000000 -3.015359E+01
14.000000 -16.000000 -3.456346E+01
14.000000 -18.000000 -2.558415E+01
14.000000 -20.000000 -6.912961E+00
14.000000 -22.000000 1.070793E+01
14.000000 -24.000000 1.800388E+01
14.000000 -26.000000 1.441757E+01
14.000000 -28.000000 4.882772E+00
14.000000 -30.000000 -5.165362E-01
14.000000 -32.000000 2.734379E+00
14.000000 -34.000000 8.614096E+00
14.000000 -36.000000 1.243168E+01
14.000000 -38.000000 1.289665E+01
14.000000 -40.000000 1.895640E+01
16.000000 40.000000 -2.201934E+01
16.000000 38.000000 -2.286303E+00
16.000000 36.000000 1.699418E+01
16.000000 34.000000 2.787937E+01
16.000000 32.000000 2.660214E+01
16.000000 30.000000 2.484640E+01
16.000000 28.000000 2.542986E+01
16.000000 26.000000 2.852200E+01
16.000000 24.000000 4.208295E+01
16.000000 22.000000 5.138709E+01
16.000000 20.000000 5.063870E+01
16.000000 18.000000 4.537103E+01
16.000000 16.000000 5.728857E+01
16.000000 14.000000 9.248870E+01
16.000000 12.000000 1.456231E+02
16.000000 10.000000 1.996904E+02
16.000000 8.000000 2.099682E+02
16.000000 6.000000 1.772119E+02
16.000000 4.000000 9.984937E+01
16.000000 2.000000 -1.299125E+00
16.000000 0.000000 -9.700159E+01
16.000000 -2.000000 -1.547690E+02
16.000000 -4.000000 -1.648439E+02
16.000000 -6.000000 -1.293437E+02
16.000000 -8.000000 -8.538382E+01
16.000000 -10.000000 -5.805248E+01
16.000000 -12.000000 -5.312904E+01
16.000000 -14.000000 -5.477317E+01
16.000000 -16.000000 -5.089349E+01
16.000000 -18.000000 -3.473101E+01
16.000000 -20.000000 -1.028253E+01
16.000000 -22.000000 1.081399E+01
16.000000 -24.000000 1.957393E+01
16.000000 -26.000000 1.761603E+01
16.000000 -28.000000 1.097760E+01
16.000000 -30.000000 8.928265E+00
16.000000 -32.000000 1.398633E+01
16.000000 -34.000000 1.742969E+01
16.000000 -36.000000 1.587713E+01
16.000000 -38.000000 1.223766E+01
16.000000 -40.000000 1.411228E+01
18.000000 40.000000 -2.386554E+01
18.000000 38.000000 -5.122993E+00
18.000000 36.000000 1.455895E+01
18.000000 34.000000 2.432481E+01
18.000000 32.000000 2.061071E+01
18.000000 30.000000 1.526709E+01
18.000000 28.000000 1.371298E+01
18.000000 26.000000 1.584555E+01
18.000000 24.000000 2.905832E+01
18.000000 22.000000 4.152966E+01
18.000000 20.000000 4.286017E+01
18.000000 18.000000 3.945159E+01
18.000000 16.000000 5.309698E+01
18.000000 14.000000 8.881122E+01
18.000000 12.000000 1.399715E+02
18.000000 10.000000 1.909571E+02
18.000000 8.000000 2.013714E+02
18.000000 6.000000 1.753055E+02
18.000000 4.000000 1.149409E+02
18.000000 2.000000 3.192648E+01
18.000000 0.000000 -5.658531E+01
18.000000 -2.000000 -1.240223E+02
18.000000 -4.000000 -1.533246E+02
18.000000 -6.000000 -1.381339E+02
18.000000 -8.000000 -1.078987E+02
18.000000 -10.000000 -8.730855E+01
18.000000 -12.000000 -8.095512E+01
18.000000 -14.000000 -7.824255E+01
18.000000 -16.000000 -6.764213E+01
18.000000 -18.000000 -4.229772E+01
18.000000 -20.000000 -1.016508E+01
18.000000 -22.000000 1.428656E+01
18.000000 -24.000000 2.261048E+01
18.000000 -26.000000 1.837848E+01
18.000000 -28.000000 1.265052E+01
18.000000 -30.000000 1.298157E+01
18.000000 -32.000000 1.891924E+01
18.000000 -34.000000 2.033316E+01
18.000000 -36.000000 1.562587E+01
18.000000 -38.000000 9.791172E+00
18.000000 -40.000000 7.659781E+00
20.000000 40.000000 -2.597023E+01
20.000000 38.000000 -1.044480E+01
20.000000 36.000000 7.522079E+00
20.000000 34.000000 1.670294E+01
20.000000 32.000000 1.475249E+01
20.000000 30.000000 9.680048E+00
20.000000 28.000000 5.444287E+00
20.000000 26.000000 4.726633E+00
20.000000 24.000000 1.518641E+01
20.000000 22.000000 2.542037E+01
20.000000 20.000000 2.245933E+01
20.000000 18.000000 1.887045E+01
20.000000 16.000000 3.449357E+01
20.000000 14.000000 7.097511E+01
20.000000 12.000000 1.206235E+02
20.000000 10.000000 1.654608E+02
20.000000 8.000000 1.740556E+02
20.000000 6.000000 1.543079E+02
20.000000 4.000000 1.154164E+02
20.000000 2.000000 5.741117E+01
20.000000 0.000000 -1.515681E+01
20.000000 -2.000000 -8.346585E+01
20.000000 -4.000000 -1.264316E+02
20.000000 -6.000000 -1.310970E+02
20.000000 -8.000000 -1.163348E+02
20.000000 -10.000000 -1.041052E+02
20.000000 -12.000000 -1.008962E+02
20.000000 -14.000000 -9.815128E+01
20.000000 -16.000000 -8.161885E+01
20.000000 -18.000000 -4.445002E+01
20.000000 -20.000000 -3.531633E+00
20.000000 -22.000000 2.355820E+01
20.000000 -24.000000 2.855058E+01
20.000000 -26.000000 1.846382E+01
20.000000 -28.000000 8.920559E+00
20.000000 -30.000000 7.480899E+00
20.000000 -32.000000 1.253242E+01
20.000000 -34.000000 1.372033E+01
20.000000 -36.000000 9.234363E+00
20.000000 -38.000000 4.698132E+00
20.000000 -40.000000 2.165154E+00
22.000000 40.000000 -3.002298E+01
22.000000 38.000000 -1.878838E+01
22.000000 36.000000 -2.255491E+00
22.000000 34.000000 7.409364E+00
22.000000 32.000000 9.097795E+00
22.000000 30.000000 6.989259E+00
22.000000 28.000000 2.162901E+00
22.000000 26.000000 -1.985288E+00
22.000000 24.000000 4.919434E+00
22.000000 22.000000 1.092135E+01
22.000000 20.000000 2.095094E+00
22.000000 18.000000 -2.799931E+00
22.000000 16.000000 1.334970E+01
22.000000 14.000000 4.772152E+01
22.000000 12.000000 9.437239E+01
22.000000 10.000000 1.340339E+02
22.000000 8.000000 1.434706E+02
22.000000 6.000000 1.306396E+02
22.000000 4.000000 1.096795E+02
22.000000 2.000000 7.212924E+01
22.000000 0.000000 1.372051E+01
22.000000 -2.000000 -5.161786E+01
22.000000 -4.000000 -1.017984E+02
22.000000 -6.000000 -1.198684E+02
22.000000 -8.000000 -1.160334E+02
22.000000 -10.000000 -1.113087E+02
22.000000 -12.000000 -1.151278E+02
22.000000 -14.000000 -1.162946E+02
22.000000 -16.000000 -9.560303E+01
22.000000 -18.000000 -4.714568E+01
22.000000 -20.000000 4.757447E+00
22.000000 -22.000000 3.466807E+01
22.000000 -24.000000 3.288078E+01
22.000000 -26.000000 1.447389E+01
22.000000 -28.000000 -1.068355E+00
22.000000 -30.000000 -6.664207E+00
22.000000 -32.000000 -2.861987E+00
22.000000 -34.000000 1.315100E+00
22.000000 -36.000000 7.127151E-01
22.000000 -38.000000 -1.190618E+00
22.000000 -40.000000 -1.329900E+00
24.000000 40.000000 -3.642794E+01
24.000000 38.000000 -2.942732E+01
24.000000 36.000000 -1.382780E+01
24.000000 34.000000 -1.943312E+00
24.000000 32.000000 3.785213E+00
24.000000 30.000000 5.074633E+00
24.000000 28.000000 2.000944E+00
24.000000 26.000000 -4.487290E+00
24.000000 24.000000 -9.117333E-01
24.000000 22.000000 2.459062E+00
24.000000 20.000000 -5.255809E+00
24.000000 18.000000 -8.785205E+00
24.000000 16.000000 4.454503E+00
24.000000 14.000000 3.263550E+01
24.000000 12.000000 7.367720E+01
24.000000 10.000000 1.097228E+02
24.000000 8.000000 1.239314E+02
24.000000 6.000000 1.207543E+02
24.000000 4.000000 1.071868E+02
24.000000 2.000000 7.464103E+01
24.000000 0.000000 2.139107E+01
24.000000 -2.000000 -4.134729E+01
24.000000 -4.000000 -9.371264E+01
24.000000 -6.000000 -1.177290E+02
24.000000 -8.000000 -1.181391E+02
24.000000 -10.000000 -1.171176E+02
24.000000 -12.000000 -1.269606E+02
24.000000 -14.000000 -1.338662E+02
24.000000 -16.000000 -1.124633E+02
24.000000 -18.000000 -5.700575E+01
24.000000 -20.000000 5.076000E+00
24.000000 -22.000000 3.752389E+01
24.000000 -24.000000 2.898962E+01
24.000000 -26.000000 4.112478E+00
24.000000 -28.000000 -1.498062E+01
24.000000 -30.000000 -2.254521E+01
24.000000 -32.000000 -1.783189E+01
24.000000 -34.000000 -8.453215E+00
24.000000 -36.000000 -4.149318E+00
24.000000 -38.000000 -5.383681E+00
24.000000 -40.000000 -4.035180E+00
26.000000 40.000000 -4.386564E+01
26.000000 38.000000 -4.079452E+01
26.000000 36.000000 -2.764431E+01
26.000000 34.000000 -1.253745E+01
26.000000 32.000000 -7.663078E-01
26.000000 30.000000 5.145409E+00
26.000000 28.000000 3.076932E+00
26.000000 26.000000 -5.280573E+00
26.000000 24.000000 -3.874209E+00
26.000000 22.000000 7.757232E-01
26.000000 20.000000 2.638201E+00
26.000000 18.000000 6.461331E+00
26.000000 16.000000 1.805958E+01
26.000000 14.000000 3.876575E+01
26.000000 12.000000 6.906976E+01
26.000000 10.000000 9.750916E+01
26.000000 8.000000 1.111543E+02
26.000000 6.000000 1.113975E+02
26.000000 4.000000 9.829862E+01
26.000000 2.000000 6.299702E+01
26.000000 0.000000 9.626111E+00
26.000000 -2.000000 -5.049473E+01
26.000000 -4.000000 -1.000613E+02
26.000000 -6.000000 -1.244496E+02
26.000000 -8.000000 -1.242839E+02
26.000000 -10.000000 -1.224187E+02
26.000000 -12.000000 -1.349904E+02
26.000000 -14.000000 -1.474632E+02
26.000000 -16.000000 -1.290422E+02
26.000000 -18.000000 -7.401199E+01
26.000000 -20.000000 -1.143178E+01
26.000000 -22.000000 2.148440E+01
26.000000 -24.000000 1.406881E+01
26.000000 -26.000000 -8.055962E+00
26.000000 -28.000000 -2.480531E+01
26.000000 -30.000000 -3.059854E+01
26.000000 -32.000000 -2.398661E+01
26.000000 -34.000000 -1.154830E+01
26.000000 -36.000000 -5.130875E+00
26.000000 -38.000000 -7.302136E+00
26.000000 -40.000000 -6.560650E+00
28.000000 40.000000 -5.063444E+01
28.000000 38.000000 -5.053119E+01
28.000000 36.000000 -4.010732E+01
28.000000 34.000000 -2.278103E+01
28.000000 32.000000 -5.363416E+00
28.000000 30.000000 4.683085E+00
28.000000 28.000000 1.705659E+00
28.000000 26.000000 -9.425111E+00
28.000000 24.000000 -9.128015E+00
28.000000 22.000000 6.518397E-01
28.000000 20.000000 1.535942E+01
28.000000 18.000000 3.123203E+01
28.000000 16.000000 4.547871E+01
28.000000 14.000000 6.324454E+01
28.000000 12.000000 8.320714E+01
28.000000 10.000000 1.018654E+02
28.000000 8.000000 1.065202E+02
28.000000 6.000000 9.831727E+01
28.000000 4.000000 7.812887E+01
28.000000 2.000000 3.895711E+01
28.000000 0.000000 -1.476204E+01
28.000000 -2.000000 -7.003235E+01
28.000000 -4.000000 -1.126754E+02
28.000000 -6.000000 -1.306161E+02
28.000000 -8.000000 -1.259271E+02
28.000000 -10.000000 -1.234689E+02
28.000000 -12.000000 -1.378521E+02
28.000000 -14.000000 -1.537552E+02
28.000000 -16.000000 -1.417785E+02
28.000000 -18.000000 -9.659583E+01
28.000000 -20.000000 -4.334549E+01
28.000000 -22.000000 -1.059331E+01
28.000000 -24.000000 -7.555718E+00
28.000000 -26.000000 -1.759703E+01
28.000000 -28.000000 -2.589582E+01
28.000000 -30.000000 -2.659234E+01
28.000000 -32.000000 -1.823248E+01
28.000000 -34.000000 -7.157649E+00
28.000000 -36.000000 -3.578758E+00
28.000000 -38.000000 -7.747821E+00
28.000000 -40.000000 -9.459085E+00
30.000000 40.000000 -5.601500E+01
30.000000 38.000000 -5.570189E+01
30.000000 36.000000 -4.577448E+01
30.000000 34.000000 -2.757158E+01
30.000000 32.000000 -8.602560E+00
30.000000 30.000000 4.134531E-01
30.000000 28.000000 -7.111616E+00
30.000000 26.000000 -2.161190E+01
30.000000 24.000000 -2.324698E+01
30.000000 22.000000 -7.847256E+00
30.000000 20.000000 1.723835E+01
30.000000 18.000000 4.425560E+01
30.000000 16.000000 6.580908E+01
30.000000 14.000000 8.744609E+01
30.000000 12.000000 1.047491E+02
30.000000 10.000000 1.164253E+02
30.000000 8.000000 1.084768E+02
30.000000 6.000000 8.588377E+01
30.000000 4.000000 5.321512E+01
30.000000 2.000000 1.175780E+01
30.000000 0.000000 -3.790107E+01
30.000000 -2.000000 -8.367537E+01
30.000000 -4.000000 -1.162624E+02
30.000000 -6.000000 -1.245194E+02
30.000000 -8.000000 -1.148183E+02
30.000000 -10.000000 -1.133217E+02
30.000000 -12.000000 -1.315610E+02
30.000000 -14.000000 -1.510972E+02
30.000000 -16.000000 -1.472411E+02
30.000000 -18.000000 -1.157528E+02
30.000000 -20.000000 -7.395095E+01
30.000000 -22.000000 -4.181171E+01
30.000000 -24.000000 -2.766944E+01
30.000000 -26.000000 -2.464318E+01
30.000000 -28.000000 -2.263873E+01
30.000000 -30.000000 -1.673126E+01
30.000000 -32.000000 -6.510574E+00
30.000000 -34.000000 1.736223E+00
30.000000 -36.000000 -4.840469E-02
30.000000 -38.000000 -7.703950E+00
30.000000 -40.000000 -1.310509E+01
32.000000 40.000000 -5.866149E+01
32.000000 38.000000 -5.587939E+01
32.000000 36.000000 -4.472928E+01
32.000000 34.000000 -2.636197E+01
32.000000 32.000000 -8.751181E+00
32.000000 30.000000 -5.813166E+00
32.000000 28.000000 -2.192665E+01
32.000000 26.000000 -4.224580E+01
32.000000 24.000000 -4.852212E+01
32.000000 22.000000 -3.074859E+01
32.000000 20.000000 -1.840222E+00
32.000000 18.000000 3.169409E+01
32.000000 16.000000 6.421677E+01
32.000000 14.000000 9.553512E+01
32.000000 12.000000 1.179358E+02
32.000000 10.000000 1.273740E+02
32.000000 8.000000 1.077573E+02
32.000000 6.000000 7.359806E+01
32.000000 4.000000 3.330154E+01
32.000000 2.000000 -5.978234E+00
32.000000 0.000000 -4.624467E+01
32.000000 -2.000000 -7.869990E+01
32.000000 -4.000000 -9.910314E+01
32.000000 -6.000000 -1.000580E+02
32.000000 -8.000000 -9.028249E+01
32.000000 -10.000000 -9.211204E+01
32.000000 -12.000000 -1.151644E+02
32.000000 -14.000000 -1.390490E+02
32.000000 -16.000000 -1.416904E+02
32.000000 -18.000000 -1.203389E+02
32.000000 -20.000000 -8.779717E+01
32.000000 -22.000000 -5.725699E+01
32.000000 -24.000000 -3.658619E+01
32.000000 -26.000000 -2.618692E+01
32.000000 -28.000000 -1.911523E+01
32.000000 -30.000000 -1.021171E+01
32.000000 -32.000000 5.033150E-01
32.000000 -34.000000 7.250137E+00
32.000000 -36.000000 2.314329E+00
32.000000 -38.000000 -7.934873E+00
32.000000 -40.000000 -1.646780E+01
34.000000 40.000000 -5.840846E+01
34.000000 38.000000 -5.417491E+01
34.000000 36.000000 -4.209635E+01
34.000000 34.000000 -2.400097E+01
34.000000 32.000000 -7.585039E+00
34.000000 30.000000 -1.011183E+01
34.000000 28.000000 -3.423744E+01
34.000000 26.000000 -6.241064E+01
34.000000 24.000000 -7.601937E+01
34.000000 22.000000 -6.085615E+01
34.000000 20.000000 -3.568351E+01
34.000000 18.000000 -1.670978E+00
34.000000 16.000000 3.960402E+01
34.000000 14.000000 8.177170E+01
34.000000 12.000000 1.129995E+02
34.000000 10.000000 1.259257E+02
34.000000 8.000000 1.008823E+02
34.000000 6.000000 6.027445E+01
34.000000 4.000000 2.047266E+01
34.000000 2.000000 -1.082959E+01
34.000000 0.000000 -3.872089E+01
34.000000 -2.000000 -5.682245E+01
34.000000 -4.000000 -6.496719E+01
34.000000 -6.000000 -6.188513E+01
34.000000 -8.000000 -5.711164E+01
34.000000 -10.000000 -6.538842E+01
34.000000 -12.000000 -9.396943E+01
34.000000 -14.000000 -1.213179E+02
34.000000 -16.000000 -1.278222E+02
34.000000 -18.000000 -1.103265E+02
34.000000 -20.000000 -8.030674E+01
34.000000 -22.000000 -5.097497E+01
34.000000 -24.000000 -3.071973E+01
34.000000 -26.000000 -2.135656E+01
34.000000 -28.000000 -1.727401E+01
34.000000 -30.000000 -1.125807E+01
34.000000 -32.000000 -2.018320E+00
34.000000 -34.000000 5.256870E+00
34.000000 -36.000000 1.177219E+00
34.000000 -38.000000 -8.856183E+00
34.000000 -40.000000 -1.931888E+01
36.000000 40.000000 -5.734098E+01
36.000000 38.000000 -5.395231E+01
36.000000 36.000000 -4.190444E+01
36.000000 34.000000 -2.404834E+01
36.000000 32.000000 -7.585339E+00
36.000000 30.000000 -1.122801E+01
36.000000 28.000000 -3.703975E+01
36.000000 26.000000 -6.813946E+01
36.000000 24.000000 -8.961060E+01
36.000000 22.000000 -8.456395E+01
36.000000 20.000000 -7.051918E+01
36.000000 18.000000 -4.225906E+01
36.000000 16.000000 2.487777E+00
36.000000 14.000000 5.269813E+01
36.000000 12.000000 9.315414E+01
36.000000 10.000000 1.118284E+02
36.000000 8.000000 8.885178E+01
36.000000 6.000000 4.813708E+01
36.000000 4.000000 1.289330E+01
36.000000 2.000000 -8.653894E+00
36.000000 0.000000 -2.413430E+01
36.000000 -2.000000 -3.036805E+01
36.000000 -4.000000 -2.918184E+01
36.000000 -6.000000 -2.413984E+01
36.000000 -8.000000 -2.534998E+01
36.000000 -10.000000 -3.991474E+01
36.000000 -12.000000 -7.316985E+01
36.000000 -14.000000 -1.022166E+02
36.000000 -16.000000 -1.108127E+02
36.000000 -18.000000 -9.286610E+01
36.000000 -20.000000 -6.017035E+01
36.000000 -22.000000 -3.117117E+01
36.000000 -24.000000 -1.630601E+01
36.000000 -26.000000 -1.409832E+01
36.000000 -28.000000 -1.834094E+01
36.000000 -30.000000 -1.877754E+01
36.000000 -32.000000 -1.150878E+01
36.000000 -34.000000 -1.741566E+00
36.000000 -36.000000 -2.355749E+00
36.000000 -38.000000 -1.079176E+01
36.000000 -40.000000 -2.226511E+01
38.000000 40.000000 -5.712275E+01
38.000000 38.000000 -5.635095E+01
38.000000 36.000000 -4.497711E+01
38.000000 34.000000 -2.695646E+01
38.000000 32.000000 -8.640613E+00
38.000000 30.000000 -8.295917E+00
38.000000 28.000000 -2.892750E+01
38.000000 26.000000 -5.659349E+01
38.000000 24.000000 -8.174995E+01
38.000000 22.000000 -9.017138E+01
38.000000 20.000000 -9.217144E+01
38.000000 18.000000 -7.482294E+01
38.000000 16.000000 -3.165727E+01
38.000000 14.000000 2.149383E+01
38.000000 12.000000 6.683276E+01
38.000000 10.000000 9.003609E+01
38.000000 8.000000 7.258241E+01
38.000000 6.000000 3.740454E+01
38.000000 4.000000 7.933847E+00
38.000000 2.000000 -6.179527E+00
38.000000 0.000000 -1.223852E+01
38.000000 -2.000000 -1.158820E+01
38.000000 -4.000000 -6.011898E+00
38.000000 -6.000000 -1.388237E+00
38.000000 -8.000000 -5.994245E+00
38.000000 -10.000000 -2.232673E+01
38.000000 -12.000000 -5.606513E+01
38.000000 -14.000000 -8.479140E+01
38.000000 -16.000000 -9.324316E+01
38.000000 -18.000000 -7.490363E+01
38.000000 -20.000000 -4.122676E+01
38.000000 -22.000000 -1.304630E+01
38.000000 -24.000000 -3.772459E+00
38.000000 -26.000000 -9.953540E+00
38.000000 -28.000000 -2.269192E+01
38.000000 -30.000000 -2.883982E+01
38.000000 -32.000000 -2.295962E+01
38.000000 -34.000000 -1.043418E+01
38.000000 -36.000000 -7.309660E+00
38.000000 -38.000000 -1.386830E+01
38.000000 -40.000000 -2.494619E+01
40.000000 40.000000 -5.707700E+01
40.000000 38.000000 -5.948382E+01
40.000000 36.000000 -5.010979E+01
40.000000 34.000000 -3.210347E+01
40.000000 32.000000 -1.051360E+01
40.000000 30.000000 -2.197338E+00
40.000000 28.000000 -1.343981E+01
40.000000 26.000000 -3.411251E+01
40.000000 24.000000 -5.512606E+01
40.000000 22.000000 -7.334178E+01
40.000000 20.000000 -9.123450E+01
40.000000 18.000000 -8.892828E+01
40.000000 16.000000 -5.419102E+01
40.000000 14.000000 -5.312036E+00
40.000000 12.000000 3.816524E+01
40.000000 10.000000 6.388104E+01
40.000000 8.000000 5.249306E+01
40.000000 6.000000 2.509041E+01
40.000000 4.000000 3.163313E+00
40.000000 2.000000 -4.030320E+00
40.000000 0.000000 -5.399549E+00
40.000000 -2.000000 -3.615226E+00
40.000000 -4.000000 2.427082E-01
40.000000 -6.000000 3.006823E+00
40.000000 -8.000000 -1.365559E+00
40.000000 -10.000000 -1.452836E+01
40.000000 -12.000000 -4.299116E+01
40.000000 -14.000000 -6.902688E+01
40.000000 -16.000000 -7.868712E+01
40.000000 -18.000000 -6.389796E+01
40.000000 -20.000000 -3.261044E+01
40.000000 -22.000000 -6.268446E+00
40.000000 -24.000000 -5.197105E-01
40.000000 -26.000000 -1.258537E+01
40.000000 -28.000000 -2.955953E+01
40.000000 -30.000000 -3.747914E+01
40.000000 -32.000000 -3.202573E+01
40.000000 -34.000000 -1.826656E+01
40.000000 -36.000000 -1.268625E+01
40.000000 -38.000000 -1.755422E+01
40.000000 -40.000000 -2.723282E+01
42.000000 40.000000 -5.573124E+01
42.000000 38.000000 -6.062929E+01
42.000000 36.000000 -5.525113E+01
42.000000 34.000000 -3.864640E+01
42.000000 32.000000 -1.395176E+01
42.000000 30.000000 3.389474E+00
42.000000 28.000000 3.927510E+00
42.000000 26.000000 -6.731775E+00
42.000000 24.000000 -1.847488E+01
42.000000 22.000000 -4.061973E+01
42.000000 20.000000 -6.754672E+01
42.000000 18.000000 -8.055430E+01
42.000000 16.000000 -6.242064E+01
42.000000 14.000000 -2.704951E+01
42.000000 12.000000 8.065638E+00
42.000000 10.000000 3.201041E+01
42.000000 8.000000 2.861320E+01
42.000000 6.000000 1.227227E+01
42.000000 4.000000 -1.788044E-02
42.000000 2.000000 -1.116329E+00
42.000000 0.000000 -1.066122E+00
42.000000 -2.000000 -2.039760E+00
42.000000 -4.000000 -4.248773E+00
42.000000 -6.000000 -5.281050E+00
42.000000 -8.000000 -6.596464E+00
42.000000 -10.000000 -1.305982E+01
42.000000 -12.000000 -3.193975E+01
42.000000 -14.000000 -5.451171E+01
42.000000 -16.000000 -6.869763E+01
42.000000 -18.000000 -6.134131E+01
42.000000 -20.000000 -3.465608E+01
42.000000 -22.000000 -1.059461E+01
42.000000 -24.000000 -6.345701E+00
42.000000 -26.000000 -1.998546E+01
42.000000 -28.000000 -3.756994E+01
42.000000 -30.000000 -4.512309E+01
42.000000 -32.000000 -3.918262E+01
42.000000 -34.000000 -2.467388E+01
42.000000 -36.000000 -1.750448E+01
42.000000 -38.000000 -2.094430E+01
42.000000 -40.000000 -2.890753E+01
44.000000 40.000000 -5.157074E+01
44.000000 38.000000 -5.825591E+01
44.000000 36.000000 -5.831396E+01
44.000000 34.000000 -4.584213E+01
44.000000 32.000000 -1.977088E+01
44.000000 30.000000 5.616054E+00
44.000000 28.000000 1.749220E+01
44.000000 26.000000 1.678267E+01
44.000000 24.000000 1.445431E+01
44.000000 22.000000 -5.516335E+00
44.000000 20.000000 -3.249496E+01
44.000000 18.000000 -5.453034E+01
44.000000 16.000000 -5.441704E+01
44.000000 14.000000 -3.807192E+01
44.000000 12.000000 -1.683023E+01
44.000000 10.000000 -1.061730E-01
44.000000 8.000000 4.069752E+00
44.000000 6.000000 4.083433E-01
44.000000 4.000000 -1.944923E-01
44.000000 2.000000 4.264841E+00
44.000000 0.000000 4.919863E+00
44.000000 -2.000000 -3.174648E-01
44.000000 -4.000000 -1.025549E+01
44.000000 -6.000000 -1.726372E+01
44.000000 -8.000000 -1.514959E+01
44.000000 -10.000000 -1.344091E+01
44.000000 -12.000000 -2.212997E+01
44.000000 -14.000000 -4.191507E+01
44.000000 -16.000000 -6.077802E+01
44.000000 -18.000000 -6.160937E+01
44.000000 -20.000000 -4.276736E+01
44.000000 -22.000000 -2.189637E+01
44.000000 -24.000000 -1.686272E+01
44.000000 -26.000000 -2.801410E+01
44.000000 -28.000000 -4.436173E+01
44.000000 -30.000000 -5.186472E+01
44.000000 -32.000000 -4.585817E+01
44.000000 -34.000000 -3.103610E+01
44.000000 -36.000000 -2.271735E+01
44.000000 -38.000000 -2.382427E+01
44.000000 -40.000000 -2.888157E+01
46.000000 40.000000 -4.364532E+01
46.000000 38.000000 -5.136565E+01
46.000000 36.000000 -5.665232E+01
46.000000 34.000000 -5.138651E+01
46.000000 32.000000 -2.866372E+01
46.000000 30.000000 8.779249E-01
46.000000 28.000000 2.103063E+01
46.000000 26.000000 2.701677E+01
46.000000 24.000000 3.235060E+01
46.000000 22.000000 1.972840E+01
46.000000 20.000000 -9.922268E-01
46.000000 18.000000 -2.293778E+01
46.000000 16.000000 -3.348502E+01
46.000000 14.000000 -3.155176E+01
46.000000 12.000000 -2.221703E+01
46.000000 10.000000 -1.206168E+01
46.000000 8.000000 -6.179367E+00
46.000000 6.000000 -4.607346E+00
46.000000 4.000000 8.946271E-01
46.000000 2.000000 7.059250E+00
46.000000 0.000000 6.274856E+00
46.000000 -2.000000 -2.425391E+00
46.000000 -4.000000 -1.598183E+01
46.000000 -6.000000 -2.420183E+01
46.000000 -8.000000 -1.844113E+01
46.000000 -10.000000 -1.057442E+01
46.000000 -12.000000 -1.360858E+01
46.000000 -14.000000 -3.164131E+01
46.000000 -16.000000 -5.373159E+01
46.000000 -18.000000 -6.154193E+01
46.000000 -20.000000 -5.078829E+01
46.000000 -22.000000 -3.339140E+01
46.000000 -24.000000 -2.732106E+01
46.000000 -26.000000 -3.487840E+01
46.000000 -28.000000 -4.794271E+01
46.000000 -30.000000 -5.467801E+01
46.000000 -32.000000 -4.996311E+01
46.000000 -34.000000 -3.666824E+01
46.000000 -36.000000 -2.783058E+01
46.000000 -38.000000 -2.571603E+01
46.000000 -40.000000 -2.709497E+01
48.000000 40.000000 -3.240984E+01
48.000000 38.000000 -4.051113E+01
48.000000 36.000000 -5.001525E+01
48.000000 34.000000 -5.331334E+01
48.000000 32.000000 -3.766493E+01
48.000000 30.000000 -9.647009E+00
48.000000 28.000000 1.437619E+01
48.000000 26.000000 2.423952E+01
48.000000 24.000000 3.307714E+01
48.000000 22.000000 2.827000E+01
48.000000 20.000000 1.614678E+01
48.000000 18.000000 1.562662E+00
48.000000 16.000000 -7.467562E+00
48.000000 14.000000 -8.732107E+00
48.000000 12.000000 -4.963694E+00
48.000000 10.000000 1.275241E+00
48.000000 8.000000 3.182439E+00
48.000000 6.000000 1.396239E+00
48.000000 4.000000 2.825468E+00
48.000000 2.000000 4.055623E+00
48.000000 0.000000 2.352390E-01
48.000000 -2.000000 -9.985223E+00
48.000000 -4.000000 -2.136174E+01
48.000000 -6.000000 -2.423677E+01
48.000000 -8.000000 -1.534960E+01
48.000000 -10.000000 -4.589650E+00
48.000000 -12.000000 -5.373919E+00
48.000000 -14.000000 -2.196516E+01
48.000000 -16.000000 -4.567337E+01
48.000000 -18.000000 -5.823203E+01
48.000000 -20.000000 -5.324814E+01
48.000000 -22.000000 -3.928681E+01
48.000000 -24.000000 -3.331625E+01
48.000000 -26.000000 -3.874530E+01
48.000000 -28.000000 -4.877065E+01
48.000000 -30.000000 -5.363687E+01
48.000000 -32.000000 -4.999975E+01
48.000000 -34.000000 -3.846105E+01
48.000000 -36.000000 -2.969555E+01
48.000000 -38.000000 -2.526111E+01
48.000000 -40.000000 -2.393497E+01
50.000000 40.000000 -1.995482E+01
50.000000 38.000000 -2.792469E+01
50.000000 36.000000 -4.089016E+01
50.000000 34.000000 -5.211215E+01
50.000000 32.000000 -4.331416E+01
50.000000 30.000000 -1.862423E+01
50.000000 28.000000 5.297866E+00
50.000000 26.000000 1.673017E+01
50.000000 24.000000 2.442358E+01
50.000000 22.000000 2.342325E+01
50.000000 20.000000 1.799220E+01
50.000000 18.000000 1.520531E+01
50.000000 16.000000 1.595177E+01
50.000000 14.000000 1.839284E+01
50.000000 12.000000 1.969844E+01
50.000000 10.000000 2.207243E+01
50.000000 8.000000 1.743131E+01
50.000000 6.000000 1.073333E+01
50.000000 4.000000 5.874291E+00
50.000000 2.000000 1.469172E+00
50.000000 0.000000 -4.375052E+00
50.000000 -2.000000 -1.382057E+01
50.000000 -4.000000 -2.123389E+01
50.000000 -6.000000 -1.948005E+01
50.000000 -8.000000 -9.521322E+00
50.000000 -10.000000 7.684746E-01
50.000000 -12.000000 -5.870810E-01
50.000000 -14.000000 -1.538960E+01
50.000000 -16.000000 -3.749937E+01
50.000000 -18.000000 -5.058775E+01
50.000000 -20.000000 -4.785409E+01
50.000000 -22.000000 -3.720657E+01
50.000000 -24.000000 -3.251454E+01
50.000000 -26.000000 -3.708133E+01
50.000000 -28.000000 -4.575910E+01
50.000000 -30.000000 -4.938548E+01
50.000000 -32.000000 -4.549162E+01
50.000000 -34.000000 -3.438333E+01
50.000000 -36.000000 -2.655879E+01
50.000000 -38.000000 -2.164399E+01
50.000000 -40.000000 -1.966583E+01
52.000000 40.000000 -8.837150E+00
52.000000 38.000000 -1.545115E+01
52.000000 36.000000 -3.018880E+01
52.000000 34.000000 -4.715702E+01
52.000000 32.000000 -4.383522E+01
52.000000 30.000000 -2.199594E+01
52.000000 28.000000 3.330710E-01
52.000000 26.000000 1.070769E+01
52.000000 24.000000 1.607801E+01
52.000000 22.000000 1.715675E+01
52.000000 20.000000 1.619857E+01
52.000000 18.000000 2.230979E+01
52.000000 16.000000 3.028403E+01
52.000000 14.000000 3.505916E+01
52.000000 12.000000 3.407784E+01
52.000000 10.000000 3.295635E+01
52.000000 8.000000 2.340813E+01
52.000000 6.000000 1.281107E+01
52.000000 4.000000 6.109978E+00
52.000000 2.000000 1.086285E+00
52.000000 0.000000 -4.715362E+00
52.000000 -2.000000 -1.123243E+01
52.000000 -4.000000 -1.504818E+01
52.000000 -6.000000 -1.130528E+01
52.000000 -8.000000 -1.292727E+00
52.000000 -10.000000 6.290424E+00
52.000000 -12.000000 1.300122E+00
52.000000 -14.000000 -1.317355E+01
52.000000 -16.000000 -3.197051E+01
52.000000 -18.000000 -4.178942E+01
52.000000 -20.000000 -3.785717E+01
52.000000 -22.000000 -2.855704E+01
52.000000 -24.000000 -2.479987E+01
52.000000 -26.000000 -2.895862E+01
52.000000 -28.000000 -3.655253E+01
52.000000 -30.000000 -3.972522E+01
52.000000 -32.000000 -3.509669E+01
52.000000 -34.000000 -2.460875E+01
52.000000 -36.000000 -1.871421E+01
52.000000 -38.000000 -1.543161E+01
52.000000 -40.000000 -1.527458E+01
54.000000 40.000000 -6.156979E-01
54.000000 38.000000 -4.976627E+00
54.000000 36.000000 -1.888029E+01
54.000000 34.000000 -3.688966E+01
54.000000 32.000000 -3.660179E+01
54.000000 30.000000 -1.844734E+01
54.000000 28.000000 7.015440E-01
54.000000 26.000000 8.939288E+00
54.000000 24.000000 1.223971E+01
54.000000 22.000000 1.468358E+01
54.000000 20.000000 1.691918E+01
54.000000 18.000000 2.556977E+01
54.000000 16.000000 3.484620E+01
54.000000 14.000000 3.852301E+01
54.000000 12.000000 3.540255E+01
54.000000 10.000000 3.011178E+01
54.000000 8.000000 1.796263E+01
54.000000 6.000000 5.507007E+00
54.000000 4.000000 1.028461E-01
54.000000 2.000000 -1.441582E+00
54.000000 0.000000 -4.264087E+00
54.000000 -2.000000 -7.801214E+00
54.000000 -4.000000 -9.524416E+00
54.000000 -6.000000 -4.944565E+00
54.000000 -8.000000 4.730713E+00
54.000000 -10.000000 1.090482E+01
54.000000 -12.000000 4.640855E+00
54.000000 -14.000000 -9.411735E+00
54.000000 -16.000000 -2.488377E+01
54.000000 -18.000000 -3.035858E+01
54.000000 -20.000000 -2.445346E+01
54.000000 -22.000000 -1.585081E+01
54.000000 -24.000000 -1.239976E+01
54.000000 -26.000000 -1.630559E+01
54.000000 -28.000000 -2.269441E+01
54.000000 -30.000000 -2.514521E+01
54.000000 -32.000000 -2.021428E+01
54.000000 -34.000000 -1.134061E+01
54.000000 -36.000000 -8.186750E+00
54.000000 -38.000000 -8.233116E+00
54.000000 -40.000000 -1.130592E+01
56.000000 40.000000 2.905825E+00
56.000000 38.000000 1.670570E-01
56.000000 36.000000 -1.032553E+01
56.000000 34.000000 -2.449482E+01
56.000000 32.000000 -2.324174E+01
56.000000 30.000000 -8.744401E+00
56.000000 28.000000 5.622580E+00
56.000000 26.000000 1.162243E+01
56.000000 24.000000 1.405829E+01
56.000000 22.000000 1.590942E+01
56.000000 20.000000 1.725788E+01
56.000000 18.000000 2.319263E+01
56.000000 16.000000 3.001941E+01
56.000000 14.000000 3.114415E+01
56.000000 12.000000 2.767447E+01
56.000000 10.000000 2.033623E+01
56.000000 8.000000 8.086944E+00
56.000000 6.000000 -4.101809E+00
56.000000 4.000000 -7.138803E+00
56.000000 2.000000 -4.748607E+00
56.000000 0.000000 -4.576224E+00
56.000000 -2.000000 -6.878090E+00
56.000000 -4.000000 -9.127319E+00
56.000000 -6.000000 -6.028920E+00
56.000000 -8.000000 3.687956E+00
56.000000 -10.000000 1.156208E+01
56.000000 -12.000000 8.728205E+00
56.000000 -14.000000 -1.350659E+00
56.000000 -16.000000 -1.158236E+01
56.000000 -18.000000 -1.350594E+01
56.000000 -20.000000 -7.801916E+00
56.000000 -22.000000 -1.209243E+00
56.000000 -24.000000 1.374578E+00
56.000000 -26.000000 -3.537160E+00
56.000000 -28.000000 -8.503034E+00
56.000000 -30.000000 -9.847385E+00
56.000000 -32.000000 -5.765607E+00
56.000000 -34.000000 -1.510382E-01
56.000000 -36.000000 -2.202034E-02
56.000000 -38.000000 -2.838640E+00
56.000000 -40.000000 -7.953006E+00
58.000000 40.000000 5.086672E+00
58.000000 38.000000 3.898047E+00
58.000000 36.000000 -4.327527E+00
58.000000 34.000000 -1.455005E+01
58.000000 32.000000 -1.139195E+01
58.000000 30.000000 1.497480E+00
58.000000 28.000000 1.242104E+01
58.000000 26.000000 1.622664E+01
58.000000 24.000000 1.772681E+01
58.000000 22.000000 1.947203E+01
58.000000 20.000000 1.868818E+01
58.000000 18.000000 1.999202E+01
58.000000 16.000000 2.319897E+01
58.000000 14.000000 2.191434E+01
58.000000 12.000000 1.967079E+01
58.000000 10.000000 1.409551E+01
58.000000 8.000000 4.621912E+00
58.000000 6.000000 -5.925351E+00
58.000000 4.000000 -8.971971E+00
58.000000 2.000000 -6.575858E+00
58.000000 0.000000 -6.529371E+00
58.000000 -2.000000 -7.663596E+00
58.000000 -4.000000 -9.725174E+00
58.000000 -6.000000 -7.634633E+00
58.000000 -8.000000 1.645051E+00
58.000000 -10.000000 1.034085E+01
58.000000 -12.000000 1.208850E+01
58.000000 -14.000000 8.015158E+00
58.000000 -16.000000 2.574557E+00
58.000000 -18.000000 1.552480E+00
58.000000 -20.000000 5.128235E+00
58.000000 -22.000000 9.167777E+00
58.000000 -24.000000 9.457987E+00
58.000000 -26.000000 5.592332E+00
58.000000 -28.000000 9.377050E-01
58.000000 -30.000000 2.986269E-01
58.000000 -32.000000 3.161796E+00
58.000000 -34.000000 6.576128E+00
58.000000 -36.000000 5.616059E+00
58.000000 -38.000000 1.227281E+00
58.000000 -40.000000 -4.440770E+00
60.000000 40.000000 6.720273E+00
60.000000 38.000000 6.269042E+00
60.000000 36.000000 7.407773E-01
60.000000 34.000000 -4.873164E+00
60.000000 32.000000 -6.171508E-01
60.000000 30.000000 1.029678E+01
60.000000 28.000000 1.937418E+01
60.000000 26.000000 2.208727E+01
60.000000 24.000000 2.334768E+01
60.000000 22.000000 2.345909E+01
60.000000 20.000000 2.117200E+01
60.000000 18.000000 1.763327E+01
60.000000 16.000000 1.682788E+01
60.000000 14.000000 1.541464E+01
60.000000 12.000000 1.594683E+01
60.000000 10.000000 1.399682E+01
60.000000 8.000000 7.218802E+00
60.000000 6.000000 -1.923080E+00
60.000000 4.000000 -6.597864E+00
60.000000 2.000000 -6.612276E+00
60.000000 0.000000 -8.130424E+00
60.000000 -2.000000 -9.337630E+00
60.000000 -4.000000 -1.112555E+01
60.000000 -6.000000 -8.441734E+00
60.000000 -8.000000 1.000767E+00
60.000000 -10.000000 1.067276E+01
60.000000 -12.000000 1.656278E+01
60.000000 -14.000000 1.699575E+01
60.000000 -16.000000 1.405525E+01
60.000000 -18.000000 1.243518E+01
60.000000 -20.000000 1.391305E+01
60.000000 -22.000000 1.599439E+01
60.000000 -24.000000 1.529584E+01
