-18.000000 -2.000000 3.984977E+01
-18.000000 -4.000000 3.963782E+01
-18.000000 -6.000000 3.339531E+01
-18.000000 -8.000000 2.429440E+01
-18.000000 -10.000000 1.522819E+01
-18.000000 -12.000000 1.172345E+01
-18.000000 -14.000000 9.546707E+00
-18.000000 -16.000000 3.602852E+00
-18.000000 -18.000000 -4.240340E+00
-18.000000 -20.000000 -1.138050E+01
-18.000000 -22.000000 -1.369469E+01
-18.000000 -24.000000 -1.217549E+01
-18.000000 -26.000000 -1.201147E+01
-18.000000 -28.000000 -1.328123E+01
-18.000000 -30.000000 -1.589843E+01
-18.000000 -32.000000 -1.879649E+01
-18.000000 -34.000000 -1.595743E+01
-18.000000 -36.000000 -8.690867E+00
-18.000000 -38.000000 2.975750E-01
-18.000000 -40.000000 1.589260E+01
-16.000000 40.000000 -1.141520E+01
-16.000000 38.000000 5.488937E+00
-16.000000 36.000000 1.924970E+01
-16.000000 34.000000 2.640182E+01
-16.000000 32.000000 2.537531E+01
-16.000000 30.000000 2.654644E+01
-16.000000 28.000000 3.364717E+01
-16.000000 26.000000 4.362298E+01
-16.000000 24.000000 4.195565E+01
-16.000000 22.000000 3.152200E+01
-16.000000 20.000000 2.473608E+01
-16.000000 18.000000 4.317199E+01
-16.000000 16.000000 8.690495E+01
-16.000000 14.000000 1.262172E+02
-16.000000 12.000000 1.392090E+02
-16.000000 10.000000 1.251738E+02
-16.000000 8.000000 9.271881E+01
-16.000000 6.000000 5.907755E+01
-16.000000 4.000000 3.549444E+01
-16.000000 2.000000 2.536669E+01
-16.000000 0.000000 2.549368E+01
-16.000000 -2.000000 2.926514E+01
-16.000000 -4.000000 3.164595E+01
-16.000000 -6.000000 2.864920E+01
-16.000000 -8.000000 2.181505E+01
-16.000000 -10.000000 1.395124E+01
-16.000000 -12.000000 9.346306E+00
-16.000000 -14.000000 5.077456E+00
-16.000000 -16.000000 -3.252075E+00
-16.000000 -18.000000 -1.402261E+01
-16.000000 -20.000000 -2.282980E+01
-16.000000 -22.000000 -2.332451E+01
-16.000000 -24.000000 -1.891757E+01
-16.000000 -26.000000 -1.664649E+01
-16.000000 -28.000000 -1.522940E+01
-16.000000 -30.000000 -1.597400E+01
-16.000000 -32.000000 -1.846769E+01
-16.000000 -34.000000 -1.588014E+01
-16.000000 -36.000000 -1.102251E+01
-16.000000 -38.000000 -5.348175E+00
-16.000000 -40.000000 7.029761E+00
-14.000000 40.000000 -1.889779E+01
-14.000000 38.000000 -1.039608E+00
-14.000000 36.000000 1.496452E+01
-14.000000 34.000000 2.141251E+01
-14.000000 32.000000 1.860857E+01
-14.000000 30.000000 1.957948E+01
-14.000000 28.000000 2.562635E+01
-14.000000 26.000000 3.214750E+01
-14.000000 24.000000 2.702741E+01
-14.000000 22.000000 1.660472E+01
-14.000000 20.000000 9.907616E+00
-14.000000 18.000000 2.777590E+01
-14.000000 16.000000 7.556226E+01
-14.000000 14.000000 1.259942E+02
-14.000000 12.000000 1.570503E+02
-14.000000 10.000000 1.600338E+02
-14.000000 8.000000 1.318267E+02
-14.000000 6.000000 8.990007E+01
-14.000000 4.000000 4.619974E+01
-14.000000 2.000000 1.822667E+01
-14.000000 0.000000 9.909843E+00
-14.000000 -2.000000 1.317112E+01
-14.000000 -4.000000 1.843963E+01
-14.000000 -6.000000 2.051618E+01
-14.000000 -8.000000 1.755767E+01
-14.000000 -10.000000 1.303360E+01
-14.000000 -12.000000 7.107233E+00
-14.000000 -14.000000 5.175400E-02
-14.000000 -16.000000 -1.069402E+01
-14.000000 -18.000000 -2.438567E+01
-14.000000 -20.000000 -3.324141E+01
-14.000000 -22.000000 -3.168760E+01
-14.000000 -24.000000 -2.450928E+01
-14.000000 -26.000000 -1.972747E+01
-14.000000 -28.000000 -1.527539E+01
-14.000000 -30.000000 -1.386626E+01
-14.000000 -32.000000 -1.646100E+01
-14.000000 -34.000000 -1.464914E+01
-14.000000 -36.000000 -1.172401E+01
-14.000000 -38.000000 -8.564838E+00
-14.000000 -40.000000 5.481400E-01
-12.000000 40.000000 -2.759417E+01
-12.000000 38.000000 -7.698681E+00
-12.000000 36.000000 1.299016E+01
-12.000000 34.000000 2.450296E+01
-12.000000 32.000000 2.223877E+01
-12.000000 30.000000 2.194925E+01
-12.000000 28.000000 2.636960E+01
-12.000000 26.000000 2.958353E+01
-12.000000 24.000000 2.011676E+01
-12.000000 22.000000 8.091904E+00
-12.000000 20.000000 2.063408E-01
-12.000000 18.000000 1.802400E+01
-12.000000 16.000000 7.042846E+01
-12.000000 14.000000 1.291781E+02
-12.000000 12.000000 1.740734E+02
-12.000000 10.000000 1.909913E+02
-12.000000 8.000000 1.656437E+02
-12.000000 6.000000 1.146325E+02
-12.000000 4.000000 5.242596E+01
-12.000000 2.000000 1.030956E+01
-12.000000 0.000000 -3.856651E+00
-12.000000 -2.000000 -4.589119E-01
-12.000000 -4.000000 6.953571E+00
-12.000000 -6.000000 1.283522E+01
-12.000000 -8.000000 1.370282E+01
-12.000000 -10.000000 1.152119E+01
-12.000000 -12.000000 4.578417E+00
-12.000000 -14.000000 -5.191835E+00
-12.000000 -16.000000 -1.768266E+01
-12.000000 -18.000000 -3.089665E+01
-12.000000 -20.000000 -3.791864E+01
-12.000000 -22.000000 -3.599789E+01
-12.000000 -24.000000 -2.742033E+01
-12.000000 -26.000000 -1.919050E+01
-12.000000 -28.000000 -1.286882E+01
-12.000000 -30.000000 -1.211139E+01
-12.000000 -32.000000 -1.639204E+01
-12.000000 -34.000000 -1.626239E+01
-12.000000 -36.000000 -1.398548E+01
-12.000000 -38.000000 -1.065444E+01
-12.000000 -40.000000 -2.856255E+00
-10.000000 40.000000 -3.557301E+01
-10.000000 38.000000 -1.420467E+01
-10.000000 36.000000 1.146851E+01
-10.000000 34.000000 3.332301E+01
-10.000000 32.000000 3.503519E+01
-10.000000 30.000000 3.096852E+01
-10.000000 28.000000 3.071641E+01
-10.000000 26.000000 3.232803E+01
-10.000000 24.000000 2.177007E+01
-10.000000 22.000000 6.960979E+00
-10.000000 20.000000 -3.237663E+00
-10.000000 18.000000 1.708073E+01
-10.000000 16.000000 7.646955E+01
-10.000000 14.000000 1.447147E+02
-10.000000 12.000000 1.972174E+02
-10.000000 10.000000 2.153340E+02
-10.000000 8.000000 1.799534E+02
-10.000000 6.000000 1.167266E+02
-10.000000 4.000000 4.569166E+01
-10.000000 2.000000 4.469707E+00
-10.000000 0.000000 -7.583763E+00
-10.000000 -2.000000 -3.885254E+00
-10.000000 -4.000000 1.161724E+00
-10.000000 -6.000000 5.668964E+00
-10.000000 -8.000000 8.823763E+00
-10.000000 -10.000000 7.647324E+00
-10.000000 -12.000000 -5.208778E-02
-10.000000 -14.000000 -1.168946E+01
-10.000000 -16.000000 -2.253206E+01
-10.000000 -18.000000 -3.188310E+01
-10.000000 -20.000000 -3.744992E+01
-10.000000 -22.000000 -3.636708E+01
-10.000000 -24.000000 -2.802192E+01
-10.000000 -26.000000 -1.795477E+01
-10.000000 -28.000000 -1.069043E+01
-10.000000 -30.000000 -1.192914E+01
-10.000000 -32.000000 -1.851828E+01
-10.000000 -34.000000 -1.905755E+01
-10.000000 -36.000000 -1.605203E+01
-10.000000 -38.000000 -1.154205E+01
-10.000000 -40.000000 -3.280791E+00
-8.000000 40.000000 -4.012658E+01
-8.000000 38.000000 -1.928308E+01
-8.000000 36.000000 1.012121E+01
-8.000000 34.000000 4.346227E+01
-8.000000 32.000000 5.033485E+01
-8.000000 30.000000 4.169448E+01
-8.000000 28.000000 3.684395E+01
-8.000000 26.000000 3.815703E+01
-8.000000 24.000000 2.949605E+01
-8.000000 22.000000 1.425462E+01
-8.000000 20.000000 4.036316E+00
-8.000000 18.000000 2.817444E+01
-8.000000 16.000000 9.066778E+01
-8.000000 14.000000 1.628334E+02
-8.000000 12.000000 2.142812E+02
-8.000000 10.000000 2.204974E+02
-8.000000 8.000000 1.676676E+02
-8.000000 6.000000 9.586332E+01
-8.000000 4.000000 2.976462E+01
-8.000000 2.000000 2.816048E+00
-8.000000 0.000000 2.427673E-01
-8.000000 -2.000000 4.270496E+00
-8.000000 -4.000000 3.677273E+00
-8.000000 -6.000000 2.418255E+00
-8.000000 -8.000000 3.303274E+00
-8.000000 -10.000000 9.814205E-01
-8.000000 -12.000000 -5.493773E+00
-8.000000 -14.000000 -1.592156E+01
-8.000000 -16.000000 -2.253046E+01
-8.000000 -18.000000 -2.805588E+01
-8.000000 -20.000000 -3.365125E+01
-8.000000 -22.000000 -3.367260E+01
-8.000000 -24.000000 -2.713924E+01
-8.000000 -26.000000 -1.963668E+01
-8.000000 -28.000000 -1.297071E+01
-8.000000 -30.000000 -1.392956E+01
-8.000000 -32.000000 -1.994494E+01
-8.000000 -34.000000 -1.920462E+01
-8.000000 -36.000000 -1.491308E+01
-8.000000 -38.000000 -1.003307E+01
-8.000000 -40.000000 -1.235180E+00
-6.000000 40.000000 -4.037167E+01
-6.000000 38.000000 -2.050725E+01
-6.000000 36.000000 1.048756E+01
-6.000000 34.000000 4.964308E+01
-6.000000 32.000000 6.057618E+01
-6.000000 30.000000 5.233113E+01
-6.000000 28.000000 4.603005E+01
-6.000000 26.000000 4.735095E+01
-6.000000 24.000000 4.244014E+01
-6.000000 22.000000 2.840115E+01
-6.000000 20.000000 1.931769E+01
-6.000000 18.000000 4.419039E+01
-6.000000 16.000000 1.033916E+02
-6.000000 14.000000 1.689136E+02
-6.000000 12.000000 2.062799E+02
-6.000000 10.000000 1.948162E+02
-6.000000 8.000000 1.339215E+02
-6.000000 6.000000 6.721303E+01
-6.000000 4.000000 1.745619E+01
-6.000000 2.000000 3.938766E+00
-6.000000 0.000000 8.461075E+00
-6.000000 -2.000000 1.330979E+01
-6.000000 -4.000000 1.028294E+01
-6.000000 -6.000000 4.902348E+00
-6.000000 -8.000000 1.733173E+00
-6.000000 -10.000000 -2.223104E+00
-6.000000 -12.000000 -6.941280E+00
-6.000000 -14.000000 -1.378158E+01
-6.000000 -16.000000 -1.725567E+01
-6.000000 -18.000000 -2.145197E+01
-6.000000 -20.000000 -2.656400E+01
-6.000000 -22.000000 -2.788622E+01
-6.000000 -24.000000 -2.488934E+01
-6.000000 -26.000000 -2.167027E+01
-6.000000 -28.000000 -1.598922E+01
-6.000000 -30.000000 -1.496034E+01
-6.000000 -32.000000 -1.812055E+01
-6.000000 -34.000000 -1.622152E+01
-6.000000 -36.000000 -1.154018E+01
-6.000000 -38.000000 -6.620841E+00
-6.000000 -40.000000 2.166212E+00
-4.000000 40.000000 -3.752447E+01
-4.000000 38.000000 -1.729275E+01
-4.000000 36.000000 1.276073E+01
-4.000000 34.000000 4.986098E+01
-4.000000 32.000000 6.503388E+01
-4.000000 30.000000 6.445668E+01
-4.000000 28.000000 5.974062E+01
-4.000000 26.000000 5.940840E+01
-4.000000 24.000000 5.710193E+01
-4.000000 22.000000 4.367710E+01
-4.000000 20.000000 3.452742E+01
-4.000000 18.000000 5.543004E+01
-4.000000 16.000000 1.070715E+02
-4.000000 14.000000 1.593764E+02
-4.000000 12.000000 1.755929E+02
-4.000000 10.000000 1.459917E+02
-4.000000 8.000000 8.703455E+01
-4.000000 6.000000 3.485551E+01
-4.000000 4.000000 6.510944E+00
-4.000000 2.000000 2.309067E+00
-4.000000 0.000000 9.278118E+00
-4.000000 -2.000000 1.627008E+01
-4.000000 -4.000000 1.676981E+01
-4.000000 -6.000000 1.114774E+01
-4.000000 -8.000000 5.077854E+00
-4.000000 -10.000000 2.499657E-01
-4.000000 -12.000000 -2.222458E+00
-4.000000 -14.000000 -6.068621E+00
-4.000000 -16.000000 -8.047100E+00
-4.000000 -18.000000 -1.142742E+01
-4.000000 -20.000000 -1.633711E+01
-4.000000 -22.000000 -1.943095E+01
-4.000000 -24.000000 -1.989047E+01
-4.000000 -26.000000 -1.910736E+01
-4.000000 -28.000000 -1.384566E+01
-4.000000 -30.000000 -1.125470E+01
-4.000000 -32.000000 -1.247547E+01
-4.000000 -34.000000 -1.100603E+01
-4.000000 -36.000000 -7.402067E+00
-4.000000 -38.000000 -2.826853E+00
-4.000000 -40.000000 5.523562E+00
-2.000000 40.000000 -3.233665E+01
-2.000000 38.000000 -1.160184E+01
-2.000000 36.000000 1.577339E+01
-2.000000 34.000000 4.763359E+01
-2.000000 32.000000 6.555455E+01
-2.000000 30.000000 7.232229E+01
-2.000000 28.000000 7.070656E+01
-2.000000 26.000000 6.919703E+01
-2.000000 24.000000 6.753007E+01
-2.000000 22.000000 5.434337E+01
-2.000000 20.000000 4.443721E+01
-2.000000 18.000000 5.985739E+01
-2.000000 16.000000 1.030885E+02
-2.000000 14.000000 1.404289E+02
-2.000000 12.000000 1.374547E+02
-2.000000 10.000000 9.193991E+01
-2.000000 8.000000 3.911116E+01
-2.000000 6.000000 2.496696E+00
-2.000000 4.000000 -8.941597E+00
-2.000000 2.000000 -5.580074E+00
-2.000000 0.000000 4.960461E+00
-2.000000 -2.000000 1.642345E+01
-2.000000 -4.000000 2.293129E+01
-2.000000 -6.000000 1.949692E+01
-2.000000 -8.000000 1.273626E+01
-2.000000 -10.000000 8.258764E+00
-2.000000 -12.000000 6.860193E+00
-2.000000 -14.000000 4.338530E+00
-2.000000 -16.000000 2.987448E+00
-2.000000 -18.000000 -2.714071E-01
-2.000000 -20.000000 -6.405981E+00
-2.000000 -22.000000 -1.086384E+01
-2.000000 -24.000000 -1.327744E+01
-2.000000 -26.000000 -1.294909E+01
-2.000000 -28.000000 -6.980743E+00
-2.000000 -30.000000 -3.080236E+00
-2.000000 -32.000000 -4.036131E+00
-2.000000 -34.000000 -3.981294E+00
-2.000000 -36.000000 -2.420376E+00
-2.000000 -38.000000 9.740191E-01
-2.000000 -40.000000 8.655674E+00
0.000000 40.000000 -2.432661E+01
0.000000 38.000000 -3.336348E+00
0.000000 36.000000 2.005065E+01
0.000000 34.000000 4.438753E+01
0.000000 32.000000 5.870751E+01
0.000000 30.000000 6.675559E+01
0.000000 28.000000 6.880513E+01
0.000000 26.000000 7.012200E+01
0.000000 24.000000 6.981310E+01
0.000000 22.000000 5.515116E+01
0.000000 20.000000 4.296705E+01
0.000000 18.000000 5.432855E+01
0.000000 16.000000 9.339807E+01
0.000000 14.000000 1.239234E+02
0.000000 12.000000 1.117151E+02
0.000000 10.000000 5.700651E+01
0.000000 8.000000 1.090508E+01
0.000000 6.000000 -1.490009E+01
0.000000 4.000000 -2.020214E+01
0.000000 2.000000 -1.486290E+01
0.000000 0.000000 -1.691032E+00
0.000000 -2.000000 1.459449E+01
0.000000 -4.000000 2.636443E+01
0.000000 -6.000000 2.681127E+01
0.000000 -8.000000 2.139643E+01
0.000000 -10.000000 1.803593E+01
0.000000 -12.000000 1.585122E+01
0.000000 -14.000000 1.319967E+01
0.000000 -16.000000 1.145892E+01
0.000000 -18.000000 6.989321E+00
0.000000 -20.000000 -2.600307E-01
0.000000 -22.000000 -5.290184E+00
0.000000 -24.000000 -7.187600E+00
0.000000 -26.000000 -6.750374E+00
0.000000 -28.000000 3.711751E-01
0.000000 -30.000000 6.065418E+00
0.000000 -32.000000 5.178767E+00
0.000000 -34.000000 3.574785E+00
0.000000 -36.000000 3.017453E+00
0.000000 -38.000000 5.097695E+00
0.000000 -40.000000 1.248269E+01
2.000000 40.000000 -1.367328E+01
2.000000 38.000000 7.028567E+00
2.000000 36.000000 2.431001E+01
2.000000 34.000000 3.864899E+01
2.000000 32.000000 4.455680E+01
2.000000 30.000000 4.893285E+01
2.000000 28.000000 5.280597E+01
2.000000 26.000000 5.851232E+01
2.000000 24.000000 6.019315E+01
2.000000 22.000000 4.336740E+01
2.000000 20.000000 2.647901E+01
2.000000 18.000000 3.312560E+01
2.000000 16.000000 7.128599E+01
2.000000 14.000000 1.069552E+02
2.000000 12.000000 1.059358E+02
2.000000 10.000000 6.627925E+01
2.000000 8.000000 3.042201E+01
2.000000 6.000000 5.384033E+00
2.000000 4.000000 -9.908390E+00
2.000000 2.000000 -1.526089E+01
2.000000 0.000000 -8.515095E+00
2.000000 -2.000000 6.828787E+00
2.000000 -4.000000 2.098051E+01
2.000000 -6.000000 2.776187E+01
2.000000 -8.000000 2.677844E+01
2.000000 -10.000000 2.364553E+01
2.000000 -12.000000 1.765703E+01
2.000000 -14.000000 1.221971E+01
2.000000 -16.000000 9.123449E+00
2.000000 -18.000000 5.236682E+00
2.000000 -20.000000 -1.062343E+00
2.000000 -22.000000 -4.946088E+00
2.000000 -24.000000 -3.126898E+00
2.000000 -26.000000 -6.283541E-01
2.000000 -28.000000 7.041637E+00
2.000000 -30.000000 1.381251E+01
2.000000 -32.000000 1.303870E+01
2.000000 -34.000000 9.837002E+00
2.000000 -36.000000 8.118541E+00
2.000000 -38.000000 9.808617E+00
2.000000 -40.000000 1.741961E+01
4.000000 40.000000 -2.276098E+00
4.000000 38.000000 1.658156E+01
4.000000 36.000000 2.661144E+01
4.000000 34.000000 3.068983E+01
4.000000 32.000000 2.738631E+01
4.000000 30.000000 2.675988E+01
4.000000 28.000000 2.991913E+01
4.000000 26.000000 3.689705E+01
4.000000 24.000000 3.838633E+01
4.000000 22.000000 2.110056E+01
4.000000 20.000000 1.010132E-02
4.000000 18.000000 2.474712E+00
4.000000 16.000000 4.167403E+01
4.000000 14.000000 8.784639E+01
4.000000 12.000000 1.128564E+02
4.000000 10.000000 1.118125E+02
4.000000 8.000000 9.454958E+01
4.000000 6.000000 6.700209E+01
4.000000 4.000000 2.851790E+01
4.000000 2.000000 -3.220936E+00
4.000000 0.000000 -1.630176E+01
4.000000 -2.000000 -1.050228E+01
4.000000 -4.000000 4.731272E+00
4.000000 -6.000000 1.978508E+01
4.000000 -8.000000 2.306858E+01
4.000000 -10.000000 1.814343E+01
4.000000 -12.000000 8.427499E+00
4.000000 -14.000000 3.120079E-01
4.000000 -16.000000 -3.887092E+00
4.000000 -18.000000 -5.905491E+00
4.000000 -20.000000 -9.594490E+00
4.000000 -22.000000 -9.162905E+00
4.000000 -24.000000 -1.622970E+00
4.000000 -26.000000 6.005485E+00
4.000000 -28.000000 1.436975E+01
4.000000 -30.000000 1.994214E+01
4.000000 -32.000000 1.830162E+01
4.000000 -34.000000 1.385263E+01
4.000000 -36.000000 1.248073E+01
4.000000 -38.000000 1.455896E+01
4.000000 -40.000000 2.238875E+01
6.000000 40.000000 7.480250E+00
6.000000 38.000000 2.451035E+01
6.000000 36.000000 2.926915E+01
6.000000 34.000000 2.378002E+01
6.000000 32.000000 1.002509E+01
6.000000 30.000000 4.004154E+00
6.000000 28.000000 5.201584E+00
6.000000 26.000000 1.099887E+01
6.000000 24.000000 1.209485E+01
6.000000 22.000000 -1.963619E+00
6.000000 20.000000 -2.236137E+01
6.000000 18.000000 -2.008113E+01
6.000000 16.000000 2.005970E+01
6.000000 14.000000 7.550121E+01
6.000000 12.000000 1.255235E+02
6.000000 10.000000 1.628939E+02
6.000000 8.000000 1.693536E+02
6.000000 6.000000 1.456132E+02
6.000000 4.000000 8.238836E+01
6.000000 2.000000 1.512269E+01
6.000000 0.000000 -2.788411E+01
6.000000 -2.000000 -3.759312E+01
6.000000 -4.000000 -2.352641E+01
6.000000 -6.000000 -2.631233E+00
6.000000 -8.000000 5.929912E+00
6.000000 -10.000000 2.374243E+00
6.000000 -12.000000 -6.861300E+00
6.000000 -14.000000 -1.439786E+01
6.000000 -16.000000 -1.730084E+01
6.000000 -18.000000 -1.795358E+01
6.000000 -20.000000 -1.950144E+01
6.000000 -22.000000 -1.431191E+01
6.000000 -24.000000 -2.078611E+00
6.000000 -26.000000 1.065113E+01
6.000000 -28.000000 1.992453E+01
6.000000 -30.000000 2.369292E+01
6.000000 -32.000000 2.106841E+01
6.000000 -34.000000 1.553437E+01
6.000000 -36.000000 1.548313E+01
6.000000 -38.000000 1.840372E+01
6.000000 -40.000000 2.600759E+01
8.000000 40.000000 1.390705E+01
8.000000 38.000000 3.127133E+01
8.000000 36.000000 3.446205E+01
8.000000 34.000000 2.126828E+01
8.000000 32.000000 -2.725248E+00
8.000000 30.000000 -1.573290E+01
8.000000 28.000000 -1.712356E+01
8.000000 26.000000 -9.883808E+00
8.000000 24.000000 -6.221836E+00
8.000000 22.000000 -1.343207E+01
8.000000 20.000000 -2.845309E+01
8.000000 18.000000 -2.576153E+01
8.000000 16.000000 9.390060E+00
8.000000 14.000000 6.618896E+01
8.000000 12.000000 1.313138E+02
8.000000 10.000000 1.943176E+02
8.000000 8.000000 2.228146E+02
8.000000 6.000000 2.081981E+02
8.000000 4.000000 1.289616E+02
8.000000 2.000000 3.044989E+01
8.000000 0.000000 -4.175936E+01
8.000000 -2.000000 -6.868160E+01
8.000000 -4.000000 -5.960123E+01
8.000000 -6.000000 -3.393930E+01
8.000000 -8.000000 -1.564182E+01
8.000000 -10.000000 -1.116337E+01
8.000000 -12.000000 -1.615130E+01
8.000000 -14.000000 -2.220122E+01
8.000000 -16.000000 -2.187240E+01
8.000000 -18.000000 -2.094628E+01
8.000000 -20.000000 -2.168670E+01
8.000000 -22.000000 -1.589439E+01
8.000000 -24.000000 -3.996008E+00
8.000000 -26.000000 9.945638E+00
8.000000 -28.000000 1.975205E+01
8.000000 -30.000000 2.293624E+01
8.000000 -32.000000 1.958633E+01
8.000000 -34.000000 1.303686E+01
8.000000 -36.000000 1.463868E+01
8.000000 -38.000000 2.012973E+01
8.000000 -40.000000 2.876627E+01
10.000000 40.000000 1.645901E+01
10.000000 38.000000 3.570283E+01
10.000000 36.000000 4.034283E+01
10.000000 34.000000 2.457752E+01
10.000000 32.000000 -5.104628E+00
10.000000 30.000000 -2.402803E+01
10.000000 28.000000 -2.700044E+01
10.000000 26.000000 -1.575808E+01
10.000000 24.000000 -7.465818E+00
10.000000 22.000000 -9.219151E+00
10.000000 20.000000 -1.983799E+01
10.000000 18.000000 -2.067807E+01
10.000000 16.000000 4.727995E+00
10.000000 14.000000 5.395996E+01
10.000000 12.000000 1.207548E+02
10.000000 10.000000 1.938707E+02
10.000000 8.000000 2.391344E+02
10.000000 6.000000 2.339426E+02
10.000000 4.000000 1.516052E+02
10.000000 2.000000 3.653005E+01
10.000000 0.000000 -5.539942E+01
10.000000 -2.000000 -9.550635E+01
10.000000 -4.000000 -8.851198E+01
10.000000 -6.000000 -5.462332E+01
10.000000 -8.000000 -2.693460E+01
10.000000 -10.000000 -1.530155E+01
10.000000 -12.000000 -1.743385E+01
10.000000 -14.000000 -2.050106E+01
10.000000 -16.000000 -1.543830E+01
10.000000 -18.000000 -1.188676E+01
10.000000 -20.000000 -1.255390E+01
10.000000 -22.000000 -1.075973E+01
10.000000 -24.000000 -4.788312E+00
10.000000 -26.000000 5.154305E+00
10.000000 -28.000000 1.380841E+01
10.000000 -30.000000 1.551291E+01
10.000000 -32.000000 1.091338E+01
10.000000 -34.000000 4.518269E+00
10.000000 -36.000000 8.825191E+00
10.000000 -38.000000 1.907261E+01
10.000000 -40.000000 3.160880E+01
12.000000 40.000000 1.561323E+01
12.000000 38.000000 3.596882E+01
12.000000 36.000000 4.457132E+01
12.000000 34.000000 3.371447E+01
12.000000 32.000000 5.147205E+00
12.000000 30.000000 -1.476076E+01
12.000000 28.000000 -1.773100E+01
12.000000 26.000000 -5.307859E+00
12.000000 24.000000 5.103207E+00
12.000000 22.000000 3.944422E+00
12.000000 20.000000 -6.933121E+00
12.000000 18.000000 -1.228757E+01
12.000000 16.000000 6.558187E+00
12.000000 14.000000 4.741366E+01
12.000000 12.000000 1.086127E+02
12.000000 10.000000 1.794742E+02
12.000000 8.000000 2.298826E+02
12.000000 6.000000 2.264981E+02
12.000000 4.000000 1.450975E+02
12.000000 2.000000 2.599743E+01
12.000000 0.000000 -7.172008E+01
12.000000 -2.000000 -1.147305E+02
12.000000 -4.000000 -1.032496E+02
12.000000 -6.000000 -5.981478E+01
12.000000 -8.000000 -2.851770E+01
12.000000 -10.000000 -1.663389E+01
12.000000 -12.000000 -2.103697E+01
12.000000 -14.000000 -1.938281E+01
12.000000 -16.000000 -4.801505E+00
12.000000 -18.000000 7.505633E+00
12.000000 -20.000000 7.269877E+00
12.000000 -22.000000 1.957838E+00
12.000000 -24.000000 -1.636622E+00
12.000000 -26.000000 1.124788E+00
12.000000 -28.000000 4.524662E+00
12.000000 -30.000000 1.859388E+00
12.000000 -32.000000 -3.680204E+00
12.000000 -34.000000 -8.313708E+00
12.000000 -36.000000 4.091377E-01
12.000000 -38.000000 1.632854E+01
12.000000 -40.000000 3.437076E+01
14.000000 40.000000 1.096106E+01
14.000000 38.000000 3.209726E+01
14.000000 36.000000 4.743242E+01
14.000000 34.000000 4.825719E+01
14.000000 32.000000 2.760839E+01
14.000000 30.000000 1.112653E+01
14.000000 28.000000 8.272438E+00
14.000000 26.000000 1.775375E+01
14.000000 24.000000 2.620247E+01
14.000000 22.000000 2.068548E+01
14.000000 20.000000 5.145733E+00
14.000000 18.000000 -6.529026E-01
14.000000 16.000000 1.938372E+01
14.000000 14.000000 5.716553E+01
14.000000 12.000000 1.117346E+02
14.000000 10.000000 1.726599E+02
14.000000 8.000000 2.114916E+02
14.000000 6.000000 1.991064E+02
14.000000 4.000000 1.164985E+02
14.000000 2.000000 2.346334E+00
14.000000 0.000000 -8.997358E+01
14.000000 -2.000000 -1.267728E+02
14.000000 -4.000000 -1.072241E+02
14.000000 -6.000000 -5.906194E+01
14.000000 -8.000000 -3.448107E+01
14.000000 -10.000000 -3.037338E+01
14.000000 -12.000000 -4.024839E+01
14.000000 -14.000000 -3.283155E+01
14.000000 -16.000000 -1.612285E+00
14.000000 -18.000000 2.858470E+01
14.000000 -20.000000 3.276162E+01
14.000000 -22.000000 2.138605E+01
14.000000 -24.000000 7.022247E+00
14.000000 -26.000000 9.303474E-02
14.000000 -28.000000 -4.227104E+00
14.000000 -30.000000 -1.243328E+01
14.000000 -32.000000 -1.822900E+01
14.000000 -34.000000 -2.021474E+01
14.000000 -36.000000 -7.078403E+00
14.000000 -38.000000 1.389220E+01
14.000000 -40.000000 3.732631E+01
16.000000 40.000000 3.923304E+00
16.000000 38.000000 2.751551E+01
16.000000 36.000000 5.189057E+01
16.000000 34.000000 6.702969E+01
16.000000 32.000000 5.630792E+01
16.000000 30.000000 4.289997E+01
16.000000 28.000000 3.742657E+01
16.000000 26.000000 4.236020E+01
16.000000 24.000000 4.981353E+01
16.000000 22.000000 3.966912E+01
16.000000 20.000000 2.128947E+01
16.000000 18.000000 1.994097E+01
16.000000 16.000000 4.407508E+01
16.000000 14.000000 8.230980E+01
16.000000 12.000000 1.293222E+02
16.000000 10.000000 1.754577E+02
16.000000 8.000000 1.957139E+02
16.000000 6.000000 1.724980E+02
16.000000 4.000000 9.302089E+01
16.000000 2.000000 -9.227254E+00
16.000000 0.000000 -9.367670E+01
16.000000 -2.000000 -1.307383E+02
16.000000 -4.000000 -1.198569E+02
16.000000 -6.000000 -8.464275E+01
16.000000 -8.000000 -7.015152E+01
16.000000 -10.000000 -7.273301E+01
16.000000 -12.000000 -7.964603E+01
16.000000 -14.000000 -6.073706E+01
16.000000 -16.000000 -9.303336E+00
16.000000 -18.000000 4.118905E+01
16.000000 -20.000000 5.581326E+01
16.000000 -22.000000 4.355876E+01
16.000000 -24.000000 2.160363E+01
16.000000 -26.000000 3.887838E+00
16.000000 -28.000000 -7.274231E+00
16.000000 -30.000000 -1.962431E+01
16.000000 -32.000000 -2.595576E+01
16.000000 -34.000000 -2.553970E+01
16.000000 -36.000000 -1.010115E+01
16.000000 -38.000000 1.377656E+01
16.000000 -40.000000 4.052738E+01
18.000000 40.000000 -2.732442E+00
18.000000 38.000000 2.656794E+01
18.000000 36.000000 6.103389E+01
18.000000 34.000000 8.756886E+01
18.000000 32.000000 8.191347E+01
18.000000 30.000000 6.682018E+01
18.000000 28.000000 5.744759E+01
18.000000 26.000000 6.005339E+01
18.000000 24.000000 6.922062E+01
18.000000 22.000000 5.853539E+01
18.000000 20.000000 4.103750E+01
18.000000 18.000000 4.069750E+01
18.000000 16.000000 6.543588E+01
18.000000 14.000000 1.042246E+02
18.000000 12.000000 1.441684E+02
18.000000 10.000000 1.770551E+02
18.000000 8.000000 1.869135E+02
18.000000 6.000000 1.644055E+02
18.000000 4.000000 9.869446E+01
18.000000 2.000000 1.010265E+01
18.000000 0.000000 -7.310608E+01
18.000000 -2.000000 -1.263807E+02
18.000000 -4.000000 -1.451920E+02
18.000000 -6.000000 -1.395879E+02
18.000000 -8.000000 -1.348873E+02
18.000000 -10.000000 -1.376994E+02
18.000000 -12.000000 -1.292496E+02
18.000000 -14.000000 -9.237825E+01
18.000000 -16.000000 -2.311026E+01
18.000000 -18.000000 4.132406E+01
18.000000 -20.000000 6.711820E+01
18.000000 -22.000000 5.936847E+01
18.000000 -24.000000 3.618096E+01
18.000000 -26.000000 1.360019E+01
18.000000 -28.000000 -3.423805E-01
18.000000 -30.000000 -1.421051E+01
18.000000 -32.000000 -2.176651E+01
18.000000 -34.000000 -2.153218E+01
18.000000 -36.000000 -6.959524E+00
18.000000 -38.000000 1.631709E+01
18.000000 -40.000000 4.210609E+01
20.000000 40.000000 -8.665198E+00
20.000000 38.000000 2.814283E+01
20.000000 36.000000 7.141450E+01
20.000000 34.000000 1.042865E+02
20.000000 32.000000 9.906425E+01
20.000000 30.000000 7.914671E+01
20.000000 28.000000 6.822239E+01
20.000000 26.000000 7.201764E+01
20.000000 24.000000 8.240169E+01
20.000000 22.000000 7.156520E+01
20.000000 20.000000 5.229453E+01
20.000000 18.000000 4.604411E+01
20.000000 16.000000 6.850300E+01
20.000000 14.000000 1.079340E+02
20.000000 12.000000 1.454907E+02
20.000000 10.000000 1.733951E+02
20.000000 8.000000 1.831874E+02
20.000000 6.000000 1.691375E+02
20.000000 4.000000 1.205149E+02
20.000000 2.000000 4.357477E+01
20.000000 0.000000 -4.321286E+01
20.000000 -2.000000 -1.177785E+02
20.000000 -4.000000 -1.686880E+02
20.000000 -6.000000 -1.912663E+02
20.000000 -8.000000 -1.947988E+02
20.000000 -10.000000 -1.953295E+02
20.000000 -12.000000 -1.716104E+02
20.000000 -14.000000 -1.194191E+02
20.000000 -16.000000 -3.964876E+01
20.000000 -18.000000 3.151560E+01
20.000000 -20.000000 6.351669E+01
20.000000 -22.000000 6.297560E+01
20.000000 -24.000000 4.565132E+01
20.000000 -26.000000 2.733065E+01
20.000000 -28.000000 1.514457E+01
20.000000 -30.000000 1.971619E+00
20.000000 -32.000000 -6.887505E+00
20.000000 -34.000000 -8.921049E+00
20.000000 -36.000000 1.366293E+00
20.000000 -38.000000 1.957884E+01
20.000000 -40.000000 4.027179E+01
22.000000 40.000000 -1.383445E+01
22.000000 38.000000 2.690639E+01
22.000000 36.000000 7.586923E+01
22.000000 34.000000 1.133981E+02
22.000000 32.000000 1.094297E+02
22.000000 30.000000 8.538107E+01
22.000000 28.000000 7.178780E+01
22.000000 26.000000 7.608294E+01
22.000000 24.000000 8.613240E+01
22.000000 22.000000 7.286958E+01
22.000000 20.000000 4.761443E+01
22.000000 18.000000 3.240381E+01
22.000000 16.000000 5.074105E+01
22.000000 14.000000 9.019998E+01
22.000000 12.000000 1.313038E+02
22.000000 10.000000 1.630113E+02
22.000000 8.000000 1.791967E+02
22.000000 6.000000 1.759272E+02
22.000000 4.000000 1.413223E+02
22.000000 2.000000 7.204521E+01
22.000000 0.000000 -1.772426E+01
22.000000 -2.000000 -1.072966E+02
22.000000 -4.000000 -1.794950E+02
22.000000 -6.000000 -2.197077E+02
22.000000 -8.000000 -2.272717E+02
22.000000 -10.000000 -2.250903E+02
22.000000 -12.000000 -1.941068E+02
22.000000 -14.000000 -1.359397E+02
22.000000 -16.000000 -5.497895E+01
22.000000 -18.000000 1.598036E+01
22.000000 -20.000000 4.781287E+01
22.000000 -22.000000 5.326364E+01
22.000000 -24.000000 4.622013E+01
22.000000 -26.000000 3.845786E+01
22.000000 -28.000000 3.178041E+01
22.000000 -30.000000 2.079536E+01
22.000000 -32.000000 1.153192E+01
22.000000 -34.000000 7.453289E+00
22.000000 -36.000000 1.189538E+01
22.000000 -38.000000 2.298127E+01
22.000000 -40.000000 3.728790E+01
24.000000 40.000000 -1.877356E+01
24.000000 38.000000 2.044645E+01
24.000000 36.000000 7.201060E+01
24.000000 34.000000 1.149086E+02
24.000000 32.000000 1.140042E+02
24.000000 30.000000 8.659074E+01
24.000000 28.000000 6.615194E+01
24.000000 26.000000 6.704249E+01
24.000000 24.000000 7.614610E+01
24.000000 22.000000 6.195582E+01
24.000000 20.000000 3.079335E+01
24.000000 18.000000 6.885994E+00
24.000000 16.000000 2.333997E+01
24.000000 14.000000 6.526809E+01
24.000000 12.000000 1.108718E+02
24.000000 10.000000 1.492435E+02
24.000000 8.000000 1.746215E+02
24.000000 6.000000 1.804499E+02
24.000000 4.000000 1.524886E+02
24.000000 2.000000 8.401684E+01
24.000000 0.000000 -6.969901E+00
24.000000 -2.000000 -9.967276E+01
24.000000 -4.000000 -1.759195E+02
24.000000 -6.000000 -2.190851E+02
24.000000 -8.000000 -2.278994E+02
24.000000 -10.000000 -2.246698E+02
24.000000 -12.000000 -1.950762E+02
24.000000 -14.000000 -1.399168E+02
24.000000 -16.000000 -6.715163E+01
24.000000 -18.000000 -5.627785E+00
24.000000 -20.000000 2.224588E+01
24.000000 -22.000000 3.164665E+01
24.000000 -24.000000 3.621704E+01
24.000000 -26.000000 4.115142E+01
24.000000 -28.000000 4.191274E+01
24.000000 -30.000000 3.389596E+01
24.000000 -32.000000 2.531437E+01
24.000000 -34.000000 2.084425E+01
24.000000 -36.000000 2.172265E+01
24.000000 -38.000000 2.758588E+01
24.000000 -40.000000 3.648737E+01
26.000000 40.000000 -2.469449E+01
26.000000 38.000000 9.294447E+00
26.000000 36.000000 6.001368E+01
26.000000 34.000000 1.070042E+02
26.000000 32.000000 1.092263E+02
26.000000 30.000000 7.959797E+01
26.000000 28.000000 5.200275E+01
26.000000 26.000000 4.705634E+01
26.000000 24.000000 5.305981E+01
26.000000 22.000000 4.108400E+01
26.000000 20.000000 1.091970E+01
26.000000 18.000000 -1.068745E+01
26.000000 16.000000 1.054608E+01
26.000000 14.000000 5.445990E+01
26.000000 12.000000 9.941171E+01
26.000000 10.000000 1.395145E+02
26.000000 8.000000 1.699759E+02
26.000000 6.000000 1.783816E+02
26.000000 4.000000 1.461987E+02
26.000000 2.000000 7.170099E+01
26.000000 0.000000 -1.818810E+01
26.000000 -2.000000 -1.012605E+02
26.000000 -4.000000 -1.653447E+02
26.000000 -6.000000 -1.993106E+02
26.000000 -8.000000 -2.076673E+02
26.000000 -10.000000 -2.065536E+02
26.000000 -12.000000 -1.839126E+02
26.000000 -14.000000 -1.371327E+02
26.000000 -16.000000 -7.792457E+01
26.000000 -18.000000 -3.044425E+01
26.000000 -20.000000 -7.617838E+00
26.000000 -22.000000 5.862831E+00
26.000000 -24.000000 2.201166E+01
26.000000 -26.000000 3.717123E+01
26.000000 -28.000000 4.407569E+01
26.000000 -30.000000 3.903731E+01
26.000000 -32.000000 3.100956E+01
26.000000 -34.000000 2.814108E+01
26.000000 -36.000000 2.858680E+01
26.000000 -38.000000 3.153154E+01
26.000000 -40.000000 3.611588E+01
28.000000 40.000000 -3.215034E+01
28.000000 38.000000 -5.259875E+00
28.000000 36.000000 4.133452E+01
28.000000 34.000000 8.922063E+01
28.000000 32.000000 9.421455E+01
28.000000 30.000000 6.433835E+01
28.000000 28.000000 3.177722E+01
28.000000 26.000000 2.117945E+01
28.000000 24.000000 2.306127E+01
28.000000 22.000000 1.715683E+01
28.000000 20.000000 -1.835110E+00
28.000000 18.000000 -7.245215E+00
28.000000 16.000000 2.343267E+01
28.000000 14.000000 6.610351E+01
28.000000 12.000000 1.039758E+02
28.000000 10.000000 1.371370E+02
28.000000 8.000000 1.609492E+02
28.000000 6.000000 1.610098E+02
28.000000 4.000000 1.157256E+02
28.000000 2.000000 3.496502E+01
28.000000 0.000000 -4.832099E+01
28.000000 -2.000000 -1.123213E+02
28.000000 -4.000000 -1.528362E+02
28.000000 -6.000000 -1.739245E+02
28.000000 -8.000000 -1.835961E+02
28.000000 -10.000000 -1.878812E+02
28.000000 -12.000000 -1.715359E+02
28.000000 -14.000000 -1.325434E+02
28.000000 -16.000000 -8.554812E+01
28.000000 -18.000000 -5.004180E+01
28.000000 -20.000000 -3.207942E+01
28.000000 -22.000000 -1.490236E+01
28.000000 -24.000000 9.999359E+00
28.000000 -26.000000 3.075120E+01
28.000000 -28.000000 4.103989E+01
28.000000 -30.000000 3.850069E+01
28.000000 -32.000000 3.129709E+01
28.000000 -34.000000 3.032580E+01
28.000000 -36.000000 3.036017E+01
28.000000 -38.000000 3.053397E+01
28.000000 -40.000000 3.196091E+01
30.000000 40.000000 -4.262588E+01
30.000000 38.000000 -2.131813E+01
30.000000 36.000000 2.064032E+01
30.000000 34.000000 6.603292E+01
30.000000 32.000000 7.315937E+01
30.000000 30.000000 4.544730E+01
30.000000 28.000000 1.025315E+01
30.000000 26.000000 -4.143006E+00
30.000000 24.000000 -4.254952E+00
30.000000 22.000000 -2.228178E+00
30.000000 20.000000 -5.523619E+00
30.000000 18.000000 8.565661E+00
30.000000 16.000000 4.823373E+01
30.000000 14.000000 8.985769E+01
30.000000 12.000000 1.176072E+02
30.000000 10.000000 1.366058E+02
30.000000 8.000000 1.439571E+02
30.000000 6.000000 1.288357E+02
30.000000 4.000000 7.008488E+01
30.000000 2.000000 -1.302552E+01
30.000000 0.000000 -8.534595E+01
30.000000 -2.000000 -1.268422E+02
30.000000 -4.000000 -1.421466E+02
30.000000 -6.000000 -1.513968E+02
30.000000 -8.000000 -1.636408E+02
30.000000 -10.000000 -1.736192E+02
30.000000 -12.000000 -1.612092E+02
30.000000 -14.000000 -1.263722E+02
30.000000 -16.000000 -8.499989E+01
30.000000 -18.000000 -5.710310E+01
30.000000 -20.000000 -4.375240E+01
30.000000 -22.000000 -2.633991E+01
30.000000 -24.000000 3.203773E-01
30.000000 -26.000000 2.223611E+01
30.000000 -28.000000 3.289147E+01
30.000000 -30.000000 3.136523E+01
30.000000 -32.000000 2.618258E+01
30.000000 -34.000000 2.669918E+01
30.000000 -36.000000 2.582633E+01
30.000000 -38.000000 2.423240E+01
30.000000 -40.000000 2.383176E+01
32.000000 40.000000 -5.617608E+01
32.000000 38.000000 -3.864947E+01
32.000000 36.000000 -5.492630E-01
32.000000 34.000000 4.233935E+01
32.000000 32.000000 5.272307E+01
32.000000 30.000000 2.991096E+01
32.000000 28.000000 -3.307040E+00
32.000000 26.000000 -1.901209E+01
32.000000 24.000000 -2.293668E+01
32.000000 22.000000 -1.868644E+01
32.000000 20.000000 -1.075015E+01
32.000000 18.000000 1.802725E+01
32.000000 16.000000 6.430461E+01
32.000000 14.000000 1.062450E+02
32.000000 12.000000 1.259593E+02
32.000000 10.000000 1.290552E+02
32.000000 8.000000 1.182449E+02
32.000000 6.000000 8.962287E+01
32.000000 4.000000 2.558203E+01
32.000000 2.000000 -5.317400E+01
32.000000 0.000000 -1.124237E+02
32.000000 -2.000000 -1.344251E+02
32.000000 -4.000000 -1.326459E+02
32.000000 -6.000000 -1.323837E+02
32.000000 -8.000000 -1.430947E+02
32.000000 -10.000000 -1.549646E+02
32.000000 -12.000000 -1.456545E+02
32.000000 -14.000000 -1.137157E+02
32.000000 -16.000000 -7.594634E+01
32.000000 -18.000000 -5.404841E+01
32.000000 -20.000000 -4.453765E+01
32.000000 -22.000000 -3.069672E+01
32.000000 -24.000000 -9.681068E+00
32.000000 -26.000000 7.586384E+00
32.000000 -28.000000 1.618311E+01
32.000000 -30.000000 1.507491E+01
32.000000 -32.000000 1.238293E+01
32.000000 -34.000000 1.560147E+01
32.000000 -36.000000 1.600708E+01
32.000000 -38.000000 1.498225E+01
32.000000 -40.000000 1.435270E+01
34.000000 40.000000 -6.960254E+01
34.000000 38.000000 -5.704023E+01
34.000000 36.000000 -2.259062E+01
34.000000 34.000000 2.110542E+01
34.000000 32.000000 3.803469E+01
34.000000 30.000000 2.224384E+01
34.000000 28.000000 -4.991572E+00
34.000000 26.000000 -2.104207E+01
34.000000 24.000000 -3.225862E+01
34.000000 22.000000 -3.512543E+01
34.000000 20.000000 -2.770290E+01
34.000000 18.000000 6.773812E+00
34.000000 16.000000 5.972219E+01
34.000000 14.000000 1.059010E+02
34.000000 12.000000 1.233553E+02
34.000000 10.000000 1.149108E+02
34.000000 8.000000 9.073376E+01
34.000000 6.000000 5.338160E+01
34.000000 4.000000 -8.816145E+00
34.000000 2.000000 -7.542059E+01
34.000000 0.000000 -1.192929E+02
34.000000 -2.000000 -1.276561E+02
34.000000 -4.000000 -1.165562E+02
34.000000 -6.000000 -1.100756E+02
34.000000 -8.000000 -1.177416E+02
34.000000 -10.000000 -1.275906E+02
34.000000 -12.000000 -1.204708E+02
34.000000 -14.000000 -9.518291E+01
34.000000 -16.000000 -6.713879E+01
34.000000 -18.000000 -5.124163E+01
34.000000 -20.000000 -4.330375E+01
34.000000 -22.000000 -3.418363E+01
34.000000 -24.000000 -2.251698E+01
34.000000 -26.000000 -1.435313E+01
34.000000 -28.000000 -9.014774E+00
34.000000 -30.000000 -8.126869E+00
34.000000 -32.000000 -7.063919E+00
34.000000 -34.000000 -1.118050E-01
34.000000 -36.000000 3.562828E+00
34.000000 -38.000000 4.400021E+00
34.000000 -40.000000 5.063656E+00
36.000000 40.000000 -7.949325E+01
36.000000 38.000000 -7.251903E+01
36.000000 36.000000 -4.233436E+01
36.000000 34.000000 1.465701E+00
36.000000 32.000000 2.559288E+01
36.000000 30.000000 1.957545E+01
36.000000 28.000000 1.243920E+00
36.000000 26.000000 -1.366680E+01
36.000000 24.000000 -3.114659E+01
36.000000 22.000000 -4.698646E+01
36.000000 20.000000 -5.098975E+01
36.000000 18.000000 -2.068450E+01
36.000000 16.000000 3.770893E+01
36.000000 14.000000 9.154907E+01
36.000000 12.000000 1.139779E+02
36.000000 10.000000 1.048482E+02
36.000000 8.000000 7.451438E+01
36.000000 6.000000 3.024188E+01
36.000000 4.000000 -2.948075E+01
36.000000 2.000000 -8.219232E+01
36.000000 0.000000 -1.109004E+02
36.000000 -2.000000 -1.099737E+02
36.000000 -4.000000 -9.505111E+01
36.000000 -6.000000 -8.588236E+01
36.000000 -8.000000 -8.958821E+01
36.000000 -10.000000 -9.549305E+01
36.000000 -12.000000 -8.996646E+01
36.000000 -14.000000 -7.628946E+01
36.000000 -16.000000 -6.528294E+01
36.000000 -18.000000 -5.642103E+01
36.000000 -20.000000 -4.831773E+01
36.000000 -22.000000 -4.181494E+01
36.000000 -24.000000 -3.876773E+01
36.000000 -26.000000 -3.905688E+01
36.000000 -28.000000 -3.589343E+01
36.000000 -30.000000 -3.189381E+01
36.000000 -32.000000 -2.558249E+01
36.000000 -34.000000 -1.511716E+01
36.000000 -36.000000 -9.005772E+00
36.000000 -38.000000 -6.392715E+00
36.000000 -40.000000 -3.919518E+00
38.000000 40.000000 -8.423611E+01
38.000000 38.000000 -8.219751E+01
38.000000 36.000000 -5.818157E+01
38.000000 34.000000 -1.747153E+01
38.000000 32.000000 1.221874E+01
38.000000 30.000000 1.781153E+01
38.000000 28.000000 1.130928E+01
38.000000 26.000000 1.300536E+00
38.000000 24.000000 -1.952080E+01
38.000000 22.000000 -4.926386E+01
38.000000 20.000000 -6.794055E+01
38.000000 18.000000 -4.700523E+01
38.000000 16.000000 1.180238E+01
38.000000 14.000000 7.177619E+01
38.000000 12.000000 1.052094E+02
38.000000 10.000000 1.052001E+02
38.000000 8.000000 7.216070E+01
38.000000 6.000000 2.124715E+01
38.000000 4.000000 -3.799750E+01
38.000000 2.000000 -7.923293E+01
38.000000 0.000000 -9.635487E+01
38.000000 -2.000000 -9.040110E+01
38.000000 -4.000000 -7.512108E+01
38.000000 -6.000000 -6.672799E+01
38.000000 -8.000000 -6.730372E+01
38.000000 -10.000000 -6.907017E+01
38.000000 -12.000000 -6.476125E+01
38.000000 -14.000000 -6.422484E+01
38.000000 -16.000000 -7.090256E+01
38.000000 -18.000000 -6.906384E+01
38.000000 -20.000000 -6.064537E+01
38.000000 -22.000000 -5.350965E+01
38.000000 -24.000000 -5.431141E+01
38.000000 -26.000000 -5.872995E+01
38.000000 -28.000000 -5.544089E+01
38.000000 -30.000000 -4.914244E+01
38.000000 -32.000000 -3.939633E+01
38.000000 -34.000000 -2.678316E+01
38.000000 -36.000000 -2.025142E+01
38.000000 -38.000000 -1.692317E+01
38.000000 -40.000000 -1.327536E+01
40.000000 40.000000 -8.413904E+01
40.000000 38.000000 -8.567554E+01
40.000000 36.000000 -6.768260E+01
40.000000 34.000000 -3.027080E+01
40.000000 32.000000 2.908523E+00
40.000000 30.000000 1.721933E+01
40.000000 28.000000 2.073956E+01
40.000000 26.000000 1.699249E+01
40.000000 24.000000 -3.592709E+00
40.000000 22.000000 -4.202699E+01
40.000000 20.000000 -7.064303E+01
40.000000 18.000000 -5.853117E+01
40.000000 16.000000 -3.956903E+00
40.000000 14.000000 5.621090E+01
40.000000 12.000000 9.596017E+01
40.000000 10.000000 1.024116E+02
40.000000 8.000000 7.025022E+01
40.000000 6.000000 2.091046E+01
40.000000 4.000000 -3.327975E+01
40.000000 2.000000 -6.493291E+01
40.000000 0.000000 -7.357922E+01
40.000000 -2.000000 -6.649380E+01
40.000000 -4.000000 -5.583023E+01
40.000000 -6.000000 -5.371519E+01
40.000000 -8.000000 -5.664632E+01
40.000000 -10.000000 -5.995323E+01
40.000000 -12.000000 -6.291048E+01
40.000000 -14.000000 -7.323580E+01
40.000000 -16.000000 -8.649437E+01
40.000000 -18.000000 -8.691406E+01
40.000000 -20.000000 -7.760947E+01
40.000000 -22.000000 -6.789579E+01
40.000000 -24.000000 -6.532905E+01
40.000000 -26.000000 -6.680962E+01
40.000000 -28.000000 -6.216984E+01
40.000000 -30.000000 -5.494613E+01
40.000000 -32.000000 -4.565515E+01
40.000000 -34.000000 -3.447243E+01
40.000000 -36.000000 -2.973700E+01
40.000000 -38.000000 -2.610307E+01
40.000000 -40.000000 -2.210308E+01
42.000000 40.000000 -8.182939E+01
42.000000 38.000000 -8.194345E+01
42.000000 36.000000 -6.422158E+01
42.000000 34.000000 -2.785797E+01
42.000000 32.000000 4.778727E+00
42.000000 30.000000 2.062913E+01
42.000000 28.000000 2.628419E+01
42.000000 26.000000 2.540612E+01
42.000000 24.000000 8.174709E+00
42.000000 22.000000 -3.017838E+01
42.000000 20.000000 -6.075330E+01
42.000000 18.000000 -5.504369E+01
42.000000 16.000000 -8.763361E+00
42.000000 14.000000 4.425488E+01
42.000000 12.000000 7.902266E+01
42.000000 10.000000 8.535364E+01
42.000000 8.000000 5.997516E+01
42.000000 6.000000 2.104293E+01
42.000000 4.000000 -1.966837E+01
42.000000 2.000000 -4.186982E+01
42.000000 0.000000 -4.588170E+01
42.000000 -2.000000 -4.125279E+01
42.000000 -4.000000 -3.877060E+01
42.000000 -6.000000 -4.506336E+01
42.000000 -8.000000 -5.276915E+01
42.000000 -10.000000 -6.072362E+01
42.000000 -12.000000 -7.390134E+01
42.000000 -14.000000 -9.342057E+01
42.000000 -16.000000 -1.086196E+02
42.000000 -18.000000 -1.101087E+02
42.000000 -20.000000 -9.944847E+01
42.000000 -22.000000 -8.470578E+01
42.000000 -24.000000 -7.339013E+01
42.000000 -26.000000 -6.684508E+01
42.000000 -28.000000 -5.967840E+01
42.000000 -30.000000 -5.238166E+01
42.000000 -32.000000 -4.535799E+01
42.000000 -34.000000 -3.767009E+01
42.000000 -36.000000 -3.569038E+01
42.000000 -38.000000 -3.214118E+01
42.000000 -40.000000 -2.832538E+01
44.000000 40.000000 -7.761832E+01
44.000000 38.000000 -7.131181E+01
44.000000 36.000000 -4.952682E+01
44.000000 34.000000 -1.282302E+01
44.000000 32.000000 1.572007E+01
44.000000 30.000000 2.719463E+01
44.000000 28.000000 2.998566E+01
44.000000 26.000000 2.850995E+01
44.000000 24.000000 1.417585E+01
44.000000 22.000000 -1.829960E+01
44.000000 20.000000 -4.533007E+01
44.000000 18.000000 -4.261839E+01
44.000000 16.000000 -5.355247E+00
44.000000 14.000000 3.689310E+01
44.000000 12.000000 6.178840E+01
44.000000 10.000000 6.374882E+01
44.000000 8.000000 4.486935E+01
44.000000 6.000000 1.690911E+01
44.000000 4.000000 -1.057399E+01
44.000000 2.000000 -2.455489E+01
44.000000 0.000000 -2.594788E+01
44.000000 -2.000000 -2.508956E+01
44.000000 -4.000000 -3.022573E+01
44.000000 -6.000000 -4.110097E+01
44.000000 -8.000000 -4.964743E+01
44.000000 -10.000000 -5.869453E+01
44.000000 -12.000000 -7.832780E+01
44.000000 -14.000000 -1.061075E+02
44.000000 -16.000000 -1.275546E+02
44.000000 -18.000000 -1.338553E+02
44.000000 -20.000000 -1.230615E+02
44.000000 -22.000000 -1.014559E+02
44.000000 -24.000000 -7.933225E+01
44.000000 -26.000000 -6.431501E+01
44.000000 -28.000000 -5.550840E+01
44.000000 -30.000000 -4.907118E+01
44.000000 -32.000000 -4.374798E+01
44.000000 -34.000000 -3.735692E+01
44.000000 -36.000000 -3.641525E+01
44.000000 -38.000000 -3.426956E+01
44.000000 -40.000000 -3.133896E+01
46.000000 40.000000 -7.034094E+01
46.000000 38.000000 -5.758485E+01
46.000000 36.000000 -3.265340E+01
46.000000 34.000000 3.368984E+00
46.000000 32.000000 2.792071E+01
46.000000 30.000000 3.479683E+01
46.000000 28.000000 3.512675E+01
46.000000 26.000000 3.200077E+01
46.000000 24.000000 2.114042E+01
46.000000 22.000000 -4.869447E-01
46.000000 20.000000 -2.086268E+01
46.000000 18.000000 -2.001062E+01
46.000000 16.000000 7.296631E+00
46.000000 14.000000 3.565245E+01
46.000000 12.000000 4.890278E+01
46.000000 10.000000 4.269107E+01
46.000000 8.000000 2.497749E+01
46.000000 6.000000 4.739046E+00
46.000000 4.000000 -1.293645E+01
46.000000 2.000000 -2.020745E+01
46.000000 0.000000 -1.905913E+01
46.000000 -2.000000 -2.065118E+01
46.000000 -4.000000 -2.963807E+01
46.000000 -6.000000 -3.929177E+01
46.000000 -8.000000 -4.437407E+01
46.000000 -10.000000 -5.187169E+01
46.000000 -12.000000 -7.549363E+01
46.000000 -14.000000 -1.092196E+02
46.000000 -16.000000 -1.374727E+02
46.000000 -18.000000 -1.500428E+02
46.000000 -20.000000 -1.403521E+02
46.000000 -22.000000 -1.132264E+02
46.000000 -24.000000 -8.266180E+01
46.000000 -26.000000 -6.251647E+01
46.000000 -28.000000 -5.418514E+01
46.000000 -30.000000 -4.996881E+01
46.000000 -32.000000 -4.567219E+01
46.000000 -34.000000 -3.755140E+01
46.000000 -36.000000 -3.440330E+01
46.000000 -38.000000 -3.238722E+01
46.000000 -40.000000 -2.928400E+01
48.000000 40.000000 -6.236647E+01
48.000000 38.000000 -4.474710E+01
48.000000 36.000000 -1.766218E+01
48.000000 34.000000 1.562532E+01
48.000000 32.000000 3.616175E+01
48.000000 30.000000 4.007908E+01
48.000000 28.000000 3.964686E+01
48.000000 26.000000 3.740413E+01
48.000000 24.000000 3.536947E+01
48.000000 22.000000 2.882265E+01
48.000000 20.000000 1.760579E+01
48.000000 18.000000 1.617117E+01
48.000000 16.000000 3.286948E+01
48.000000 14.000000 4.526210E+01
48.000000 12.000000 4.053824E+01
48.000000 10.000000 1.996618E+01
48.000000 8.000000 -1.258862E+00
48.000000 6.000000 -1.700917E+01
48.000000 4.000000 -2.608994E+01
48.000000 2.000000 -2.805112E+01
48.000000 0.000000 -2.506502E+01
48.000000 -2.000000 -2.550561E+01
48.000000 -4.000000 -3.338137E+01
48.000000 -6.000000 -3.995947E+01
48.000000 -8.000000 -4.216103E+01
48.000000 -10.000000 -4.827302E+01
48.000000 -12.000000 -7.236222E+01
48.000000 -14.000000 -1.062039E+02
48.000000 -16.000000 -1.366615E+02
48.000000 -18.000000 -1.520559E+02
48.000000 -20.000000 -1.436456E+02
48.000000 -22.000000 -1.151643E+02
48.000000 -24.000000 -8.196866E+01
48.000000 -26.000000 -6.189168E+01
48.000000 -28.000000 -5.675038E+01
48.000000 -30.000000 -5.624381E+01
48.000000 -32.000000 -5.248664E+01
48.000000 -34.000000 -4.121672E+01
48.000000 -36.000000 -3.295249E+01
48.000000 -38.000000 -2.692413E+01
48.000000 -40.000000 -2.103836E+01
50.000000 40.000000 -5.587289E+01
50.000000 38.000000 -3.494028E+01
50.000000 36.000000 -6.604385E+00
50.000000 34.000000 2.366864E+01
50.000000 32.000000 3.892301E+01
50.000000 30.000000 3.954427E+01
50.000000 28.000000 4.007996E+01
50.000000 26.000000 4.445415E+01
50.000000 24.000000 5.600110E+01
50.000000 22.000000 6.234553E+01
50.000000 20.000000 5.962883E+01
50.000000 18.000000 5.696888E+01
50.000000 16.000000 6.397378E+01
50.000000 14.000000 6.236346E+01
50.000000 12.000000 3.898562E+01
50.000000 10.000000 1.682458E+00
50.000000 8.000000 -2.633515E+01
50.000000 6.000000 -4.049145E+01
50.000000 4.000000 -4.219216E+01
50.000000 2.000000 -3.944500E+01
50.000000 0.000000 -3.510325E+01
50.000000 -2.000000 -3.291732E+01
50.000000 -4.000000 -3.781067E+01
50.000000 -6.000000 -4.359710E+01
50.000000 -8.000000 -4.751894E+01
50.000000 -10.000000 -5.541483E+01
50.000000 -12.000000 -7.651734E+01
50.000000 -14.000000 -1.039994E+02
50.000000 -16.000000 -1.282874E+02
50.000000 -18.000000 -1.397555E+02
50.000000 -20.000000 -1.315770E+02
50.000000 -22.000000 -1.056865E+02
50.000000 -24.000000 -7.583571E+01
50.000000 -26.000000 -5.988564E+01
50.000000 -28.000000 -5.972327E+01
50.000000 -30.000000 -6.302249E+01
50.000000 -32.000000 -5.990879E+01
50.000000 -34.000000 -4.572835E+01
50.000000 -36.000000 -3.158309E+01
50.000000 -38.000000 -2.021447E+01
50.000000 -40.000000 -1.071234E+01
52.000000 40.000000 -5.033297E+01
52.000000 38.000000 -2.880062E+01
52.000000 36.000000 -1.019682E+00
52.000000 34.000000 2.680265E+01
52.000000 32.000000 3.748964E+01
52.000000 30.000000 3.496049E+01
52.000000 28.000000 3.610716E+01
52.000000 26.000000 4.793797E+01
52.000000 24.000000 7.076993E+01
