-10.000000 -16.000000 4.787148E+00
-10.000000 -18.000000 1.681513E+01
-10.000000 -20.000000 1.428291E+01
-10.000000 -22.000000 4.611301E-02
-10.000000 -24.000000 -1.732292E+01
-10.000000 -26.000000 -2.586966E+01
-10.000000 -28.000000 -1.914275E+01
-10.000000 -30.000000 -6.567290E+00
-10.000000 -32.000000 5.022145E+00
-10.000000 -34.000000 1.012146E+01
-10.000000 -36.000000 1.115033E+01
-10.000000 -38.000000 8.717809E+00
-10.000000 -40.000000 6.514651E+00
-8.000000 40.000000 3.913578E+00
-8.000000 38.000000 6.801033E-01
-8.000000 36.000000 3.202808E+00
-8.000000 34.000000 8.396599E+00
-8.000000 32.000000 9.818753E+00
-8.000000 30.000000 4.636451E+00
-8.000000 28.000000 -3.101343E+00
-8.000000 26.000000 -8.080385E+00
-8.000000 24.000000 -6.726603E+00
-8.000000 22.000000 2.106222E+00
-8.000000 20.000000 4.582972E+00
-8.000000 18.000000 -8.335814E+00
-8.000000 16.000000 -2.767446E+01
-8.000000 14.000000 -3.500375E+01
-8.000000 12.000000 -8.551114E+00
-8.000000 10.000000 3.768864E+01
-8.000000 8.000000 6.728534E+01
-8.000000 6.000000 6.628452E+01
-8.000000 4.000000 4.126571E+01
-8.000000 2.000000 2.124638E+01
-8.000000 0.000000 1.829892E+01
-8.000000 -2.000000 2.741714E+01
-8.000000 -4.000000 3.701446E+01
-8.000000 -6.000000 3.616397E+01
-8.000000 -8.000000 1.974874E+01
-8.000000 -10.000000 -5.922947E+00
-8.000000 -12.000000 -2.354177E+01
-8.000000 -14.000000 -2.074073E+01
-8.000000 -16.000000 -3.922259E+00
-8.000000 -18.000000 8.367823E+00
-8.000000 -20.000000 7.097943E+00
-8.000000 -22.000000 -7.040786E+00
-8.000000 -24.000000 -2.609281E+01
-8.000000 -26.000000 -3.608422E+01
-8.000000 -28.000000 -2.883600E+01
-8.000000 -30.000000 -1.361487E+01
-8.000000 -32.000000 3.437080E-01
-8.000000 -34.000000 7.707555E+00
-8.000000 -36.000000 1.128385E+01
-8.000000 -38.000000 1.026611E+01
-8.000000 -40.000000 7.492937E+00
-6.000000 40.000000 -1.776560E+00
-6.000000 38.000000 -6.207926E+00
-6.000000 36.000000 -4.370455E+00
-6.000000 34.000000 1.241631E+00
-6.000000 32.000000 5.432706E+00
-6.000000 30.000000 4.253386E+00
-6.000000 28.000000 1.194000E-02
-6.000000 26.000000 -2.621708E+00
-6.000000 24.000000 3.977283E+00
-6.000000 22.000000 1.878865E+01
-6.000000 20.000000 2.740224E+01
-6.000000 18.000000 1.696167E+01
-6.000000 16.000000 -5.082567E+00
-6.000000 14.000000 -1.765279E+01
-6.000000 12.000000 1.234500E+00
-6.000000 10.000000 4.284395E+01
-6.000000 8.000000 7.370542E+01
-6.000000 6.000000 7.478553E+01
-6.000000 4.000000 4.772211E+01
-6.000000 2.000000 2.282242E+01
-6.000000 0.000000 1.705431E+01
-6.000000 -2.000000 2.550407E+01
-6.000000 -4.000000 3.453271E+01
-6.000000 -6.000000 3.373173E+01
-6.000000 -8.000000 1.800928E+01
-6.000000 -10.000000 -8.120298E+00
-6.000000 -12.000000 -2.654400E+01
-6.000000 -14.000000 -2.513703E+01
-6.000000 -16.000000 -9.230831E+00
-6.000000 -18.000000 2.401525E+00
-6.000000 -20.000000 2.070227E+00
-6.000000 -22.000000 -1.090396E+01
-6.000000 -24.000000 -2.939392E+01
-6.000000 -26.000000 -3.990320E+01
-6.000000 -28.000000 -3.237336E+01
-6.000000 -30.000000 -1.552690E+01
-6.000000 -32.000000 -1.521335E+00
-6.000000 -34.000000 5.550735E+00
-6.000000 -36.000000 1.096259E+01
-6.000000 -38.000000 1.098984E+01
-6.000000 -40.000000 7.555812E+00
-4.000000 40.000000 -5.237152E+00
-4.000000 38.000000 -1.078868E+01
-4.000000 36.000000 -9.209450E+00
-4.000000 34.000000 -3.637613E+00
-4.000000 32.000000 2.259756E+00
-4.000000 30.000000 4.175536E+00
-4.000000 28.000000 2.449740E+00
-4.000000 26.000000 1.238330E+00
-4.000000 24.000000 1.224901E+01
-4.000000 22.000000 3.233499E+01
-4.000000 20.000000 4.763373E+01
-4.000000 18.000000 4.243606E+01
-4.000000 16.000000 2.148906E+01
-4.000000 14.000000 8.213820E+00
-4.000000 12.000000 2.171735E+01
-4.000000 10.000000 5.590369E+01
-4.000000 8.000000 7.986681E+01
-4.000000 6.000000 7.451229E+01
-4.000000 4.000000 4.158648E+01
-4.000000 2.000000 1.107662E+01
-4.000000 0.000000 1.090345E-01
-4.000000 -2.000000 5.859608E+00
-4.000000 -4.000000 1.530667E+01
-4.000000 -6.000000 1.755544E+01
-4.000000 -8.000000 7.098711E+00
-4.000000 -10.000000 -1.299241E+01
-4.000000 -12.000000 -2.551384E+01
-4.000000 -14.000000 -2.114479E+01
-4.000000 -16.000000 -6.194121E+00
-4.000000 -18.000000 4.023915E+00
-4.000000 -20.000000 2.998372E+00
-4.000000 -22.000000 -9.137148E+00
-4.000000 -24.000000 -2.495124E+01
-4.000000 -26.000000 -3.321116E+01
-4.000000 -28.000000 -2.626300E+01
-4.000000 -30.000000 -1.194066E+01
-4.000000 -32.000000 -7.058735E-01
-4.000000 -34.000000 4.867486E+00
-4.000000 -36.000000 9.690023E+00
-4.000000 -38.000000 9.575971E+00
-4.000000 -40.000000 5.944391E+00
-2.000000 40.000000 -5.353590E+00
-2.000000 38.000000 -1.154717E+01
-2.000000 36.000000 -1.023906E+01
-2.000000 34.000000 -5.042734E+00
-2.000000 32.000000 1.610573E+00
-2.000000 30.000000 5.190578E+00
-2.000000 28.000000 4.572121E+00
-2.000000 26.000000 2.913019E+00
-2.000000 24.000000 1.364856E+01
-2.000000 22.000000 3.400331E+01
-2.000000 20.000000 5.202001E+01
-2.000000 18.000000 5.209051E+01
-2.000000 16.000000 3.727317E+01
-2.000000 14.000000 2.888370E+01
-2.000000 12.000000 4.217629E+01
-2.000000 10.000000 7.179294E+01
-2.000000 8.000000 8.732132E+01
-2.000000 6.000000 7.180236E+01
-2.000000 4.000000 2.992984E+01
-2.000000 2.000000 -8.017834E+00
-2.000000 0.000000 -2.553029E+01
-2.000000 -2.000000 -2.265794E+01
-2.000000 -4.000000 -1.222837E+01
-2.000000 -6.000000 -4.121210E+00
-2.000000 -8.000000 -5.216116E+00
-2.000000 -10.000000 -1.602795E+01
-2.000000 -12.000000 -2.005662E+01
-2.000000 -14.000000 -1.015945E+01
-2.000000 -16.000000 4.460147E+00
-2.000000 -18.000000 1.301696E+01
-2.000000 -20.000000 1.018576E+01
-2.000000 -22.000000 -1.322136E+00
-2.000000 -24.000000 -1.395169E+01
-2.000000 -26.000000 -1.852817E+01
-2.000000 -28.000000 -1.286818E+01
-2.000000 -30.000000 -3.848294E+00
-2.000000 -32.000000 2.567535E+00
-2.000000 -34.000000 5.481717E+00
-2.000000 -36.000000 7.661890E+00
-2.000000 -38.000000 6.697905E+00
-2.000000 -40.000000 3.179453E+00
0.000000 40.000000 -2.779625E+00
0.000000 38.000000 -7.863533E+00
0.000000 36.000000 -6.719858E+00
0.000000 34.000000 -2.674685E+00
0.000000 32.000000 3.721855E+00
0.000000 30.000000 7.146872E+00
0.000000 28.000000 5.853165E+00
0.000000 26.000000 2.636453E+00
0.000000 24.000000 7.809996E+00
0.000000 22.000000 2.076321E+01
0.000000 20.000000 3.426420E+01
0.000000 18.000000 3.771427E+01
0.000000 16.000000 3.357697E+01
0.000000 14.000000 3.631697E+01
0.000000 12.000000 5.530825E+01
0.000000 10.000000 8.340207E+01
0.000000 8.000000 9.110044E+01
0.000000 6.000000 6.829467E+01
0.000000 4.000000 2.019276E+01
0.000000 2.000000 -2.273615E+01
0.000000 0.000000 -4.511744E+01
0.000000 -2.000000 -4.379450E+01
0.000000 -4.000000 -3.121775E+01
0.000000 -6.000000 -1.738836E+01
0.000000 -8.000000 -1.138385E+01
0.000000 -10.000000 -1.530682E+01
0.000000 -12.000000 -1.317753E+01
0.000000 -14.000000 1.045649E+00
0.000000 -16.000000 1.618081E+01
0.000000 -18.000000 2.349229E+01
0.000000 -20.000000 1.910386E+01
0.000000 -22.000000 8.211403E+00
0.000000 -24.000000 -1.503147E+00
0.000000 -26.000000 -3.157274E+00
0.000000 -28.000000 1.636576E+00
0.000000 -30.000000 6.990181E+00
0.000000 -32.000000 9.055351E+00
0.000000 -34.000000 8.176139E+00
0.000000 -36.000000 6.776043E+00
0.000000 -38.000000 4.092336E+00
0.000000 -40.000000 3.032017E-02
2.000000 40.000000 1.029135E+00
2.000000 38.000000 -2.115679E+00
2.000000 36.000000 -3.964520E-01
2.000000 34.000000 2.129923E+00
2.000000 32.000000 7.519006E+00
2.000000 30.000000 9.464850E+00
2.000000 28.000000 5.483591E+00
2.000000 26.000000 -1.319710E+00
2.000000 24.000000 -4.273743E+00
2.000000 22.000000 -1.396099E+00
2.000000 20.000000 4.362144E+00
2.000000 18.000000 8.149812E+00
2.000000 16.000000 1.328944E+01
2.000000 14.000000 2.698521E+01
2.000000 12.000000 5.513216E+01
2.000000 10.000000 8.677407E+01
2.000000 8.000000 9.279093E+01
2.000000 6.000000 6.982600E+01
2.000000 4.000000 2.130561E+01
2.000000 2.000000 -2.289418E+01
2.000000 0.000000 -4.830172E+01
2.000000 -2.000000 -4.874209E+01
2.000000 -4.000000 -3.514399E+01
2.000000 -6.000000 -1.917163E+01
2.000000 -8.000000 -1.178702E+01
2.000000 -10.000000 -1.232075E+01
2.000000 -12.000000 -7.898287E+00
2.000000 -14.000000 6.538339E+00
2.000000 -16.000000 2.156234E+01
2.000000 -18.000000 2.842362E+01
2.000000 -20.000000 2.425970E+01
2.000000 -22.000000 1.491106E+01
2.000000 -24.000000 7.722231E+00
2.000000 -26.000000 7.225941E+00
2.000000 -28.000000 1.211997E+01
2.000000 -30.000000 1.724847E+01
2.000000 -32.000000 1.807101E+01
2.000000 -34.000000 1.439496E+01
2.000000 -36.000000 8.373443E+00
2.000000 -38.000000 2.704047E+00
2.000000 -40.000000 -2.760011E+00
4.000000 40.000000 4.640463E+00
4.000000 38.000000 3.029287E+00
4.000000 36.000000 5.528495E+00
4.000000 34.000000 7.561537E+00
4.000000 32.000000 1.146395E+01
4.000000 30.000000 1.036196E+01
4.000000 28.000000 1.987305E+00
4.000000 26.000000 -9.386497E+00
4.000000 24.000000 -1.868110E+01
4.000000 22.000000 -2.192800E+01
4.000000 20.000000 -2.230625E+01
4.000000 18.000000 -2.197513E+01
4.000000 16.000000 -1.549552E+01
4.000000 14.000000 3.153911E+00
4.000000 12.000000 3.905013E+01
4.000000 10.000000 7.999106E+01
4.000000 8.000000 9.685465E+01
4.000000 6.000000 8.494481E+01
4.000000 4.000000 4.324864E+01
4.000000 2.000000 -1.656731E+00
4.000000 0.000000 -3.193567E+01
4.000000 -2.000000 -3.850404E+01
4.000000 -4.000000 -2.974620E+01
4.000000 -6.000000 -1.636523E+01
4.000000 -8.000000 -1.058237E+01
4.000000 -10.000000 -1.081474E+01
4.000000 -12.000000 -7.360250E+00
4.000000 -14.000000 5.036983E+00
4.000000 -16.000000 1.862893E+01
4.000000 -18.000000 2.538149E+01
4.000000 -20.000000 2.313715E+01
4.000000 -22.000000 1.607867E+01
4.000000 -24.000000 1.043542E+01
4.000000 -26.000000 1.016341E+01
4.000000 -28.000000 1.621695E+01
4.000000 -30.000000 2.429992E+01
4.000000 -32.000000 2.711733E+01
4.000000 -34.000000 2.233528E+01
4.000000 -36.000000 1.210908E+01
4.000000 -38.000000 3.019035E+00
4.000000 -40.000000 -4.418643E+00
6.000000 40.000000 6.466029E+00
6.000000 38.000000 5.766532E+00
6.000000 36.000000 8.792856E+00
6.000000 34.000000 1.163536E+01
6.000000 32.000000 1.392946E+01
6.000000 30.000000 8.660795E+00
6.000000 28.000000 -4.493750E+00
6.000000 26.000000 -1.928117E+01
6.000000 24.000000 -3.019615E+01
6.000000 22.000000 -3.258729E+01
6.000000 20.000000 -3.552003E+01
6.000000 18.000000 -4.218933E+01
6.000000 16.000000 -4.402146E+01
6.000000 14.000000 -3.008111E+01
6.000000 12.000000 8.971426E+00
6.000000 10.000000 6.225856E+01
6.000000 8.000000 1.014316E+02
6.000000 6.000000 1.123905E+02
6.000000 4.000000 8.516171E+01
6.000000 2.000000 4.093637E+01
6.000000 0.000000 2.895724E+00
6.000000 -2.000000 -1.608459E+01
6.000000 -4.000000 -1.797701E+01
6.000000 -6.000000 -1.111739E+01
6.000000 -8.000000 -8.978855E+00
6.000000 -10.000000 -1.238009E+01
6.000000 -12.000000 -1.251493E+01
6.000000 -14.000000 -3.328671E+00
6.000000 -16.000000 9.218435E+00
6.000000 -18.000000 1.684812E+01
6.000000 -20.000000 1.674329E+01
6.000000 -22.000000 1.078109E+01
6.000000 -24.000000 4.816421E+00
6.000000 -26.000000 4.821100E+00
6.000000 -28.000000 1.331356E+01
6.000000 -30.000000 2.608529E+01
6.000000 -32.000000 3.292528E+01
6.000000 -34.000000 2.889686E+01
6.000000 -36.000000 1.666778E+01
6.000000 -38.000000 5.010761E+00
6.000000 -40.000000 -4.405263E+00
8.000000 40.000000 5.574010E+00
8.000000 38.000000 4.692907E+00
8.000000 36.000000 7.825293E+00
8.000000 34.000000 1.121641E+01
8.000000 32.000000 1.286730E+01
8.000000 30.000000 5.363355E+00
8.000000 28.000000 -1.098985E+01
8.000000 26.000000 -2.770123E+01
8.000000 24.000000 -3.548817E+01
8.000000 22.000000 -3.076826E+01
8.000000 20.000000 -3.134365E+01
8.000000 18.000000 -4.596190E+01
8.000000 16.000000 -6.178498E+01
8.000000 14.000000 -6.126564E+01
8.000000 12.000000 -2.565149E+01
8.000000 10.000000 3.732509E+01
8.000000 8.000000 1.005567E+02
8.000000 6.000000 1.382059E+02
8.000000 4.000000 1.299378E+02
8.000000 2.000000 8.950878E+01
8.000000 0.000000 4.490969E+01
8.000000 -2.000000 1.258012E+01
8.000000 -4.000000 -1.937933E+00
8.000000 -6.000000 -3.404705E+00
8.000000 -8.000000 -6.134224E+00
8.000000 -10.000000 -1.503818E+01
8.000000 -12.000000 -2.059032E+01
8.000000 -14.000000 -1.502523E+01
8.000000 -16.000000 -2.224310E+00
8.000000 -18.000000 7.440083E+00
8.000000 -20.000000 8.653068E+00
8.000000 -22.000000 1.677140E+00
8.000000 -24.000000 -6.727293E+00
8.000000 -26.000000 -7.463118E+00
8.000000 -28.000000 3.981726E+00
8.000000 -30.000000 2.125668E+01
8.000000 -32.000000 3.293913E+01
8.000000 -34.000000 3.210036E+01
8.000000 -36.000000 2.069973E+01
8.000000 -38.000000 8.088351E+00
8.000000 -40.000000 -2.939895E+00
10.000000 40.000000 2.792691E+00
10.000000 38.000000 -4.604454E-01
10.000000 36.000000 1.099318E+00
10.000000 34.000000 4.009340E+00
10.000000 32.000000 6.843452E+00
10.000000 30.000000 7.860374E-01
10.000000 28.000000 -1.480030E+01
10.000000 26.000000 -3.022349E+01
10.000000 24.000000 -3.211849E+01
10.000000 22.000000 -1.808179E+01
10.000000 20.000000 -1.221818E+01
10.000000 18.000000 -3.099938E+01
10.000000 16.000000 -5.962903E+01
10.000000 14.000000 -7.519147E+01
10.000000 12.000000 -5.136011E+01
10.000000 10.000000 1.104340E+01
10.000000 8.000000 8.771045E+01
10.000000 6.000000 1.443097E+02
10.000000 4.000000 1.547569E+02
10.000000 2.000000 1.226851E+02
10.000000 0.000000 7.760611E+01
10.000000 -2.000000 3.810720E+01
10.000000 -4.000000 1.367102E+01
10.000000 -6.000000 5.524741E+00
10.000000 -8.000000 -1.226852E+00
10.000000 -10.000000 -1.664987E+01
10.000000 -12.000000 -2.873150E+01
10.000000 -14.000000 -2.506006E+01
10.000000 -16.000000 -1.055018E+01
10.000000 -18.000000 1.273908E+00
10.000000 -20.000000 2.640505E+00
10.000000 -22.000000 -6.754728E+00
10.000000 -24.000000 -1.906239E+01
10.000000 -26.000000 -2.278794E+01
10.000000 -28.000000 -9.584205E+00
10.000000 -30.000000 1.164097E+01
10.000000 -32.000000 2.794559E+01
10.000000 -34.000000 3.126415E+01
10.000000 -36.000000 2.313872E+01
10.000000 -38.000000 1.112654E+01
10.000000 -40.000000 -1.048740E+00
12.000000 40.000000 -2.753849E-01
12.000000 38.000000 -8.740891E+00
12.000000 36.000000 -1.093346E+01
12.000000 34.000000 -9.001250E+00
12.000000 32.000000 -2.943859E+00
12.000000 30.000000 -4.008693E+00
12.000000 28.000000 -1.452199E+01
12.000000 26.000000 -2.482745E+01
12.000000 24.000000 -1.989064E+01
12.000000 22.000000 9.447670E-01
12.000000 20.000000 1.307605E+01
12.000000 18.000000 -3.995002E+00
12.000000 16.000000 -3.912547E+01
12.000000 14.000000 -6.569427E+01
12.000000 12.000000 -5.653768E+01
12.000000 10.000000 -8.600781E+00
12.000000 8.000000 6.242998E+01
12.000000 6.000000 1.227183E+02
12.000000 4.000000 1.482250E+02
12.000000 2.000000 1.310855E+02
12.000000 0.000000 9.285831E+01
12.000000 -2.000000 5.243427E+01
12.000000 -4.000000 2.346148E+01
12.000000 -6.000000 1.173866E+01
12.000000 -8.000000 1.864398E+00
12.000000 -10.000000 -1.769918E+01
12.000000 -12.000000 -3.471761E+01
12.000000 -14.000000 -3.180388E+01
12.000000 -16.000000 -1.488616E+01
12.000000 -18.000000 -8.269138E-01
12.000000 -20.000000 2.998800E-01
12.000000 -22.000000 -1.148084E+01
12.000000 -24.000000 -2.756274E+01
12.000000 -26.000000 -3.504479E+01
12.000000 -28.000000 -2.228151E+01
12.000000 -30.000000 7.035446E-01
12.000000 -32.000000 1.985996E+01
12.000000 -34.000000 2.665337E+01
12.000000 -36.000000 2.286873E+01
12.000000 -38.000000 1.285349E+01
12.000000 -40.000000 6.293907E-01
14.000000 40.000000 -3.166842E+00
14.000000 38.000000 -1.802264E+01
14.000000 36.000000 -2.429601E+01
14.000000 34.000000 -2.299245E+01
14.000000 32.000000 -1.227407E+01
14.000000 30.000000 -5.828241E+00
14.000000 28.000000 -1.026471E+01
14.000000 26.000000 -1.684141E+01
14.000000 24.000000 -6.722126E+00
14.000000 22.000000 1.922913E+01
14.000000 20.000000 3.675291E+01
14.000000 18.000000 2.335145E+01
14.000000 16.000000 -1.302352E+01
14.000000 14.000000 -4.492105E+01
14.000000 12.000000 -4.757029E+01
14.000000 10.000000 -1.775054E+01
14.000000 8.000000 3.848002E+01
14.000000 6.000000 9.178562E+01
14.000000 4.000000 1.264886E+02
14.000000 2.000000 1.251820E+02
14.000000 0.000000 9.612256E+01
14.000000 -2.000000 5.775158E+01
14.000000 -4.000000 2.719027E+01
14.000000 -6.000000 1.103106E+01
14.000000 -8.000000 -4.023478E+00
14.000000 -10.000000 -2.601456E+01
14.000000 -12.000000 -4.364906E+01
14.000000 -14.000000 -3.956644E+01
14.000000 -16.000000 -1.956717E+01
14.000000 -18.000000 -2.217163E+00
14.000000 -20.000000 1.283255E-01
14.000000 -22.000000 -1.201539E+01
14.000000 -24.000000 -2.969835E+01
14.000000 -26.000000 -3.903351E+01
14.000000 -28.000000 -2.908157E+01
14.000000 -30.000000 -8.860705E+00
14.000000 -32.000000 1.013724E+01
14.000000 -34.000000 1.976465E+01
14.000000 -36.000000 1.986238E+01
14.000000 -38.000000 1.265537E+01
14.000000 -40.000000 1.951173E+00
16.000000 40.000000 -6.453708E+00
16.000000 38.000000 -2.469169E+01
16.000000 36.000000 -3.309470E+01
16.000000 34.000000 -3.155024E+01
16.000000 32.000000 -1.686684E+01
16.000000 30.000000 -4.796736E+00
16.000000 28.000000 -4.610421E+00
16.000000 26.000000 -9.533789E+00
16.000000 24.000000 1.576977E+00
16.000000 22.000000 2.830761E+01
16.000000 20.000000 4.740737E+01
16.000000 18.000000 3.638496E+01
16.000000 16.000000 2.651038E+00
16.000000 14.000000 -2.855712E+01
16.000000 12.000000 -3.517023E+01
16.000000 10.000000 -1.347006E+01
16.000000 8.000000 3.407217E+01
16.000000 6.000000 7.989730E+01
16.000000 4.000000 1.169552E+02
16.000000 2.000000 1.233070E+02
16.000000 0.000000 9.832778E+01
16.000000 -2.000000 6.015111E+01
16.000000 -4.000000 2.495708E+01
16.000000 -6.000000 5.201283E-01
16.000000 -8.000000 -2.139538E+01
16.000000 -10.000000 -4.795031E+01
16.000000 -12.000000 -6.375329E+01
16.000000 -14.000000 -5.464573E+01
16.000000 -16.000000 -2.880487E+01
16.000000 -18.000000 -6.191431E+00
16.000000 -20.000000 -5.158043E-02
16.000000 -22.000000 -9.684021E+00
16.000000 -24.000000 -2.655519E+01
16.000000 -26.000000 -3.668190E+01
16.000000 -28.000000 -3.030591E+01
16.000000 -30.000000 -1.466689E+01
16.000000 -32.000000 1.999188E+00
16.000000 -34.000000 1.288427E+01
16.000000 -36.000000 1.636225E+01
16.000000 -38.000000 1.172946E+01
16.000000 -40.000000 2.535963E+00
18.000000 40.000000 -9.260839E+00
18.000000 38.000000 -2.653461E+01
18.000000 36.000000 -3.444771E+01
18.000000 34.000000 -3.132846E+01
18.000000 32.000000 -1.468445E+01
18.000000 30.000000 -2.262623E+00
18.000000 28.000000 -4.862280E-01
18.000000 26.000000 -3.945816E+00
18.000000 24.000000 4.849344E+00
18.000000 22.000000 2.505976E+01
18.000000 20.000000 3.814455E+01
18.000000 18.000000 2.687374E+01
18.000000 16.000000 -1.067849E+00
18.000000 14.000000 -2.365644E+01
18.000000 12.000000 -2.151734E+01
18.000000 10.000000 7.406590E+00
18.000000 8.000000 5.613955E+01
18.000000 6.000000 1.018299E+02
18.000000 4.000000 1.332885E+02
18.000000 2.000000 1.312637E+02
18.000000 0.000000 9.839843E+01
18.000000 -2.000000 5.332583E+01
18.000000 -4.000000 1.206728E+01
18.000000 -6.000000 -1.864825E+01
18.000000 -8.000000 -4.688271E+01
18.000000 -10.000000 -7.874115E+01
18.000000 -12.000000 -9.202520E+01
18.000000 -14.000000 -7.653179E+01
18.000000 -16.000000 -4.224953E+01
18.000000 -18.000000 -1.257976E+01
18.000000 -20.000000 -1.584546E+00
18.000000 -22.000000 -7.121219E+00
18.000000 -24.000000 -2.144046E+01
18.000000 -26.000000 -3.176779E+01
18.000000 -28.000000 -2.805990E+01
18.000000 -30.000000 -1.614495E+01
18.000000 -32.000000 -2.115752E+00
18.000000 -34.000000 8.464882E+00
18.000000 -36.000000 1.460324E+01
18.000000 -38.000000 1.155152E+01
18.000000 -40.000000 2.624213E+00
20.000000 40.000000 -9.750071E+00
20.000000 38.000000 -2.472209E+01
20.000000 36.000000 -3.044390E+01
20.000000 34.000000 -2.415757E+01
20.000000 32.000000 -6.387012E+00
20.000000 30.000000 3.502568E+00
20.000000 28.000000 3.255513E+00
20.000000 26.000000 -1.671211E+00
20.000000 24.000000 2.550917E+00
20.000000 22.000000 1.463991E+01
20.000000 20.000000 1.902168E+01
20.000000 18.000000 5.130206E+00
20.000000 16.000000 -1.661524E+01
20.000000 14.000000 -2.786275E+01
20.000000 12.000000 -1.110329E+01
20.000000 10.000000 3.294752E+01
20.000000 8.000000 8.934386E+01
20.000000 6.000000 1.403464E+02
20.000000 4.000000 1.617586E+02
20.000000 2.000000 1.404247E+02
20.000000 0.000000 9.073591E+01
20.000000 -2.000000 3.465724E+01
20.000000 -4.000000 -1.022231E+01
20.000000 -6.000000 -4.161754E+01
20.000000 -8.000000 -7.306829E+01
20.000000 -10.000000 -1.081072E+02
20.000000 -12.000000 -1.182763E+02
20.000000 -14.000000 -9.674023E+01
20.000000 -16.000000 -5.493883E+01
20.000000 -18.000000 -1.894997E+01
20.000000 -20.000000 -3.057467E+00
20.000000 -22.000000 -4.741519E+00
20.000000 -24.000000 -1.656215E+01
20.000000 -26.000000 -2.626223E+01
20.000000 -28.000000 -2.416894E+01
20.000000 -30.000000 -1.494957E+01
20.000000 -32.000000 -2.571490E+00
20.000000 -34.000000 8.343009E+00
20.000000 -36.000000 1.486823E+01
20.000000 -38.000000 1.214990E+01
20.000000 -40.000000 3.088149E+00
22.000000 40.000000 -9.247777E+00
22.000000 38.000000 -2.058200E+01
22.000000 36.000000 -2.207492E+01
22.000000 34.000000 -1.182838E+01
22.000000 32.000000 5.651694E+00
22.000000 30.000000 1.148307E+01
22.000000 28.000000 7.065128E+00
22.000000 26.000000 -1.259043E+00
22.000000 24.000000 -1.639120E+00
22.000000 22.000000 4.623526E+00
22.000000 20.000000 3.258028E+00
22.000000 18.000000 -1.288388E+01
22.000000 16.000000 -3.058876E+01
22.000000 14.000000 -3.400908E+01
22.000000 12.000000 -8.407019E+00
22.000000 10.000000 4.558889E+01
22.000000 8.000000 1.089420E+02
22.000000 6.000000 1.627866E+02
22.000000 4.000000 1.753759E+02
22.000000 2.000000 1.380539E+02
22.000000 0.000000 7.459320E+01
22.000000 -2.000000 1.154162E+01
22.000000 -4.000000 -3.326262E+01
22.000000 -6.000000 -6.069927E+01
22.000000 -8.000000 -9.021111E+01
22.000000 -10.000000 -1.270498E+02
22.000000 -12.000000 -1.351044E+02
22.000000 -14.000000 -1.068891E+02
22.000000 -16.000000 -5.908099E+01
22.000000 -18.000000 -1.952586E+01
22.000000 -20.000000 -8.248439E-01
22.000000 -22.000000 -7.175503E-01
22.000000 -24.000000 -1.181832E+01
22.000000 -26.000000 -2.169205E+01
22.000000 -28.000000 -2.047585E+01
22.000000 -30.000000 -1.259134E+01
22.000000 -32.000000 -8.344400E-01
22.000000 -34.000000 1.063339E+01
22.000000 -36.000000 1.646902E+01
22.000000 -38.000000 1.333459E+01
22.000000 -40.000000 3.912372E+00
24.000000 40.000000 -1.001137E+01
24.000000 38.000000 -1.563366E+01
24.000000 36.000000 -1.100447E+01
24.000000 34.000000 2.916235E+00
24.000000 32.000000 1.851111E+01
24.000000 30.000000 1.895882E+01
24.000000 28.000000 9.548799E+00
24.000000 26.000000 -9.068719E-01
24.000000 24.000000 -3.071784E+00
24.000000 22.000000 -7.396102E-03
24.000000 20.000000 -4.063049E+00
24.000000 18.000000 -2.146997E+01
24.000000 16.000000 -3.889178E+01
24.000000 14.000000 -4.140982E+01
24.000000 12.000000 -1.480542E+01
24.000000 10.000000 3.968288E+01
24.000000 8.000000 1.035661E+02
24.000000 6.000000 1.557581E+02
24.000000 4.000000 1.649350E+02
24.000000 2.000000 1.233548E+02
24.000000 0.000000 5.791094E+01
24.000000 -2.000000 -3.922082E+00
24.000000 -4.000000 -4.590744E+01
24.000000 -6.000000 -6.990534E+01
24.000000 -8.000000 -9.783496E+01
24.000000 -10.000000 -1.334169E+02
24.000000 -12.000000 -1.382609E+02
24.000000 -14.000000 -1.048620E+02
24.000000 -16.000000 -5.250613E+01
24.000000 -18.000000 -1.112039E+01
24.000000 -20.000000 7.232578E+00
24.000000 -22.000000 5.649928E+00
24.000000 -24.000000 -7.320719E+00
24.000000 -26.000000 -1.849867E+01
24.000000 -28.000000 -1.756355E+01
24.000000 -30.000000 -9.941456E+00
24.000000 -32.000000 1.444737E+00
24.000000 -34.000000 1.250317E+01
24.000000 -36.000000 1.781818E+01
24.000000 -38.000000 1.439947E+01
24.000000 -40.000000 4.735058E+00
26.000000 40.000000 -1.182220E+01
26.000000 38.000000 -1.267876E+01
26.000000 36.000000 -3.128996E+00
26.000000 34.000000 1.359618E+01
26.000000 32.000000 2.778249E+01
26.000000 30.000000 2.382381E+01
26.000000 28.000000 1.056600E+01
26.000000 26.000000 -7.870309E-01
26.000000 24.000000 -2.411497E+00
26.000000 22.000000 2.603102E-02
26.000000 20.000000 -4.673305E+00
26.000000 18.000000 -2.286883E+01
26.000000 16.000000 -4.103196E+01
26.000000 14.000000 -4.615526E+01
26.000000 12.000000 -2.348410E+01
26.000000 10.000000 2.493481E+01
26.000000 8.000000 8.286626E+01
26.000000 6.000000 1.298727E+02
26.000000 4.000000 1.391796E+02
26.000000 2.000000 1.028268E+02
26.000000 0.000000 4.560802E+01
26.000000 -2.000000 -7.738515E+00
26.000000 -4.000000 -4.515324E+01
26.000000 -6.000000 -6.957968E+01
26.000000 -8.000000 -9.863523E+01
26.000000 -10.000000 -1.301715E+02
26.000000 -12.000000 -1.301310E+02
26.000000 -14.000000 -9.388293E+01
26.000000 -16.000000 -4.015234E+01
26.000000 -18.000000 1.732316E+00
26.000000 -20.000000 1.874241E+01
26.000000 -22.000000 1.400096E+01
26.000000 -24.000000 -2.551174E+00
26.000000 -26.000000 -1.566902E+01
26.000000 -28.000000 -1.528614E+01
26.000000 -30.000000 -7.976644E+00
26.000000 -32.000000 2.919395E+00
26.000000 -34.000000 1.302574E+01
26.000000 -36.000000 1.744078E+01
26.000000 -38.000000 1.428013E+01
26.000000 -40.000000 5.609325E+00
28.000000 40.000000 -1.429474E+01
28.000000 38.000000 -1.318472E+01
28.000000 36.000000 -2.453538E+00
28.000000 34.000000 1.427725E+01
28.000000 32.000000 2.752825E+01
28.000000 30.000000 2.331083E+01
28.000000 28.000000 1.085535E+01
28.000000 26.000000 3.165822E-01
28.000000 24.000000 -8.629398E-01
28.000000 22.000000 9.248157E-01
28.000000 20.000000 -3.584882E+00
28.000000 18.000000 -1.974676E+01
28.000000 16.000000 -3.555207E+01
28.000000 14.000000 -4.072214E+01
28.000000 12.000000 -2.378280E+01
28.000000 10.000000 1.414430E+01
28.000000 8.000000 6.170875E+01
28.000000 6.000000 1.003299E+02
28.000000 4.000000 1.098631E+02
28.000000 2.000000 8.369682E+01
28.000000 0.000000 4.031709E+01
28.000000 -2.000000 -1.051949E+00
28.000000 -4.000000 -3.352993E+01
28.000000 -6.000000 -6.109294E+01
28.000000 -8.000000 -9.365189E+01
28.000000 -10.000000 -1.244092E+02
28.000000 -12.000000 -1.209293E+02
28.000000 -14.000000 -8.208678E+01
28.000000 -16.000000 -2.847885E+01
28.000000 -18.000000 1.275812E+01
28.000000 -20.000000 2.881133E+01
28.000000 -22.000000 2.209192E+01
28.000000 -24.000000 2.102474E+00
28.000000 -26.000000 -1.349682E+01
28.000000 -28.000000 -1.394883E+01
28.000000 -30.000000 -6.759357E+00
28.000000 -32.000000 3.594957E+00
28.000000 -34.000000 1.249764E+01
28.000000 -36.000000 1.621417E+01
28.000000 -38.000000 1.354635E+01
28.000000 -40.000000 6.093787E+00
30.000000 40.000000 -1.834287E+01
30.000000 38.000000 -1.770708E+01
30.000000 36.000000 -8.741780E+00
30.000000 34.000000 5.371296E+00
30.000000 32.000000 1.779419E+01
30.000000 30.000000 1.663908E+01
30.000000 28.000000 9.374681E+00
30.000000 26.000000 2.043125E+00
30.000000 24.000000 1.400759E+00
30.000000 22.000000 2.933579E+00
30.000000 20.000000 -6.345687E-01
30.000000 18.000000 -1.198623E+01
30.000000 16.000000 -2.262064E+01
30.000000 14.000000 -2.564876E+01
30.000000 12.000000 -1.433951E+01
30.000000 10.000000 1.074219E+01
30.000000 8.000000 4.444641E+01
30.000000 6.000000 7.392591E+01
30.000000 4.000000 8.515387E+01
30.000000 2.000000 7.090714E+01
30.000000 0.000000 4.277479E+01
30.000000 -2.000000 1.384568E+01
30.000000 -4.000000 -1.311557E+01
30.000000 -6.000000 -4.559715E+01
30.000000 -8.000000 -8.611160E+01
30.000000 -10.000000 -1.213952E+02
30.000000 -12.000000 -1.176345E+02
30.000000 -14.000000 -7.741291E+01
30.000000 -16.000000 -2.331599E+01
30.000000 -18.000000 1.790889E+01
30.000000 -20.000000 3.397249E+01
30.000000 -22.000000 2.660694E+01
30.000000 -24.000000 4.585755E+00
30.000000 -26.000000 -1.289286E+01
30.000000 -28.000000 -1.388551E+01
30.000000 -30.000000 -6.372969E+00
30.000000 -32.000000 4.060258E+00
30.000000 -34.000000 1.230127E+01
30.000000 -36.000000 1.543487E+01
30.000000 -38.000000 1.280194E+01
30.000000 -40.000000 5.854740E+00
32.000000 40.000000 -2.457768E+01
32.000000 38.000000 -2.612992E+01
32.000000 36.000000 -1.971766E+01
32.000000 34.000000 -8.196634E+00
32.000000 32.000000 4.189048E+00
32.000000 30.000000 6.375330E+00
32.000000 28.000000 4.758847E+00
32.000000 26.000000 1.496697E+00
32.000000 24.000000 3.113769E+00
32.000000 22.000000 7.636999E+00
32.000000 20.000000 7.545198E+00
32.000000 18.000000 1.655063E+00
32.000000 16.000000 -4.154864E+00
32.000000 14.000000 -6.481052E+00
32.000000 12.000000 -1.734332E+00
32.000000 10.000000 1.059430E+01
32.000000 8.000000 3.081647E+01
32.000000 6.000000 5.298737E+01
32.000000 4.000000 6.824306E+01
32.000000 2.000000 6.427707E+01
32.000000 0.000000 4.954148E+01
32.000000 -2.000000 3.162667E+01
32.000000 -4.000000 9.824224E+00
32.000000 -6.000000 -2.712275E+01
32.000000 -8.000000 -7.830566E+01
32.000000 -10.000000 -1.222500E+02
32.000000 -12.000000 -1.208780E+02
32.000000 -14.000000 -8.247551E+01
32.000000 -16.000000 -2.868102E+01
32.000000 -18.000000 1.319589E+01
32.000000 -20.000000 3.110665E+01
32.000000 -22.000000 2.553307E+01
32.000000 -24.000000 4.332479E+00
32.000000 -26.000000 -1.369133E+01
32.000000 -28.000000 -1.552935E+01
32.000000 -30.000000 -7.410064E+00
32.000000 -32.000000 4.582616E+00
32.000000 -34.000000 1.372022E+01
32.000000 -36.000000 1.561371E+01
32.000000 -38.000000 1.204053E+01
32.000000 -40.000000 5.122389E+00
34.000000 40.000000 -3.243301E+01
34.000000 38.000000 -3.648199E+01
34.000000 36.000000 -3.175697E+01
34.000000 34.000000 -2.141825E+01
34.000000 32.000000 -8.432099E+00
34.000000 30.000000 -3.915608E+00
34.000000 28.000000 -2.719817E+00
34.000000 26.000000 -3.257937E+00
34.000000 24.000000 2.512640E+00
34.000000 22.000000 1.389801E+01
34.000000 20.000000 2.102788E+01
34.000000 18.000000 2.063438E+01
34.000000 16.000000 1.637226E+01
34.000000 14.000000 1.173884E+01
34.000000 12.000000 1.008370E+01
34.000000 10.000000 1.324943E+01
34.000000 8.000000 2.426148E+01
34.000000 6.000000 4.109122E+01
34.000000 4.000000 5.816599E+01
34.000000 2.000000 5.884815E+01
34.000000 0.000000 5.202187E+01
34.000000 -2.000000 4.136436E+01
34.000000 -4.000000 2.381465E+01
34.000000 -6.000000 -1.306481E+01
34.000000 -8.000000 -7.216253E+01
34.000000 -10.000000 -1.265555E+02
34.000000 -12.000000 -1.289813E+02
34.000000 -14.000000 -9.474605E+01
34.000000 -16.000000 -4.268306E+01
34.000000 -18.000000 -9.068160E-01
34.000000 -20.000000 2.024073E+01
34.000000 -22.000000 1.893282E+01
34.000000 -24.000000 1.095806E+00
34.000000 -26.000000 -1.669258E+01
34.000000 -28.000000 -1.946867E+01
34.000000 -30.000000 -9.612388E+00
34.000000 -32.000000 5.216643E+00
34.000000 -34.000000 1.592997E+01
34.000000 -36.000000 1.697028E+01
34.000000 -38.000000 1.190464E+01
34.000000 -40.000000 4.359956E+00
36.000000 40.000000 -4.042794E+01
36.000000 38.000000 -4.682213E+01
36.000000 36.000000 -4.215238E+01
36.000000 34.000000 -3.135050E+01
36.000000 32.000000 -1.706765E+01
36.000000 30.000000 -1.172670E+01
36.000000 28.000000 -1.158093E+01
36.000000 26.000000 -1.196900E+01
36.000000 24.000000 -1.616857E+00
36.000000 22.000000 1.953608E+01
36.000000 20.000000 3.587873E+01
36.000000 18.000000 3.952337E+01
36.000000 16.000000 3.328223E+01
36.000000 14.000000 2.538757E+01
36.000000 12.000000 2.167512E+01
36.000000 10.000000 2.323965E+01
36.000000 8.000000 2.995905E+01
36.000000 6.000000 4.106212E+01
36.000000 4.000000 5.084837E+01
36.000000 2.000000 4.945358E+01
36.000000 0.000000 4.190514E+01
36.000000 -2.000000 3.231165E+01
36.000000 -4.000000 1.937137E+01
36.000000 -6.000000 -1.299127E+01
36.000000 -8.000000 -6.988624E+01
36.000000 -10.000000 -1.261808E+02
36.000000 -12.000000 -1.363570E+02
36.000000 -14.000000 -1.092303E+02
36.000000 -16.000000 -6.058764E+01
36.000000 -18.000000 -1.927903E+01
36.000000 -20.000000 4.779069E+00
36.000000 -22.000000 8.290958E+00
36.000000 -24.000000 -5.086988E+00
36.000000 -26.000000 -2.140498E+01
36.000000 -28.000000 -2.434382E+01
36.000000 -30.000000 -1.284802E+01
36.000000 -32.000000 4.647280E+00
36.000000 -34.000000 1.731991E+01
36.000000 -36.000000 1.897416E+01
36.000000 -38.000000 1.282220E+01
36.000000 -40.000000 4.074443E+00
38.000000 40.000000 -4.669881E+01
38.000000 38.000000 -5.569504E+01
38.000000 36.000000 -5.020652E+01
38.000000 34.000000 -3.811900E+01
38.000000 32.000000 -2.190948E+01
38.000000 30.000000 -1.667439E+01
38.000000 28.000000 -1.926151E+01
38.000000 26.000000 -2.135474E+01
38.000000 24.000000 -7.314867E+00
38.000000 22.000000 2.426815E+01
38.000000 20.000000 4.893148E+01
38.000000 18.000000 5.285672E+01
38.000000 16.000000 4.128606E+01
38.000000 14.000000 2.849101E+01
38.000000 12.000000 2.443342E+01
38.000000 10.000000 2.931563E+01
38.000000 8.000000 3.662790E+01
38.000000 6.000000 4.491378E+01
38.000000 4.000000 4.629179E+01
38.000000 2.000000 3.786028E+01
38.000000 0.000000 2.250167E+01
38.000000 -2.000000 8.435291E+00
38.000000 -4.000000 -2.063937E+00
38.000000 -6.000000 -2.548118E+01
38.000000 -8.000000 -6.993021E+01
38.000000 -10.000000 -1.186431E+02
38.000000 -12.000000 -1.351105E+02
38.000000 -14.000000 -1.162522E+02
38.000000 -16.000000 -7.459297E+01
38.000000 -18.000000 -3.553242E+01
38.000000 -20.000000 -1.039984E+01
38.000000 -22.000000 -3.010454E+00
38.000000 -24.000000 -1.204261E+01
38.000000 -26.000000 -2.546466E+01
38.000000 -28.000000 -2.821388E+01
38.000000 -30.000000 -1.736424E+01
38.000000 -32.000000 1.483463E+00
38.000000 -34.000000 1.688928E+01
38.000000 -36.000000 2.037642E+01
38.000000 -38.000000 1.396212E+01
38.000000 -40.000000 3.949227E+00
40.000000 40.000000 -4.996556E+01
40.000000 38.000000 -6.048364E+01
40.000000 36.000000 -5.566776E+01
40.000000 34.000000 -4.291793E+01
40.000000 32.000000 -2.525368E+01
40.000000 30.000000 -1.985144E+01
40.000000 28.000000 -2.387953E+01
40.000000 26.000000 -2.649816E+01
40.000000 24.000000 -9.948303E+00
40.000000 22.000000 2.677044E+01
40.000000 20.000000 5.470437E+01
40.000000 18.000000 5.498432E+01
40.000000 16.000000 3.505323E+01
40.000000 14.000000 1.534464E+01
40.000000 12.000000 8.753174E+00
40.000000 10.000000 1.764517E+01
40.000000 8.000000 3.154422E+01
40.000000 6.000000 4.344316E+01
40.000000 4.000000 4.316342E+01
40.000000 2.000000 2.729607E+01
40.000000 0.000000 2.847563E+00
40.000000 -2.000000 -1.720853E+01
40.000000 -4.000000 -2.740583E+01
40.000000 -6.000000 -3.816422E+01
40.000000 -8.000000 -6.624659E+01
40.000000 -10.000000 -1.050167E+02
40.000000 -12.000000 -1.222124E+02
40.000000 -14.000000 -1.100247E+02
40.000000 -16.000000 -7.734449E+01
40.000000 -18.000000 -4.497156E+01
40.000000 -20.000000 -2.173993E+01
40.000000 -22.000000 -1.204104E+01
40.000000 -24.000000 -1.687796E+01
40.000000 -26.000000 -2.736328E+01
40.000000 -28.000000 -3.086402E+01
40.000000 -30.000000 -2.172822E+01
40.000000 -32.000000 -2.535761E+00
40.000000 -34.000000 1.489288E+01
40.000000 -36.000000 2.028179E+01
40.000000 -38.000000 1.385936E+01
40.000000 -40.000000 2.439830E+00
42.000000 40.000000 -4.987010E+01
42.000000 38.000000 -6.077900E+01
42.000000 36.000000 -5.863159E+01
42.000000 34.000000 -4.646308E+01
42.000000 32.000000 -2.733680E+01
42.000000 30.000000 -2.088081E+01
42.000000 28.000000 -2.521246E+01
42.000000 26.000000 -2.662434E+01
42.000000 24.000000 -9.028285E+00
42.000000 22.000000 2.393458E+01
42.000000 20.000000 4.651337E+01
42.000000 18.000000 3.969375E+01
42.000000 16.000000 1.191979E+01
42.000000 14.000000 -1.297028E+01
42.000000 12.000000 -2.050291E+01
42.000000 10.000000 -8.857022E+00
42.000000 8.000000 1.233010E+01
42.000000 6.000000 2.990198E+01
42.000000 4.000000 3.353231E+01
42.000000 2.000000 1.669296E+01
42.000000 0.000000 -1.111997E+01
42.000000 -2.000000 -3.260721E+01
42.000000 -4.000000 -4.018071E+01
42.000000 -6.000000 -4.050835E+01
42.000000 -8.000000 -5.442260E+01
42.000000 -10.000000 -8.200532E+01
42.000000 -12.000000 -9.784114E+01
42.000000 -14.000000 -9.220395E+01
42.000000 -16.000000 -6.982509E+01
42.000000 -18.000000 -4.699307E+01
42.000000 -20.000000 -2.875883E+01
42.000000 -22.000000 -1.898475E+01
42.000000 -24.000000 -1.979990E+01
42.000000 -26.000000 -2.670135E+01
42.000000 -28.000000 -3.003675E+01
42.000000 -30.000000 -2.252378E+01
42.000000 -32.000000 -5.131295E+00
42.000000 -34.000000 1.135212E+01
42.000000 -36.000000 1.722319E+01
42.000000 -38.000000 1.089285E+01
42.000000 -40.000000 -1.598620E+00
44.000000 40.000000 -4.717312E+01
44.000000 38.000000 -5.812931E+01
44.000000 36.000000 -5.838463E+01
44.000000 34.000000 -4.774715E+01
44.000000 32.000000 -2.716856E+01
44.000000 30.000000 -1.930258E+01
44.000000 28.000000 -2.433084E+01
44.000000 26.000000 -2.604580E+01
44.000000 24.000000 -1.078034E+01
44.000000 22.000000 1.317161E+01
44.000000 20.000000 2.528181E+01
44.000000 18.000000 9.187128E+00
44.000000 16.000000 -2.353647E+01
44.000000 14.000000 -4.880951E+01
44.000000 12.000000 -5.223453E+01
44.000000 10.000000 -3.566081E+01
44.000000 8.000000 -8.140688E+00
44.000000 6.000000 1.294422E+01
44.000000 4.000000 1.879199E+01
44.000000 2.000000 2.496201E+00
44.000000 0.000000 -2.347770E+01
44.000000 -2.000000 -3.887566E+01
44.000000 -4.000000 -3.901160E+01
44.000000 -6.000000 -3.100076E+01
44.000000 -8.000000 -3.487873E+01
44.000000 -10.000000 -5.298356E+01
44.000000 -12.000000 -6.871673E+01
44.000000 -14.000000 -6.946042E+01
44.000000 -16.000000 -5.846427E+01
44.000000 -18.000000 -4.499857E+01
44.000000 -20.000000 -3.261774E+01
44.000000 -22.000000 -2.390295E+01
44.000000 -24.000000 -2.085536E+01
44.000000 -26.000000 -2.271934E+01
44.000000 -28.000000 -2.345758E+01
44.000000 -30.000000 -1.774752E+01
44.000000 -32.000000 -6.077223E+00
44.000000 -34.000000 5.620053E+00
44.000000 -36.000000 1.010729E+01
44.000000 -38.000000 4.265477E+00
44.000000 -40.000000 -8.152284E+00
46.000000 40.000000 -4.341199E+01
46.000000 38.000000 -5.321079E+01
46.000000 36.000000 -5.420693E+01
46.000000 34.000000 -4.543077E+01
46.000000 32.000000 -2.633707E+01
46.000000 30.000000 -1.807095E+01
46.000000 28.000000 -2.171803E+01
46.000000 26.000000 -2.502015E+01
46.000000 24.000000 -1.652126E+01
46.000000 22.000000 -4.485072E+00
46.000000 20.000000 -4.789123E+00
46.000000 18.000000 -2.810894E+01
46.000000 16.000000 -6.046621E+01
46.000000 14.000000 -8.073480E+01
46.000000 12.000000 -7.553249E+01
46.000000 10.000000 -5.063716E+01
46.000000 8.000000 -1.781113E+01
46.000000 6.000000 3.760183E+00
46.000000 4.000000 6.704262E+00
46.000000 2.000000 -1.108404E+01
46.000000 0.000000 -3.247777E+01
46.000000 -2.000000 -3.823056E+01
46.000000 -4.000000 -2.937993E+01
46.000000 -6.000000 -1.464322E+01
46.000000 -8.000000 -1.339956E+01
46.000000 -10.000000 -2.795434E+01
46.000000 -12.000000 -4.630537E+01
46.000000 -14.000000 -5.177801E+01
46.000000 -16.000000 -4.982308E+01
46.000000 -18.000000 -4.395475E+01
46.000000 -20.000000 -3.601446E+01
46.000000 -22.000000 -2.756703E+01
46.000000 -24.000000 -2.052501E+01
46.000000 -26.000000 -1.692558E+01
46.000000 -28.000000 -1.456795E+01
46.000000 -30.000000 -1.053170E+01
46.000000 -32.000000 -6.127293E+00
46.000000 -34.000000 -1.390697E+00
46.000000 -36.000000 9.496593E-01
46.000000 -38.000000 -4.501148E+00
46.000000 -40.000000 -1.671752E+01
48.000000 40.000000 -3.945712E+01
48.000000 38.000000 -4.790984E+01
48.000000 36.000000 -4.881841E+01
48.000000 34.000000 -4.172714E+01
48.000000 32.000000 -2.573391E+01
48.000000 30.000000 -1.779036E+01
48.000000 28.000000 -1.891736E+01
48.000000 26.000000 -2.353233E+01
48.000000 24.000000 -2.240699E+01
48.000000 22.000000 -2.039457E+01
48.000000 20.000000 -3.032555E+01
48.000000 18.000000 -5.698007E+01
48.000000 16.000000 -8.582977E+01
48.000000 14.000000 -1.000889E+02
48.000000 12.000000 -8.545583E+01
48.000000 10.000000 -5.221128E+01
48.000000 8.000000 -1.731597E+01
48.000000 6.000000 2.292513E+00
48.000000 4.000000 2.404697E+00
48.000000 2.000000 -1.307621E+01
48.000000 0.000000 -2.815289E+01
48.000000 -2.000000 -2.838928E+01
48.000000 -4.000000 -1.564179E+01
48.000000 -6.000000 -3.954601E-01
48.000000 -8.000000 -1.058696E+00
48.000000 -10.000000 -1.677668E+01
48.000000 -12.000000 -3.754911E+01
48.000000 -14.000000 -4.628435E+01
48.000000 -16.000000 -4.866276E+01
48.000000 -18.000000 -4.661278E+01
48.000000 -20.000000 -4.072763E+01
48.000000 -22.000000 -3.210680E+01
48.000000 -24.000000 -2.217690E+01
48.000000 -26.000000 -1.447338E+01
48.000000 -28.000000 -9.353421E+00
48.000000 -30.000000 -5.573828E+00
48.000000 -32.000000 -5.687476E+00
48.000000 -34.000000 -6.923023E+00
48.000000 -36.000000 -8.095667E+00
48.000000 -38.000000 -1.416199E+01
48.000000 -40.000000 -2.586225E+01
50.000000 40.000000 -3.566110E+01
50.000000 38.000000 -4.392446E+01
50.000000 36.000000 -4.529863E+01
50.000000 34.000000 -3.971977E+01
50.000000 32.000000 -2.586618E+01
50.000000 30.000000 -1.795265E+01
50.000000 28.000000 -1.765849E+01
50.000000 26.000000 -2.258945E+01
50.000000 24.000000 -2.428482E+01
50.000000 22.000000 -2.536974E+01
50.000000 20.000000 -3.753378E+01
50.000000 18.000000 -6.293610E+01
50.000000 16.000000 -8.745330E+01
50.000000 14.000000 -9.661460E+01
50.000000 12.000000 -7.570085E+01
50.000000 10.000000 -3.874480E+01
50.000000 8.000000 -6.550965E+00
50.000000 6.000000 8.195766E+00
50.000000 4.000000 4.085369E+00
50.000000 2.000000 -9.712329E+00
50.000000 0.000000 -2.003098E+01
50.000000 -2.000000 -1.837516E+01
50.000000 -4.000000 -6.768270E+00
50.000000 -6.000000 3.477061E+00
50.000000 -8.000000 -2.626533E+00
50.000000 -10.000000 -2.239760E+01
50.000000 -12.000000 -4.427318E+01
50.000000 -14.000000 -5.242408E+01
50.000000 -16.000000 -5.289884E+01
50.000000 -18.000000 -5.003566E+01
50.000000 -20.000000 -4.420774E+01
50.000000 -22.000000 -3.657612E+01
50.000000 -24.000000 -2.735599E+01
50.000000 -26.000000 -1.905917E+01
50.000000 -28.000000 -1.150560E+01
50.000000 -30.000000 -5.475630E+00
50.000000 -32.000000 -5.615782E+00
50.000000 -34.000000 -9.972506E+00
50.000000 -36.000000 -1.636492E+01
50.000000 -38.000000 -2.383072E+01
50.000000 -40.000000 -3.376547E+01
52.000000 40.000000 -3.268533E+01
52.000000 38.000000 -4.123706E+01
52.000000 36.000000 -4.376169E+01
52.000000 34.000000 -3.994358E+01
52.000000 32.000000 -2.790902E+01
52.000000 30.000000 -2.005211E+01
52.000000 28.000000 -1.820614E+01
52.000000 26.000000 -2.065698E+01
52.000000 24.000000 -1.904719E+01
52.000000 22.000000 -1.564940E+01
52.000000 20.000000 -2.225485E+01
52.000000 18.000000 -4.200496E+01
52.000000 16.000000 -6.227308E+01
52.000000 14.000000 -6.777736E+01
52.000000 12.000000 -4.724640E+01
52.000000 10.000000 -1.403405E+01
52.000000 8.000000 1.091717E+01
52.000000 6.000000 1.783600E+01
52.000000 4.000000 6.245321E+00
52.000000 2.000000 -9.636683E+00
52.000000 0.000000 -1.858004E+01
52.000000 -2.000000 -1.620610E+01
52.000000 -4.000000 -6.670286E+00
52.000000 -6.000000 -1.269048E+00
52.000000 -8.000000 -1.232022E+01
52.000000 -10.000000 -3.798608E+01
52.000000 -12.000000 -6.055626E+01
52.000000 -14.000000 -6.388183E+01
52.000000 -16.000000 -5.764628E+01
52.000000 -18.000000 -5.108809E+01
52.000000 -20.000000 -4.467591E+01
52.000000 -22.000000 -3.997646E+01
52.000000 -24.000000 -3.496956E+01
52.000000 -26.000000 -2.922482E+01
52.000000 -28.000000 -1.978431E+01
52.000000 -30.000000 -9.684240E+00
52.000000 -32.000000 -7.289351E+00
52.000000 -34.000000 -1.304338E+01
52.000000 -36.000000 -2.349462E+01
52.000000 -38.000000 -3.220614E+01
52.000000 -40.000000 -4.031371E+01
54.000000 40.000000 -3.083983E+01
54.000000 38.000000 -3.952876E+01
54.000000 36.000000 -4.330910E+01
54.000000 34.000000 -4.160749E+01
54.000000 32.000000 -3.119519E+01
54.000000 30.000000 -2.288620E+01
54.000000 28.000000 -1.888219E+01
54.000000 26.000000 -1.680193E+01
54.000000 24.000000 -7.504304E+00
54.000000 22.000000 5.069067E+00
54.000000 20.000000 7.752476E+00
54.000000 18.000000 -5.247139E+00
54.000000 16.000000 -2.383294E+01
54.000000 14.000000 -2.952415E+01
54.000000 12.000000 -1.343489E+01
54.000000 10.000000 1.361697E+01
54.000000 8.000000 2.948955E+01
54.000000 6.000000 2.767955E+01
54.000000 4.000000 8.606377E+00
54.000000 2.000000 -1.117854E+01
54.000000 0.000000 -2.174550E+01
54.000000 -2.000000 -1.939293E+01
54.000000 -4.000000 -9.924074E+00
54.000000 -6.000000 -6.224389E+00
54.000000 -8.000000 -2.171595E+01
54.000000 -10.000000 -5.210215E+01
54.000000 -12.000000 -7.467185E+01
54.000000 -14.000000 -7.461260E+01
54.000000 -16.000000 -6.092834E+01
54.000000 -18.000000 -4.917009E+01
54.000000 -20.000000 -4.289051E+01
54.000000 -22.000000 -4.217934E+01
54.000000 -24.000000 -4.267014E+01
54.000000 -26.000000 -4.037979E+01
54.000000 -28.000000 -3.034071E+01
54.000000 -30.000000 -1.761351E+01
54.000000 -32.000000 -1.249618E+01
54.000000 -34.000000 -1.797137E+01
54.000000 -36.000000 -2.979503E+01
54.000000 -38.000000 -3.889993E+01
54.000000 -40.000000 -4.585885E+01
56.000000 40.000000 -3.034161E+01
56.000000 38.000000 -3.893981E+01
56.000000 36.000000 -4.280133E+01
56.000000 34.000000 -4.270800E+01
56.000000 32.000000 -3.353790E+01
56.000000 30.000000 -2.404571E+01
56.000000 28.000000 -1.814593E+01
56.000000 26.000000 -1.244309E+01
56.000000 24.000000 5.649712E+00
56.000000 22.000000 2.922761E+01
56.000000 20.000000 4.126776E+01
56.000000 18.000000 3.150491E+01
56.000000 16.000000 1.017851E+01
56.000000 14.000000 -5.552483E-02
56.000000 12.000000 1.130116E+01
56.000000 10.000000 3.530519E+01
56.000000 8.000000 4.731951E+01
56.000000 6.000000 4.126919E+01
56.000000 4.000000 1.654110E+01
56.000000 2.000000 -8.969573E+00
56.000000 0.000000 -2.312413E+01
56.000000 -2.000000 -2.088840E+01
56.000000 -4.000000 -1.014598E+01
56.000000 -6.000000 -6.698823E+00
56.000000 -8.000000 -2.597281E+01
56.000000 -10.000000 -6.108848E+01
56.000000 -12.000000 -8.420818E+01
56.000000 -14.000000 -8.150823E+01
56.000000 -16.000000 -6.129957E+01
56.000000 -18.000000 -4.435793E+01
56.000000 -20.000000 -3.875280E+01
56.000000 -22.000000 -4.211169E+01
56.000000 -24.000000 -4.812531E+01
56.000000 -26.000000 -4.818052E+01
56.000000 -28.000000 -3.979160E+01
56.000000 -30.000000 -2.767332E+01
56.000000 -32.000000 -2.092142E+01
56.000000 -34.000000 -2.353878E+01
56.000000 -36.000000 -3.362616E+01
56.000000 -38.000000 -4.112721E+01
56.000000 -40.000000 -4.801665E+01
58.000000 40.000000 -3.017249E+01
58.000000 38.000000 -3.791394E+01
58.000000 36.000000 -4.200054E+01
58.000000 34.000000 -4.230009E+01
58.000000 32.000000 -3.383818E+01
58.000000 30.000000 -2.422353E+01
58.000000 28.000000 -1.648967E+01
58.000000 26.000000 -6.047356E+00
58.000000 24.000000 1.622516E+01
58.000000 22.000000 4.221080E+01
58.000000 20.000000 5.770374E+01
58.000000 18.000000 4.955901E+01
58.000000 16.000000 2.867966E+01
58.000000 14.000000 1.660202E+01
58.000000 12.000000 2.370115E+01
58.000000 10.000000 4.458848E+01
58.000000 8.000000 5.562183E+01
58.000000 6.000000 5.076758E+01
58.000000 4.000000 2.620141E+01
58.000000 2.000000 -1.329756E+00
58.000000 0.000000 -1.781387E+01
58.000000 -2.000000 -1.744536E+01
58.000000 -4.000000 -8.757820E+00
58.000000 -6.000000 -6.933783E+00
58.000000 -8.000000 -2.679467E+01
58.000000 -10.000000 -6.265287E+01
58.000000 -12.000000 -8.467391E+01
58.000000 -14.000000 -8.055464E+01
58.000000 -16.000000 -5.878337E+01
58.000000 -18.000000 -4.115720E+01
58.000000 -20.000000 -3.627645E+01
58.000000 -22.000000 -4.083261E+01
58.000000 -24.000000 -4.760077E+01
58.000000 -26.000000 -5.144663E+01
58.000000 -28.000000 -4.571498E+01
58.000000 -30.000000 -3.429902E+01
58.000000 -32.000000 -2.629757E+01
58.000000 -34.000000 -2.784755E+01
58.000000 -36.000000 -3.587484E+01
58.000000 -38.000000 -4.256629E+01
58.000000 -40.000000 -4.906495E+01
60.000000 40.000000 -3.036445E+01
60.000000 38.000000 -3.650535E+01
60.000000 36.000000 -4.013031E+01
60.000000 34.000000 -4.027215E+01
60.000000 32.000000 -3.302175E+01
60.000000 30.000000 -2.420617E+01
60.000000 28.000000 -1.384096E+01
60.000000 26.000000 -1.752365E+00
60.000000 24.000000 2.171769E+01
60.000000 22.000000 4.734362E+01
60.000000 20.000000 6.299669E+01
60.000000 18.000000 5.658835E+01
60.000000 16.000000 3.814737E+01
60.000000 14.000000 2.709445E+01
60.000000 12.000000 3.166152E+01
60.000000 10.000000 4.856689E+01
