-12.000000 -36.000000 2.527789E+01
-12.000000 -38.000000 1.681483E+01
-12.000000 -40.000000 5.589465E+00
-10.000000 40.000000 -2.490196E-01
-10.000000 38.000000 -7.521374E+00
-10.000000 36.000000 -6.762695E+00
-10.000000 34.000000 -2.919861E+00
-10.000000 32.000000 -2.671490E+00
-10.000000 30.000000 -1.492050E+01
-10.000000 28.000000 -2.991437E+01
-10.000000 26.000000 -3.785324E+01
-10.000000 24.000000 -3.590899E+01
-10.000000 22.000000 -2.694174E+01
-10.000000 20.000000 -1.658923E+01
-10.000000 18.000000 -1.239325E+01
-10.000000 16.000000 -2.615726E+01
-10.000000 14.000000 -6.363923E+01
-10.000000 12.000000 -1.120950E+02
-10.000000 10.000000 -1.446908E+02
-10.000000 8.000000 -1.323911E+02
-10.000000 6.000000 -9.070836E+01
-10.000000 4.000000 -3.717524E+01
-10.000000 2.000000 -1.900568E+00
-10.000000 0.000000 1.042105E+01
-10.000000 -2.000000 4.585123E+00
-10.000000 -4.000000 -6.360991E+00
-10.000000 -6.000000 -1.365989E+01
-10.000000 -8.000000 -1.190292E+01
-10.000000 -10.000000 -6.268714E+00
-10.000000 -12.000000 -2.184401E-01
-10.000000 -14.000000 2.504880E+00
-10.000000 -16.000000 1.007875E+01
-10.000000 -18.000000 2.447834E+01
-10.000000 -20.000000 3.946211E+01
-10.000000 -22.000000 4.331774E+01
-10.000000 -24.000000 4.013900E+01
-10.000000 -26.000000 3.872254E+01
-10.000000 -28.000000 4.200977E+01
-10.000000 -30.000000 4.318608E+01
-10.000000 -32.000000 4.200445E+01
-10.000000 -34.000000 3.846197E+01
-10.000000 -36.000000 2.967493E+01
-10.000000 -38.000000 1.990166E+01
-10.000000 -40.000000 7.386460E+00
-8.000000 40.000000 4.562263E-01
-8.000000 38.000000 -4.870773E+00
-8.000000 36.000000 1.033661E+00
-8.000000 34.000000 1.266624E+01
-8.000000 32.000000 1.535191E+01
-8.000000 30.000000 3.200340E-01
-8.000000 28.000000 -2.070256E+01
-8.000000 26.000000 -3.387048E+01
-8.000000 24.000000 -3.317745E+01
-8.000000 22.000000 -2.327969E+01
-8.000000 20.000000 -1.477494E+01
-8.000000 18.000000 -1.382912E+01
-8.000000 16.000000 -2.668455E+01
-8.000000 14.000000 -6.073945E+01
-8.000000 12.000000 -1.055067E+02
-8.000000 10.000000 -1.342054E+02
-8.000000 8.000000 -1.221352E+02
-8.000000 6.000000 -8.579892E+01
-8.000000 4.000000 -3.923912E+01
-8.000000 2.000000 -6.531570E+00
-8.000000 0.000000 7.748817E+00
-8.000000 -2.000000 6.326794E+00
-8.000000 -4.000000 -3.700256E-03
-8.000000 -6.000000 -5.332636E+00
-8.000000 -8.000000 -5.258430E+00
-8.000000 -10.000000 -2.282134E+00
-8.000000 -12.000000 -6.728840E-01
-8.000000 -14.000000 -1.598269E+00
-8.000000 -16.000000 4.368463E+00
-8.000000 -18.000000 1.971736E+01
-8.000000 -20.000000 3.349280E+01
-8.000000 -22.000000 3.502347E+01
-8.000000 -24.000000 3.011450E+01
-8.000000 -26.000000 3.005976E+01
-8.000000 -28.000000 3.712714E+01
-8.000000 -30.000000 4.189376E+01
-8.000000 -32.000000 4.286394E+01
-8.000000 -34.000000 4.132848E+01
-8.000000 -36.000000 3.348464E+01
-8.000000 -38.000000 2.349245E+01
-8.000000 -40.000000 1.058031E+01
-6.000000 40.000000 -1.711903E+00
-6.000000 38.000000 -4.293262E+00
-6.000000 36.000000 6.976440E+00
-6.000000 34.000000 2.452326E+01
-6.000000 32.000000 2.900880E+01
-6.000000 30.000000 1.133780E+01
-6.000000 28.000000 -1.532832E+01
-6.000000 26.000000 -3.286697E+01
-6.000000 24.000000 -3.432293E+01
-6.000000 22.000000 -2.679237E+01
-6.000000 20.000000 -2.083794E+01
-6.000000 18.000000 -2.193488E+01
-6.000000 16.000000 -3.289196E+01
-6.000000 14.000000 -6.183186E+01
-6.000000 12.000000 -9.677584E+01
-6.000000 10.000000 -1.132102E+02
-6.000000 8.000000 -9.570094E+01
-6.000000 6.000000 -6.254623E+01
-6.000000 4.000000 -2.679077E+01
-6.000000 2.000000 -4.894457E+00
-6.000000 0.000000 7.185394E+00
-6.000000 -2.000000 9.267374E+00
-6.000000 -4.000000 6.812937E+00
-6.000000 -6.000000 4.523357E+00
-6.000000 -8.000000 4.992783E+00
-6.000000 -10.000000 8.607343E+00
-6.000000 -12.000000 8.405390E+00
-6.000000 -14.000000 6.341851E+00
-6.000000 -16.000000 1.028413E+01
-6.000000 -18.000000 2.209986E+01
-6.000000 -20.000000 2.896716E+01
-6.000000 -22.000000 2.396384E+01
-6.000000 -24.000000 1.477258E+01
-6.000000 -26.000000 1.582208E+01
-6.000000 -28.000000 2.828551E+01
-6.000000 -30.000000 3.637167E+01
-6.000000 -32.000000 4.010219E+01
-6.000000 -34.000000 4.177529E+01
-6.000000 -36.000000 3.722409E+01
-6.000000 -38.000000 2.749874E+01
-6.000000 -40.000000 1.317085E+01
-4.000000 40.000000 -4.126015E+00
-4.000000 38.000000 -5.348503E+00
-4.000000 36.000000 8.610325E+00
-4.000000 34.000000 2.711279E+01
-4.000000 32.000000 3.124714E+01
-4.000000 30.000000 1.147644E+01
-4.000000 28.000000 -1.935891E+01
-4.000000 26.000000 -4.041089E+01
-4.000000 24.000000 -4.442591E+01
-4.000000 22.000000 -3.864748E+01
-4.000000 20.000000 -3.344529E+01
-4.000000 18.000000 -3.318644E+01
-4.000000 16.000000 -4.042820E+01
-4.000000 14.000000 -5.970974E+01
-4.000000 12.000000 -7.873999E+01
-4.000000 10.000000 -7.878622E+01
-4.000000 8.000000 -5.449555E+01
-4.000000 6.000000 -2.421141E+01
-4.000000 4.000000 -2.427818E+00
-4.000000 2.000000 4.641520E+00
-4.000000 0.000000 7.637775E+00
-4.000000 -2.000000 8.417131E+00
-4.000000 -4.000000 8.357822E+00
-4.000000 -6.000000 9.775095E+00
-4.000000 -8.000000 1.278174E+01
-4.000000 -10.000000 1.788352E+01
-4.000000 -12.000000 1.925699E+01
-4.000000 -14.000000 1.908367E+01
-4.000000 -16.000000 2.345914E+01
-4.000000 -18.000000 3.029912E+01
-4.000000 -20.000000 2.973396E+01
-4.000000 -22.000000 1.891780E+01
-4.000000 -24.000000 4.036846E+00
-4.000000 -26.000000 4.435515E+00
-4.000000 -28.000000 2.024544E+01
-4.000000 -30.000000 3.001540E+01
-4.000000 -32.000000 3.721662E+01
-4.000000 -34.000000 4.219602E+01
-4.000000 -36.000000 4.082689E+01
-4.000000 -38.000000 3.015845E+01
-4.000000 -40.000000 1.244658E+01
-2.000000 40.000000 -4.721451E+00
-2.000000 38.000000 -9.218273E+00
-2.000000 36.000000 1.685848E+00
-2.000000 34.000000 1.762352E+01
-2.000000 32.000000 2.092140E+01
-2.000000 30.000000 3.615379E-01
-2.000000 28.000000 -3.229050E+01
-2.000000 26.000000 -5.549677E+01
-2.000000 24.000000 -6.154316E+01
-2.000000 22.000000 -5.447548E+01
-2.000000 20.000000 -4.618220E+01
-2.000000 18.000000 -3.982094E+01
-2.000000 16.000000 -3.960692E+01
-2.000000 14.000000 -4.767610E+01
-2.000000 12.000000 -5.383497E+01
-2.000000 10.000000 -4.225229E+01
-2.000000 8.000000 -1.536284E+01
-2.000000 6.000000 1.036499E+01
-2.000000 4.000000 1.925781E+01
-2.000000 2.000000 1.425086E+01
-2.000000 0.000000 7.523577E+00
-2.000000 -2.000000 5.035503E+00
-2.000000 -4.000000 6.000065E+00
-2.000000 -6.000000 1.045108E+01
-2.000000 -8.000000 1.703660E+01
-2.000000 -10.000000 2.323343E+01
-2.000000 -12.000000 2.678090E+01
-2.000000 -14.000000 2.945619E+01
-2.000000 -16.000000 3.494602E+01
-2.000000 -18.000000 3.794486E+01
-2.000000 -20.000000 3.503856E+01
-2.000000 -22.000000 2.447752E+01
-2.000000 -24.000000 7.945008E+00
-2.000000 -26.000000 4.778018E+00
-2.000000 -28.000000 1.540001E+01
-2.000000 -30.000000 2.466704E+01
-2.000000 -32.000000 3.626667E+01
-2.000000 -34.000000 4.464940E+01
-2.000000 -36.000000 4.284261E+01
-2.000000 -38.000000 2.925902E+01
-2.000000 -40.000000 7.403860E+00
0.000000 40.000000 -3.348011E+00
0.000000 38.000000 -1.482975E+01
0.000000 36.000000 -1.108881E+01
0.000000 34.000000 -6.984520E-01
0.000000 32.000000 6.200333E-01
0.000000 30.000000 -1.926392E+01
0.000000 28.000000 -5.071992E+01
0.000000 26.000000 -7.335677E+01
0.000000 24.000000 -8.040091E+01
0.000000 22.000000 -7.051731E+01
0.000000 20.000000 -5.604530E+01
0.000000 18.000000 -3.937164E+01
0.000000 16.000000 -2.825452E+01
0.000000 14.000000 -2.709810E+01
0.000000 12.000000 -2.875080E+01
0.000000 10.000000 -1.611672E+01
0.000000 8.000000 5.355200E+00
0.000000 6.000000 2.395638E+01
0.000000 4.000000 2.512349E+01
0.000000 2.000000 1.588793E+01
0.000000 0.000000 5.909273E+00
0.000000 -2.000000 1.176832E+00
0.000000 -4.000000 1.971066E+00
0.000000 -6.000000 7.745754E+00
0.000000 -8.000000 1.722027E+01
0.000000 -10.000000 2.528840E+01
0.000000 -12.000000 3.034432E+01
0.000000 -14.000000 3.521304E+01
0.000000 -16.000000 4.108646E+01
0.000000 -18.000000 4.294486E+01
0.000000 -20.000000 4.183911E+01
0.000000 -22.000000 3.620808E+01
0.000000 -24.000000 2.396031E+01
0.000000 -26.000000 1.646147E+01
0.000000 -28.000000 1.772139E+01
0.000000 -30.000000 2.471903E+01
0.000000 -32.000000 3.877605E+01
0.000000 -34.000000 4.777344E+01
0.000000 -36.000000 4.160229E+01
0.000000 -38.000000 2.324424E+01
0.000000 -40.000000 -2.741279E+00
2.000000 40.000000 -1.495457E+00
2.000000 38.000000 -1.990906E+01
2.000000 36.000000 -2.398180E+01
2.000000 34.000000 -2.125981E+01
2.000000 32.000000 -2.325568E+01
2.000000 30.000000 -4.139744E+01
2.000000 28.000000 -6.794075E+01
2.000000 26.000000 -8.716642E+01
2.000000 24.000000 -9.493873E+01
2.000000 22.000000 -8.326828E+01
2.000000 20.000000 -6.417089E+01
2.000000 18.000000 -3.687749E+01
2.000000 16.000000 -1.366482E+01
2.000000 14.000000 -7.817844E+00
2.000000 12.000000 -1.500741E+01
2.000000 10.000000 -1.164744E+01
2.000000 8.000000 -1.400127E+00
2.000000 6.000000 9.992374E+00
2.000000 4.000000 1.335600E+01
2.000000 2.000000 1.219803E+01
2.000000 0.000000 8.150595E+00
2.000000 -2.000000 3.500643E+00
2.000000 -4.000000 1.477987E+00
2.000000 -6.000000 4.949317E+00
2.000000 -8.000000 1.494698E+01
2.000000 -10.000000 2.459863E+01
2.000000 -12.000000 3.057420E+01
2.000000 -14.000000 3.605924E+01
2.000000 -16.000000 4.107250E+01
2.000000 -18.000000 4.296250E+01
2.000000 -20.000000 4.416017E+01
2.000000 -22.000000 4.329116E+01
2.000000 -24.000000 3.798880E+01
2.000000 -26.000000 3.162139E+01
2.000000 -28.000000 2.965621E+01
2.000000 -30.000000 3.452837E+01
2.000000 -32.000000 4.520625E+01
2.000000 -34.000000 4.963482E+01
2.000000 -36.000000 3.643240E+01
2.000000 -38.000000 1.175253E+01
2.000000 -40.000000 -1.798241E+01
4.000000 40.000000 -1.462360E+00
4.000000 38.000000 -2.320560E+01
4.000000 36.000000 -3.295236E+01
4.000000 34.000000 -3.723119E+01
4.000000 32.000000 -4.099985E+01
4.000000 30.000000 -5.599183E+01
4.000000 28.000000 -7.617886E+01
4.000000 26.000000 -9.124554E+01
4.000000 24.000000 -9.941826E+01
4.000000 22.000000 -8.868791E+01
4.000000 20.000000 -7.020012E+01
4.000000 18.000000 -3.707381E+01
4.000000 16.000000 -6.863754E+00
4.000000 14.000000 -2.528162E+00
4.000000 12.000000 -2.151078E+01
4.000000 10.000000 -3.362477E+01
4.000000 8.000000 -3.741666E+01
4.000000 6.000000 -3.155868E+01
4.000000 4.000000 -1.619069E+01
4.000000 2.000000 4.337499E+00
4.000000 0.000000 1.774175E+01
4.000000 -2.000000 1.744933E+01
4.000000 -4.000000 1.084452E+01
4.000000 -6.000000 8.649061E+00
4.000000 -8.000000 1.549773E+01
4.000000 -10.000000 2.433347E+01
4.000000 -12.000000 2.971528E+01
4.000000 -14.000000 3.408178E+01
4.000000 -16.000000 3.680201E+01
4.000000 -18.000000 3.756804E+01
4.000000 -20.000000 3.977420E+01
4.000000 -22.000000 4.133060E+01
4.000000 -24.000000 4.297410E+01
4.000000 -26.000000 4.329788E+01
4.000000 -28.000000 4.400823E+01
4.000000 -30.000000 4.647783E+01
4.000000 -32.000000 5.015705E+01
4.000000 -34.000000 4.789844E+01
4.000000 -36.000000 2.755668E+01
4.000000 -38.000000 -2.991645E+00
4.000000 -40.000000 -3.575480E+01
6.000000 40.000000 -2.931879E+00
6.000000 38.000000 -2.490850E+01
6.000000 36.000000 -3.734327E+01
6.000000 34.000000 -4.576534E+01
6.000000 32.000000 -4.807104E+01
6.000000 30.000000 -5.783888E+01
6.000000 28.000000 -7.233027E+01
6.000000 26.000000 -8.368829E+01
6.000000 24.000000 -8.923923E+01
6.000000 22.000000 -8.031102E+01
6.000000 20.000000 -6.720286E+01
6.000000 18.000000 -4.337214E+01
6.000000 16.000000 -2.263463E+01
6.000000 14.000000 -2.405776E+01
6.000000 12.000000 -4.751767E+01
6.000000 10.000000 -7.249207E+01
6.000000 8.000000 -8.819475E+01
6.000000 6.000000 -8.626443E+01
6.000000 4.000000 -5.585849E+01
6.000000 2.000000 -9.310280E+00
6.000000 0.000000 2.792142E+01
6.000000 -2.000000 3.924806E+01
6.000000 -4.000000 3.176909E+01
6.000000 -6.000000 2.168539E+01
6.000000 -8.000000 2.047669E+01
6.000000 -10.000000 2.487597E+01
6.000000 -12.000000 2.840616E+01
6.000000 -14.000000 3.199640E+01
6.000000 -16.000000 3.330359E+01
6.000000 -18.000000 3.232800E+01
6.000000 -20.000000 3.375724E+01
6.000000 -22.000000 3.585256E+01
6.000000 -24.000000 4.128881E+01
6.000000 -26.000000 4.761049E+01
6.000000 -28.000000 5.106910E+01
6.000000 -30.000000 5.093130E+01
6.000000 -32.000000 4.753430E+01
6.000000 -34.000000 3.929479E+01
6.000000 -36.000000 1.394587E+01
6.000000 -38.000000 -1.931422E+01
6.000000 -40.000000 -5.278320E+01
8.000000 40.000000 -3.636736E+00
8.000000 38.000000 -2.633200E+01
8.000000 36.000000 -3.983878E+01
8.000000 34.000000 -4.857386E+01
8.000000 32.000000 -4.628945E+01
8.000000 30.000000 -4.939255E+01
8.000000 28.000000 -5.907166E+01
8.000000 26.000000 -6.648774E+01
8.000000 24.000000 -6.501469E+01
8.000000 22.000000 -5.782149E+01
8.000000 20.000000 -5.524275E+01
8.000000 18.000000 -5.197590E+01
8.000000 16.000000 -4.839359E+01
8.000000 14.000000 -5.832612E+01
8.000000 12.000000 -8.281686E+01
8.000000 10.000000 -1.153925E+02
8.000000 8.000000 -1.391421E+02
8.000000 6.000000 -1.402803E+02
8.000000 4.000000 -9.574112E+01
8.000000 2.000000 -2.458837E+01
8.000000 0.000000 3.750836E+01
8.000000 -2.000000 6.471389E+01
8.000000 -4.000000 5.957146E+01
8.000000 -6.000000 3.911613E+01
8.000000 -8.000000 2.372870E+01
8.000000 -10.000000 1.914034E+01
8.000000 -12.000000 2.270779E+01
8.000000 -14.000000 3.015107E+01
8.000000 -16.000000 3.526508E+01
8.000000 -18.000000 3.540539E+01
8.000000 -20.000000 3.371399E+01
8.000000 -22.000000 3.240489E+01
8.000000 -24.000000 3.499290E+01
8.000000 -26.000000 4.218373E+01
8.000000 -28.000000 4.731124E+01
8.000000 -30.000000 4.554421E+01
8.000000 -32.000000 3.577399E+01
8.000000 -34.000000 2.221463E+01
8.000000 -36.000000 -5.501272E+00
8.000000 -38.000000 -3.617276E+01
8.000000 -40.000000 -6.615821E+01
10.000000 40.000000 -2.718317E+00
10.000000 38.000000 -2.683491E+01
10.000000 36.000000 -4.160319E+01
10.000000 34.000000 -4.868625E+01
10.000000 32.000000 -4.092021E+01
10.000000 30.000000 -3.747272E+01
10.000000 28.000000 -4.146260E+01
10.000000 26.000000 -4.308021E+01
10.000000 24.000000 -3.319552E+01
10.000000 22.000000 -2.823786E+01
10.000000 20.000000 -3.641123E+01
10.000000 18.000000 -5.110457E+01
10.000000 16.000000 -6.206453E+01
10.000000 14.000000 -8.219645E+01
10.000000 12.000000 -1.110787E+02
10.000000 10.000000 -1.490828E+02
10.000000 8.000000 -1.774693E+02
10.000000 6.000000 -1.812298E+02
10.000000 4.000000 -1.270312E+02
10.000000 2.000000 -3.630151E+01
10.000000 0.000000 4.652026E+01
10.000000 -2.000000 8.913755E+01
10.000000 -4.000000 8.804767E+01
10.000000 -6.000000 5.418763E+01
10.000000 -8.000000 1.886585E+01
10.000000 -10.000000 1.697911E+00
10.000000 -12.000000 1.054756E+01
10.000000 -14.000000 3.088856E+01
10.000000 -16.000000 4.923943E+01
10.000000 -18.000000 5.548735E+01
10.000000 -20.000000 4.716892E+01
10.000000 -22.000000 3.255960E+01
10.000000 -24.000000 2.345187E+01
10.000000 -26.000000 2.563509E+01
10.000000 -28.000000 3.077453E+01
10.000000 -30.000000 2.779816E+01
10.000000 -32.000000 1.475115E+01
10.000000 -34.000000 -1.559677E-01
10.000000 -36.000000 -2.587137E+01
10.000000 -38.000000 -4.976770E+01
10.000000 -40.000000 -7.321998E+01
12.000000 40.000000 -2.356625E-01
12.000000 38.000000 -2.518829E+01
12.000000 36.000000 -4.278875E+01
12.000000 34.000000 -4.878475E+01
12.000000 32.000000 -3.694587E+01
12.000000 30.000000 -2.799771E+01
12.000000 28.000000 -2.438174E+01
12.000000 26.000000 -1.946441E+01
12.000000 24.000000 -5.450418E+00
12.000000 22.000000 -3.849759E+00
12.000000 20.000000 -1.586473E+01
12.000000 18.000000 -3.520482E+01
12.000000 16.000000 -5.256819E+01
12.000000 14.000000 -7.850296E+01
12.000000 12.000000 -1.121424E+02
12.000000 10.000000 -1.547473E+02
12.000000 8.000000 -1.885058E+02
12.000000 6.000000 -1.990151E+02
12.000000 4.000000 -1.480769E+02
12.000000 2.000000 -5.124860E+01
12.000000 0.000000 4.485782E+01
12.000000 -2.000000 1.026194E+02
12.000000 -4.000000 1.084516E+02
12.000000 -6.000000 6.231368E+01
12.000000 -8.000000 6.176397E+00
12.000000 -10.000000 -2.593819E+01
12.000000 -12.000000 -5.210754E+00
12.000000 -14.000000 3.976696E+01
12.000000 -16.000000 8.291615E+01
12.000000 -18.000000 9.760200E+01
12.000000 -20.000000 7.567094E+01
12.000000 -22.000000 3.825373E+01
12.000000 -24.000000 1.024780E+01
12.000000 -26.000000 1.398201E+00
12.000000 -28.000000 2.193510E+00
12.000000 -30.000000 -1.832878E+00
12.000000 -32.000000 -1.134332E+01
12.000000 -34.000000 -2.084400E+01
12.000000 -36.000000 -3.991904E+01
12.000000 -38.000000 -5.639453E+01
12.000000 -40.000000 -7.357760E+01
14.000000 40.000000 3.295093E+00
14.000000 38.000000 -2.206505E+01
14.000000 36.000000 -4.257991E+01
14.000000 34.000000 -4.904453E+01
14.000000 32.000000 -3.484026E+01
14.000000 30.000000 -2.139569E+01
14.000000 28.000000 -1.255278E+01
14.000000 26.000000 -6.318532E+00
14.000000 24.000000 5.371795E+00
14.000000 22.000000 6.149241E+00
14.000000 20.000000 6.858211E-01
14.000000 18.000000 -7.928097E+00
14.000000 16.000000 -2.024923E+01
14.000000 14.000000 -4.494702E+01
14.000000 12.000000 -8.239833E+01
14.000000 10.000000 -1.293592E+02
14.000000 8.000000 -1.715781E+02
14.000000 6.000000 -1.939366E+02
14.000000 4.000000 -1.601208E+02
14.000000 2.000000 -7.266098E+01
14.000000 0.000000 2.770358E+01
14.000000 -2.000000 9.983013E+01
14.000000 -4.000000 1.168282E+02
14.000000 -6.000000 6.637600E+01
14.000000 -8.000000 -3.061677E+00
14.000000 -10.000000 -4.753400E+01
14.000000 -12.000000 -1.508725E+01
14.000000 -14.000000 5.747083E+01
14.000000 -16.000000 1.280336E+02
14.000000 -18.000000 1.461451E+02
14.000000 -20.000000 1.067126E+02
14.000000 -22.000000 4.663406E+01
14.000000 -24.000000 2.524376E-02
14.000000 -26.000000 -2.049430E+01
14.000000 -28.000000 -2.575164E+01
14.000000 -30.000000 -2.971213E+01
14.000000 -32.000000 -3.183392E+01
14.000000 -34.000000 -3.270977E+01
14.000000 -36.000000 -4.423321E+01
14.000000 -38.000000 -5.574683E+01
14.000000 -40.000000 -6.964057E+01
16.000000 40.000000 8.039522E+00
16.000000 38.000000 -1.741882E+01
16.000000 36.000000 -3.963123E+01
16.000000 34.000000 -4.804078E+01
16.000000 32.000000 -3.378379E+01
16.000000 30.000000 -1.821955E+01
16.000000 28.000000 -8.627175E+00
16.000000 26.000000 -5.439735E+00
16.000000 24.000000 1.184761E+00
16.000000 22.000000 3.166863E+00
16.000000 20.000000 7.005746E+00
16.000000 18.000000 1.484473E+01
16.000000 16.000000 1.528081E+01
16.000000 14.000000 -3.016780E+00
16.000000 12.000000 -4.116154E+01
16.000000 10.000000 -8.872903E+01
16.000000 8.000000 -1.380087E+02
16.000000 6.000000 -1.717222E+02
16.000000 4.000000 -1.586947E+02
16.000000 2.000000 -8.905220E+01
16.000000 0.000000 4.776680E+00
16.000000 -2.000000 8.175894E+01
16.000000 -4.000000 1.087291E+02
16.000000 -6.000000 6.840313E+01
16.000000 -8.000000 6.138582E+00
16.000000 -10.000000 -3.611154E+01
16.000000 -12.000000 -3.715960E+00
16.000000 -14.000000 8.376725E+01
16.000000 -16.000000 1.691024E+02
16.000000 -18.000000 1.771940E+02
16.000000 -20.000000 1.195157E+02
16.000000 -22.000000 4.519037E+01
16.000000 -24.000000 -8.865965E+00
16.000000 -26.000000 -3.204535E+01
16.000000 -28.000000 -3.892862E+01
16.000000 -30.000000 -4.053306E+01
16.000000 -32.000000 -3.587866E+01
16.000000 -34.000000 -3.051533E+01
16.000000 -36.000000 -3.809033E+01
16.000000 -38.000000 -4.923505E+01
16.000000 -40.000000 -6.432623E+01
18.000000 40.000000 1.460921E+01
18.000000 38.000000 -1.130605E+01
18.000000 36.000000 -3.503117E+01
18.000000 34.000000 -4.705902E+01
18.000000 32.000000 -3.506812E+01
18.000000 30.000000 -1.905202E+01
18.000000 28.000000 -1.017642E+01
18.000000 26.000000 -8.652338E+00
18.000000 24.000000 -6.227283E+00
18.000000 22.000000 -3.858652E+00
18.000000 20.000000 4.719693E+00
18.000000 18.000000 2.397915E+01
18.000000 16.000000 3.710125E+01
18.000000 14.000000 2.752280E+01
18.000000 12.000000 -7.478330E+00
18.000000 10.000000 -5.353432E+01
18.000000 8.000000 -1.066615E+02
18.000000 6.000000 -1.466965E+02
18.000000 4.000000 -1.503309E+02
18.000000 2.000000 -1.000463E+02
18.000000 0.000000 -1.950647E+01
18.000000 -2.000000 5.222910E+01
18.000000 -4.000000 8.441529E+01
18.000000 -6.000000 6.463901E+01
18.000000 -8.000000 2.963712E+01
18.000000 -10.000000 1.000867E+01
18.000000 -12.000000 4.587993E+01
18.000000 -14.000000 1.311375E+02
18.000000 -16.000000 1.991886E+02
18.000000 -18.000000 1.791067E+02
18.000000 -20.000000 9.975718E+01
18.000000 -22.000000 1.953260E+01
18.000000 -24.000000 -2.246862E+01
18.000000 -26.000000 -3.026027E+01
18.000000 -28.000000 -3.069030E+01
18.000000 -30.000000 -2.663556E+01
18.000000 -32.000000 -1.880007E+01
18.000000 -34.000000 -1.311180E+01
18.000000 -36.000000 -2.275625E+01
18.000000 -38.000000 -3.915285E+01
18.000000 -40.000000 -6.016981E+01
20.000000 40.000000 2.244390E+01
20.000000 38.000000 -4.019347E+00
20.000000 36.000000 -2.975455E+01
20.000000 34.000000 -4.607523E+01
20.000000 32.000000 -3.720953E+01
20.000000 30.000000 -2.122364E+01
20.000000 28.000000 -1.294506E+01
20.000000 26.000000 -1.131430E+01
20.000000 24.000000 -9.940766E+00
20.000000 22.000000 -7.449384E+00
20.000000 20.000000 2.006317E+00
20.000000 18.000000 2.374814E+01
20.000000 16.000000 4.213209E+01
20.000000 14.000000 3.853248E+01
20.000000 12.000000 6.732767E+00
20.000000 10.000000 -4.133201E+01
20.000000 8.000000 -9.864460E+01
20.000000 6.000000 -1.428597E+02
20.000000 4.000000 -1.545097E+02
20.000000 2.000000 -1.150902E+02
20.000000 0.000000 -4.549777E+01
20.000000 -2.000000 1.903195E+01
20.000000 -4.000000 5.525380E+01
20.000000 -6.000000 5.864928E+01
20.000000 -8.000000 5.957032E+01
20.000000 -10.000000 8.098556E+01
20.000000 -12.000000 1.387652E+02
20.000000 -14.000000 2.033414E+02
20.000000 -16.000000 2.159533E+02
20.000000 -18.000000 1.559059E+02
20.000000 -20.000000 5.120764E+01
20.000000 -22.000000 -3.134316E+01
20.000000 -24.000000 -4.503649E+01
20.000000 -26.000000 -1.995767E+01
20.000000 -28.000000 -4.528345E+00
20.000000 -30.000000 6.289913E+00
20.000000 -32.000000 1.228803E+01
20.000000 -34.000000 1.264456E+01
20.000000 -36.000000 -3.553802E+00
20.000000 -38.000000 -2.768548E+01
20.000000 -40.000000 -5.667465E+01
22.000000 40.000000 3.084413E+01
22.000000 38.000000 4.871430E+00
22.000000 36.000000 -2.222504E+01
22.000000 34.000000 -4.178192E+01
22.000000 32.000000 -3.579508E+01
22.000000 30.000000 -2.188948E+01
22.000000 28.000000 -1.593271E+01
22.000000 26.000000 -1.503084E+01
22.000000 24.000000 -1.312551E+01
22.000000 22.000000 -1.160270E+01
22.000000 20.000000 -4.463161E+00
22.000000 18.000000 1.310435E+01
22.000000 16.000000 2.798242E+01
22.000000 14.000000 2.330990E+01
22.000000 12.000000 -7.771935E+00
22.000000 10.000000 -5.550108E+01
22.000000 8.000000 -1.090403E+02
22.000000 6.000000 -1.525615E+02
22.000000 4.000000 -1.657289E+02
22.000000 2.000000 -1.310021E+02
22.000000 0.000000 -6.777133E+01
22.000000 -2.000000 -5.865305E+00
22.000000 -4.000000 3.698582E+01
22.000000 -6.000000 6.136098E+01
22.000000 -8.000000 9.453229E+01
22.000000 -10.000000 1.538114E+02
22.000000 -12.000000 2.309898E+02
22.000000 -14.000000 2.797026E+02
22.000000 -16.000000 2.479844E+02
22.000000 -18.000000 1.404876E+02
22.000000 -20.000000 -7.169930E+00
22.000000 -22.000000 -9.653851E+01
22.000000 -24.000000 -7.295550E+01
22.000000 -26.000000 -7.799694E+00
22.000000 -28.000000 2.795996E+01
22.000000 -30.000000 4.154950E+01
22.000000 -32.000000 4.095635E+01
22.000000 -34.000000 3.365063E+01
22.000000 -36.000000 1.161727E+01
22.000000 -38.000000 -1.771230E+01
22.000000 -40.000000 -5.253207E+01
24.000000 40.000000 3.999490E+01
24.000000 38.000000 1.432524E+01
24.000000 36.000000 -1.325293E+01
24.000000 34.000000 -3.481317E+01
24.000000 32.000000 -3.221807E+01
24.000000 30.000000 -2.289466E+01
24.000000 28.000000 -2.038430E+01
24.000000 26.000000 -2.087838E+01
24.000000 24.000000 -1.944242E+01
24.000000 22.000000 -1.938261E+01
24.000000 20.000000 -1.617505E+01
24.000000 18.000000 -5.656403E+00
24.000000 16.000000 5.485668E-01
24.000000 14.000000 -1.137049E+01
24.000000 12.000000 -4.253570E+01
24.000000 10.000000 -8.195318E+01
24.000000 8.000000 -1.199834E+02
24.000000 6.000000 -1.572068E+02
24.000000 4.000000 -1.712239E+02
24.000000 2.000000 -1.413874E+02
24.000000 0.000000 -8.274778E+01
24.000000 -2.000000 -1.755273E+01
24.000000 -4.000000 3.482120E+01
24.000000 -6.000000 7.407722E+01
24.000000 -8.000000 1.274667E+02
24.000000 -10.000000 2.100448E+02
24.000000 -12.000000 2.980128E+02
24.000000 -14.000000 3.423107E+02
24.000000 -16.000000 2.928141E+02
24.000000 -18.000000 1.497745E+02
24.000000 -20.000000 -4.209099E+01
24.000000 -22.000000 -1.419562E+02
24.000000 -24.000000 -8.778942E+01
24.000000 -26.000000 4.544683E+00
24.000000 -28.000000 5.040091E+01
24.000000 -30.000000 6.018969E+01
24.000000 -32.000000 5.002513E+01
24.000000 -34.000000 3.669478E+01
24.000000 -36.000000 1.411447E+01
24.000000 -38.000000 -1.399632E+01
24.000000 -40.000000 -4.805298E+01
26.000000 40.000000 4.888196E+01
26.000000 38.000000 2.193592E+01
26.000000 36.000000 -6.251776E+00
26.000000 34.000000 -2.977282E+01
26.000000 32.000000 -3.128750E+01
26.000000 30.000000 -2.682676E+01
26.000000 28.000000 -2.675033E+01
26.000000 26.000000 -2.843734E+01
26.000000 24.000000 -2.836782E+01
26.000000 22.000000 -2.815482E+01
26.000000 20.000000 -2.782224E+01
26.000000 18.000000 -2.431005E+01
26.000000 16.000000 -2.624465E+01
26.000000 14.000000 -4.371065E+01
26.000000 12.000000 -7.111020E+01
26.000000 10.000000 -9.514951E+01
26.000000 8.000000 -1.118787E+02
26.000000 6.000000 -1.403452E+02
26.000000 4.000000 -1.636677E+02
26.000000 2.000000 -1.453374E+02
26.000000 0.000000 -9.233109E+01
26.000000 -2.000000 -2.279518E+01
26.000000 -4.000000 4.007595E+01
26.000000 -6.000000 9.142729E+01
26.000000 -8.000000 1.551297E+02
26.000000 -10.000000 2.454254E+02
26.000000 -12.000000 3.314471E+02
26.000000 -14.000000 3.675452E+02
26.000000 -16.000000 3.088857E+02
26.000000 -18.000000 1.584772E+02
26.000000 -20.000000 -2.671942E+01
26.000000 -22.000000 -1.202471E+02
26.000000 -24.000000 -7.207617E+01
26.000000 -26.000000 1.194892E+01
26.000000 -28.000000 4.935020E+01
26.000000 -30.000000 5.109361E+01
26.000000 -32.000000 3.265727E+01
26.000000 -34.000000 1.824175E+01
26.000000 -36.000000 1.749300E+00
26.000000 -38.000000 -1.777268E+01
26.000000 -40.000000 -4.420562E+01
28.000000 40.000000 5.403366E+01
28.000000 38.000000 2.513930E+01
28.000000 36.000000 -4.112167E+00
28.000000 34.000000 -3.058650E+01
28.000000 32.000000 -3.580568E+01
28.000000 30.000000 -3.333727E+01
28.000000 28.000000 -3.245010E+01
28.000000 26.000000 -3.333926E+01
28.000000 24.000000 -3.206921E+01
28.000000 22.000000 -2.999485E+01
28.000000 20.000000 -3.050177E+01
28.000000 18.000000 -3.159001E+01
28.000000 16.000000 -3.713521E+01
28.000000 14.000000 -5.479958E+01
28.000000 12.000000 -7.765952E+01
28.000000 10.000000 -9.023103E+01
28.000000 8.000000 -9.237751E+01
28.000000 6.000000 -1.134016E+02
28.000000 4.000000 -1.474594E+02
28.000000 2.000000 -1.427029E+02
28.000000 0.000000 -9.718580E+01
28.000000 -2.000000 -2.672045E+01
28.000000 -4.000000 4.393655E+01
28.000000 -6.000000 1.046710E+02
28.000000 -8.000000 1.718044E+02
28.000000 -10.000000 2.571127E+02
28.000000 -12.000000 3.293937E+02
28.000000 -14.000000 3.515732E+02
28.000000 -16.000000 2.908783E+02
28.000000 -18.000000 1.574356E+02
28.000000 -20.000000 1.259003E+01
28.000000 -22.000000 -6.212911E+01
28.000000 -24.000000 -3.715311E+01
28.000000 -26.000000 1.688585E+01
28.000000 -28.000000 3.270452E+01
28.000000 -30.000000 2.457962E+01
28.000000 -32.000000 2.944851E+00
28.000000 -34.000000 -8.299149E+00
28.000000 -36.000000 -1.580702E+01
28.000000 -38.000000 -2.553338E+01
28.000000 -40.000000 -4.471844E+01
30.000000 40.000000 5.508196E+01
30.000000 38.000000 2.300233E+01
30.000000 36.000000 -8.779308E+00
30.000000 34.000000 -3.929959E+01
30.000000 32.000000 -4.684085E+01
30.000000 30.000000 -4.281885E+01
30.000000 28.000000 -3.678565E+01
30.000000 26.000000 -3.208203E+01
30.000000 24.000000 -2.475697E+01
30.000000 22.000000 -1.923767E+01
30.000000 20.000000 -1.868912E+01
30.000000 18.000000 -2.076040E+01
30.000000 16.000000 -2.656353E+01
30.000000 14.000000 -4.235338E+01
30.000000 12.000000 -6.454909E+01
30.000000 10.000000 -7.965911E+01
30.000000 8.000000 -8.513754E+01
30.000000 6.000000 -1.020368E+02
30.000000 4.000000 -1.297629E+02
30.000000 2.000000 -1.289655E+02
30.000000 0.000000 -9.223467E+01
30.000000 -2.000000 -2.923629E+01
30.000000 -4.000000 4.057791E+01
30.000000 -6.000000 1.065342E+02
30.000000 -8.000000 1.740492E+02
30.000000 -10.000000 2.489841E+02
30.000000 -12.000000 3.024647E+02
30.000000 -14.000000 3.101279E+02
30.000000 -16.000000 2.524345E+02
30.000000 -18.000000 1.459019E+02
30.000000 -20.000000 4.224724E+01
30.000000 -22.000000 -1.304411E+01
30.000000 -24.000000 -6.235271E+00
30.000000 -26.000000 1.936543E+01
30.000000 -28.000000 1.582841E+01
30.000000 -30.000000 3.816605E-01
30.000000 -32.000000 -1.978547E+01
30.000000 -34.000000 -2.750577E+01
30.000000 -36.000000 -2.982858E+01
30.000000 -38.000000 -3.495645E+01
30.000000 -40.000000 -5.138303E+01
32.000000 40.000000 5.378255E+01
32.000000 38.000000 1.653844E+01
32.000000 36.000000 -2.009771E+01
32.000000 34.000000 -5.521645E+01
32.000000 32.000000 -6.254193E+01
32.000000 30.000000 -5.421645E+01
32.000000 28.000000 -4.064375E+01
32.000000 26.000000 -2.773230E+01
32.000000 24.000000 -1.268242E+01
32.000000 22.000000 -3.187693E+00
32.000000 20.000000 7.314186E-01
32.000000 18.000000 2.457268E+00
32.000000 16.000000 -1.024246E-01
32.000000 14.000000 -1.434535E+01
32.000000 12.000000 -4.208768E+01
32.000000 10.000000 -6.774233E+01
32.000000 8.000000 -8.040022E+01
32.000000 6.000000 -9.311444E+01
32.000000 4.000000 -1.092911E+02
32.000000 2.000000 -1.094335E+02
32.000000 0.000000 -8.427743E+01
32.000000 -2.000000 -3.645807E+01
32.000000 -4.000000 2.379786E+01
32.000000 -6.000000 9.022066E+01
32.000000 -8.000000 1.580960E+02
32.000000 -10.000000 2.250574E+02
32.000000 -12.000000 2.645251E+02
32.000000 -14.000000 2.625094E+02
32.000000 -16.000000 2.095226E+02
32.000000 -18.000000 1.259936E+02
32.000000 -20.000000 5.161325E+01
32.000000 -22.000000 1.182781E+01
32.000000 -24.000000 7.768633E+00
32.000000 -26.000000 1.506892E+01
32.000000 -28.000000 5.157738E+00
32.000000 -30.000000 -1.053242E+01
32.000000 -32.000000 -2.681782E+01
32.000000 -34.000000 -3.288361E+01
32.000000 -36.000000 -3.749612E+01
32.000000 -38.000000 -4.439234E+01
32.000000 -40.000000 -6.167388E+01
34.000000 40.000000 5.030933E+01
34.000000 38.000000 7.157545E+00
34.000000 36.000000 -3.509313E+01
34.000000 34.000000 -7.322009E+01
34.000000 32.000000 -7.777069E+01
34.000000 30.000000 -6.423653E+01
34.000000 28.000000 -4.405742E+01
34.000000 26.000000 -2.540546E+01
34.000000 24.000000 -5.443502E+00
34.000000 22.000000 8.394604E+00
34.000000 20.000000 1.810326E+01
34.000000 18.000000 2.834108E+01
34.000000 16.000000 3.169751E+01
34.000000 14.000000 1.841262E+01
34.000000 12.000000 -1.863950E+01
34.000000 10.000000 -5.576685E+01
34.000000 8.000000 -7.149996E+01
34.000000 6.000000 -7.722821E+01
34.000000 4.000000 -8.299697E+01
34.000000 2.000000 -8.692502E+01
34.000000 0.000000 -7.627362E+01
34.000000 -2.000000 -4.704819E+01
34.000000 -4.000000 -1.234795E+00
34.000000 -6.000000 6.061049E+01
34.000000 -8.000000 1.279585E+02
34.000000 -10.000000 1.911446E+02
34.000000 -12.000000 2.253228E+02
34.000000 -14.000000 2.200859E+02
34.000000 -16.000000 1.712361E+02
34.000000 -18.000000 1.022955E+02
34.000000 -20.000000 4.471744E+01
34.000000 -22.000000 1.526313E+01
34.000000 -24.000000 7.497448E+00
34.000000 -26.000000 8.118759E+00
34.000000 -28.000000 1.412216E+00
34.000000 -30.000000 -9.628098E+00
34.000000 -32.000000 -2.093088E+01
34.000000 -34.000000 -2.683421E+01
34.000000 -36.000000 -3.791096E+01
34.000000 -38.000000 -5.043386E+01
34.000000 -40.000000 -7.221160E+01
36.000000 40.000000 4.577421E+01
36.000000 38.000000 -3.235641E+00
36.000000 36.000000 -5.050653E+01
36.000000 34.000000 -8.822462E+01
36.000000 32.000000 -8.760638E+01
36.000000 30.000000 -6.927614E+01
36.000000 28.000000 -4.606216E+01
36.000000 26.000000 -2.585347E+01
36.000000 24.000000 -4.939423E+00
36.000000 22.000000 1.407813E+01
36.000000 20.000000 3.122439E+01
36.000000 18.000000 4.814806E+01
36.000000 16.000000 5.177815E+01
36.000000 14.000000 3.412810E+01
36.000000 12.000000 -7.050884E+00
36.000000 10.000000 -4.584664E+01
36.000000 8.000000 -5.908838E+01
36.000000 6.000000 -5.777404E+01
36.000000 4.000000 -5.629641E+01
36.000000 2.000000 -6.118725E+01
36.000000 0.000000 -6.002874E+01
36.000000 -2.000000 -4.550561E+01
36.000000 -4.000000 -1.482854E+01
36.000000 -6.000000 3.479931E+01
36.000000 -8.000000 9.396277E+01
36.000000 -10.000000 1.516668E+02
36.000000 -12.000000 1.847216E+02
36.000000 -14.000000 1.804757E+02
36.000000 -16.000000 1.368603E+02
36.000000 -18.000000 7.805312E+01
36.000000 -20.000000 3.207980E+01
36.000000 -22.000000 1.105297E+01
36.000000 -24.000000 2.993828E+00
36.000000 -26.000000 3.686665E+00
36.000000 -28.000000 2.718571E+00
36.000000 -30.000000 -2.710934E+00
36.000000 -32.000000 -9.069141E+00
36.000000 -34.000000 -1.535428E+01
36.000000 -36.000000 -3.270616E+01
36.000000 -38.000000 -5.187452E+01
36.000000 -40.000000 -8.058854E+01
38.000000 40.000000 4.197923E+01
38.000000 38.000000 -1.263618E+01
38.000000 36.000000 -6.368307E+01
38.000000 34.000000 -9.787683E+01
38.000000 32.000000 -8.952305E+01
38.000000 30.000000 -6.653928E+01
38.000000 28.000000 -4.431239E+01
38.000000 26.000000 -2.652762E+01
38.000000 24.000000 -7.502724E+00
38.000000 22.000000 1.473216E+01
38.000000 20.000000 3.585957E+01
38.000000 18.000000 5.438678E+01
38.000000 16.000000 5.437309E+01
38.000000 14.000000 3.045263E+01
38.000000 12.000000 -8.770737E+00
38.000000 10.000000 -4.032595E+01
38.000000 8.000000 -4.597960E+01
38.000000 6.000000 -3.896679E+01
38.000000 4.000000 -3.330313E+01
38.000000 2.000000 -3.424998E+01
38.000000 0.000000 -3.428543E+01
38.000000 -2.000000 -2.809729E+01
38.000000 -4.000000 -1.147784E+01
38.000000 -6.000000 1.904752E+01
38.000000 -8.000000 6.137370E+01
38.000000 -10.000000 1.083097E+02
38.000000 -12.000000 1.398083E+02
38.000000 -14.000000 1.395248E+02
38.000000 -16.000000 1.064953E+02
38.000000 -18.000000 6.050440E+01
38.000000 -20.000000 2.648891E+01
38.000000 -22.000000 1.032146E+01
38.000000 -24.000000 1.357323E+00
38.000000 -26.000000 2.798290E+00
38.000000 -28.000000 6.209522E+00
38.000000 -30.000000 5.509857E+00
38.000000 -32.000000 2.293201E+00
38.000000 -34.000000 -4.737583E+00
38.000000 -36.000000 -2.639807E+01
38.000000 -38.000000 -5.097082E+01
38.000000 -40.000000 -8.464762E+01
40.000000 40.000000 3.889002E+01
40.000000 38.000000 -1.888649E+01
40.000000 36.000000 -7.121353E+01
40.000000 34.000000 -1.001917E+02
40.000000 32.000000 -8.359000E+01
40.000000 30.000000 -5.564426E+01
40.000000 28.000000 -3.526221E+01
40.000000 26.000000 -2.258832E+01
40.000000 24.000000 -9.193817E+00
40.000000 22.000000 9.734985E+00
40.000000 20.000000 2.805284E+01
40.000000 18.000000 4.605856E+01
40.000000 16.000000 4.592728E+01
40.000000 14.000000 2.122476E+01
40.000000 12.000000 -1.244155E+01
40.000000 10.000000 -3.466914E+01
40.000000 8.000000 -3.311087E+01
40.000000 6.000000 -2.354712E+01
40.000000 4.000000 -1.425343E+01
40.000000 2.000000 -1.004077E+01
40.000000 0.000000 -6.948992E+00
40.000000 -2.000000 -5.611795E+00
40.000000 -4.000000 -3.896963E+00
40.000000 -6.000000 4.842264E+00
40.000000 -8.000000 2.891066E+01
40.000000 -10.000000 6.292416E+01
40.000000 -12.000000 9.176269E+01
40.000000 -14.000000 9.964552E+01
40.000000 -16.000000 8.342951E+01
40.000000 -18.000000 5.514072E+01
40.000000 -20.000000 3.246008E+01
40.000000 -22.000000 1.555753E+01
40.000000 -24.000000 2.627281E+00
40.000000 -26.000000 2.730858E+00
40.000000 -28.000000 8.675854E+00
40.000000 -30.000000 1.104793E+01
40.000000 -32.000000 9.319021E+00
40.000000 -34.000000 2.373747E+00
40.000000 -36.000000 -2.042204E+01
40.000000 -38.000000 -4.782244E+01
40.000000 -40.000000 -8.338991E+01
42.000000 40.000000 3.634201E+01
42.000000 38.000000 -1.990656E+01
42.000000 36.000000 -6.967220E+01
42.000000 34.000000 -9.383660E+01
42.000000 32.000000 -7.187477E+01
42.000000 30.000000 -3.918902E+01
42.000000 28.000000 -1.827985E+01
42.000000 26.000000 -1.087178E+01
42.000000 24.000000 -4.929804E+00
42.000000 22.000000 4.244560E+00
42.000000 20.000000 1.439638E+01
42.000000 18.000000 2.880518E+01
42.000000 16.000000 3.131184E+01
42.000000 14.000000 1.346239E+01
42.000000 12.000000 -1.067040E+01
42.000000 10.000000 -2.418015E+01
42.000000 8.000000 -2.086501E+01
42.000000 6.000000 -1.327521E+01
42.000000 4.000000 -3.597111E+00
42.000000 2.000000 4.550049E+00
42.000000 0.000000 1.185188E+01
42.000000 -2.000000 1.049106E+01
42.000000 -4.000000 -1.024982E+00
42.000000 -6.000000 -1.239104E+01
42.000000 -8.000000 -5.095684E+00
42.000000 -10.000000 1.754576E+01
42.000000 -12.000000 4.653296E+01
42.000000 -14.000000 6.607104E+01
42.000000 -16.000000 6.891767E+01
42.000000 -18.000000 5.913848E+01
42.000000 -20.000000 4.321892E+01
42.000000 -22.000000 2.257779E+01
42.000000 -24.000000 4.805698E+00
42.000000 -26.000000 1.342632E+00
42.000000 -28.000000 7.932732E+00
42.000000 -30.000000 1.255545E+01
42.000000 -32.000000 1.242661E+01
42.000000 -34.000000 7.401083E+00
42.000000 -36.000000 -1.296758E+01
42.000000 -38.000000 -4.108553E+01
42.000000 -40.000000 -7.743596E+01
44.000000 40.000000 3.581682E+01
44.000000 38.000000 -1.536172E+01
44.000000 36.000000 -5.980914E+01
44.000000 34.000000 -7.988144E+01
44.000000 32.000000 -5.577163E+01
44.000000 30.000000 -2.059725E+01
44.000000 28.000000 8.281937E-01
44.000000 26.000000 4.191124E+00
44.000000 24.000000 4.450766E+00
44.000000 22.000000 4.091564E+00
44.000000 20.000000 5.193687E+00
44.000000 18.000000 1.266663E+01
44.000000 16.000000 1.732718E+01
44.000000 14.000000 9.539833E+00
44.000000 12.000000 -3.859394E+00
44.000000 10.000000 -1.234318E+01
44.000000 8.000000 -1.412804E+01
44.000000 6.000000 -1.270862E+01
44.000000 4.000000 -7.380150E+00
44.000000 2.000000 3.470060E+00
44.000000 0.000000 1.454392E+01
44.000000 -2.000000 1.243016E+01
44.000000 -4.000000 -5.834089E+00
44.000000 -6.000000 -2.957673E+01
44.000000 -8.000000 -3.627335E+01
44.000000 -10.000000 -2.274789E+01
44.000000 -12.000000 1.060748E+01
44.000000 -14.000000 4.191406E+01
44.000000 -16.000000 6.076130E+01
44.000000 -18.000000 6.475584E+01
44.000000 -20.000000 5.329903E+01
44.000000 -22.000000 3.053751E+01
44.000000 -24.000000 9.288364E+00
44.000000 -26.000000 1.066448E+00
44.000000 -28.000000 5.692415E+00
44.000000 -30.000000 1.144275E+01
44.000000 -32.000000 1.408385E+01
44.000000 -34.000000 1.207852E+01
44.000000 -36.000000 -5.158047E+00
44.000000 -38.000000 -3.264732E+01
44.000000 -40.000000 -6.865976E+01
46.000000 40.000000 3.897631E+01
46.000000 38.000000 -5.738365E+00
46.000000 36.000000 -4.391471E+01
46.000000 34.000000 -6.091280E+01
46.000000 32.000000 -3.829867E+01
46.000000 30.000000 -5.085108E+00
46.000000 28.000000 1.535778E+01
46.000000 26.000000 1.663023E+01
46.000000 24.000000 1.332114E+01
46.000000 22.000000 6.691181E+00
46.000000 20.000000 2.506199E+00
46.000000 18.000000 4.568716E+00
46.000000 16.000000 1.072644E+01
46.000000 14.000000 9.043245E+00
46.000000 12.000000 5.454159E-01
46.000000 10.000000 -7.895603E+00
46.000000 8.000000 -1.668616E+01
46.000000 6.000000 -2.320585E+01
46.000000 4.000000 -2.280175E+01
46.000000 2.000000 -1.059641E+01
46.000000 0.000000 2.786594E+00
46.000000 -2.000000 1.317432E+00
46.000000 -4.000000 -1.823683E+01
46.000000 -6.000000 -4.411278E+01
46.000000 -8.000000 -5.408871E+01
46.000000 -10.000000 -4.375216E+01
46.000000 -12.000000 -8.716335E+00
46.000000 -14.000000 2.845451E+01
46.000000 -16.000000 5.611570E+01
46.000000 -18.000000 6.658204E+01
46.000000 -20.000000 5.924758E+01
46.000000 -22.000000 3.824951E+01
46.000000 -24.000000 1.619976E+01
46.000000 -26.000000 4.423817E+00
46.000000 -28.000000 5.162315E+00
46.000000 -30.000000 1.018488E+01
46.000000 -32.000000 1.576766E+01
46.000000 -34.000000 1.644321E+01
46.000000 -36.000000 6.667576E-01
46.000000 -38.000000 -2.535417E+01
46.000000 -40.000000 -5.948211E+01
48.000000 40.000000 4.755932E+01
48.000000 38.000000 8.535175E+00
48.000000 36.000000 -2.442930E+01
48.000000 34.000000 -4.047591E+01
48.000000 32.000000 -2.420198E+01
48.000000 30.000000 1.531681E+00
48.000000 28.000000 1.980283E+01
48.000000 26.000000 2.137743E+01
48.000000 24.000000 1.641790E+01
48.000000 22.000000 6.359599E+00
48.000000 20.000000 7.309723E-01
48.000000 18.000000 2.492205E+00
48.000000 16.000000 9.624260E+00
48.000000 14.000000 9.665190E+00
48.000000 12.000000 6.918325E-01
48.000000 10.000000 -1.064353E+01
48.000000 8.000000 -2.326865E+01
48.000000 6.000000 -3.436344E+01
48.000000 4.000000 -3.660142E+01
48.000000 2.000000 -2.479479E+01
48.000000 0.000000 -1.079924E+01
48.000000 -2.000000 -1.174107E+01
48.000000 -4.000000 -2.990113E+01
48.000000 -6.000000 -5.129946E+01
48.000000 -8.000000 -5.609061E+01
48.000000 -10.000000 -4.392019E+01
48.000000 -12.000000 -1.242863E+01
48.000000 -14.000000 2.206781E+01
48.000000 -16.000000 4.988865E+01
48.000000 -18.000000 6.256182E+01
48.000000 -20.000000 5.964565E+01
48.000000 -22.000000 4.326084E+01
48.000000 -24.000000 2.319185E+01
48.000000 -26.000000 1.056635E+01
48.000000 -28.000000 8.286983E+00
48.000000 -30.000000 1.105077E+01
48.000000 -32.000000 1.697226E+01
48.000000 -34.000000 1.910363E+01
48.000000 -36.000000 4.551935E+00
48.000000 -38.000000 -2.004303E+01
48.000000 -40.000000 -5.213824E+01
50.000000 40.000000 5.985770E+01
50.000000 38.000000 2.510933E+01
50.000000 36.000000 -4.748178E+00
50.000000 34.000000 -2.285641E+01
50.000000 32.000000 -1.636604E+01
50.000000 30.000000 -1.794416E+00
50.000000 28.000000 1.246516E+01
50.000000 26.000000 1.601943E+01
50.000000 24.000000 1.225850E+01
50.000000 22.000000 2.050570E+00
50.000000 20.000000 -3.058186E+00
50.000000 18.000000 2.064555E+00
50.000000 16.000000 9.778914E+00
50.000000 14.000000 1.070759E+01
50.000000 12.000000 1.349889E+00
50.000000 10.000000 -1.038854E+01
50.000000 8.000000 -2.288214E+01
50.000000 6.000000 -3.505866E+01
50.000000 4.000000 -3.859741E+01
50.000000 2.000000 -2.788570E+01
50.000000 0.000000 -1.398043E+01
50.000000 -2.000000 -1.469468E+01
50.000000 -4.000000 -3.187817E+01
50.000000 -6.000000 -4.862588E+01
50.000000 -8.000000 -4.854527E+01
50.000000 -10.000000 -3.502872E+01
50.000000 -12.000000 -9.058132E+00
50.000000 -14.000000 1.756876E+01
50.000000 -16.000000 3.926223E+01
50.000000 -18.000000 5.170491E+01
50.000000 -20.000000 5.320098E+01
50.000000 -22.000000 4.391450E+01
50.000000 -24.000000 2.853739E+01
50.000000 -26.000000 1.721457E+01
50.000000 -28.000000 1.362869E+01
50.000000 -30.000000 1.366771E+01
50.000000 -32.000000 1.727211E+01
50.000000 -34.000000 1.957263E+01
50.000000 -36.000000 6.794294E+00
50.000000 -38.000000 -1.691176E+01
50.000000 -40.000000 -4.802399E+01
52.000000 40.000000 7.217440E+01
52.000000 38.000000 4.100031E+01
52.000000 36.000000 1.243694E+01
52.000000 34.000000 -1.035530E+01
52.000000 32.000000 -1.434163E+01
52.000000 30.000000 -1.147239E+01
52.000000 28.000000 -3.067058E+00
52.000000 26.000000 3.512400E+00
52.000000 24.000000 5.516109E+00
52.000000 22.000000 -1.195421E-01
52.000000 20.000000 -4.106359E+00
52.000000 18.000000 9.863911E-01
52.000000 16.000000 7.852229E+00
52.000000 14.000000 9.623085E+00
52.000000 12.000000 1.912537E+00
52.000000 10.000000 -6.903351E+00
52.000000 8.000000 -1.644997E+01
52.000000 6.000000 -2.648932E+01
52.000000 4.000000 -2.912913E+01
52.000000 2.000000 -1.882546E+01
52.000000 0.000000 -4.876060E+00
52.000000 -2.000000 -4.447569E+00
52.000000 -4.000000 -1.950499E+01
52.000000 -6.000000 -3.259759E+01
52.000000 -8.000000 -3.100309E+01
52.000000 -10.000000 -1.950475E+01
52.000000 -12.000000 -1.986369E+00
52.000000 -14.000000 1.373770E+01
52.000000 -16.000000 2.681244E+01
52.000000 -18.000000 3.697344E+01
52.000000 -20.000000 4.108901E+01
52.000000 -22.000000 3.896408E+01
52.000000 -24.000000 2.960133E+01
52.000000 -26.000000 2.080320E+01
52.000000 -28.000000 1.727658E+01
52.000000 -30.000000 1.574377E+01
52.000000 -32.000000 1.659297E+01
52.000000 -34.000000 1.760334E+01
52.000000 -36.000000 6.010522E+00
52.000000 -38.000000 -1.722641E+01
52.000000 -40.000000 -4.788366E+01
54.000000 40.000000 8.215730E+01
54.000000 38.000000 5.376398E+01
54.000000 36.000000 2.574535E+01
54.000000 34.000000 -1.396328E+00
54.000000 32.000000 -1.408527E+01
54.000000 30.000000 -2.118248E+01
54.000000 28.000000 -1.878770E+01
54.000000 26.000000 -9.572827E+00
54.000000 24.000000 -8.198314E-01
54.000000 22.000000 -2.121377E-01
54.000000 20.000000 -2.884513E+00
54.000000 18.000000 -2.865352E+00
54.000000 16.000000 -9.516369E-01
54.000000 14.000000 -7.212070E-01
54.000000 12.000000 -4.154451E+00
54.000000 10.000000 -6.820907E+00
54.000000 8.000000 -9.713942E+00
54.000000 6.000000 -1.321469E+01
54.000000 4.000000 -1.148038E+01
54.000000 2.000000 -2.228661E-01
54.000000 0.000000 1.242941E+01
54.000000 -2.000000 1.455493E+01
54.000000 -4.000000 5.560962E+00
54.000000 -6.000000 -4.121851E+00
54.000000 -8.000000 -5.396589E+00
54.000000 -10.000000 5.114760E-01
54.000000 -12.000000 8.379777E+00
54.000000 -14.000000 1.466576E+01
54.000000 -16.000000 2.016637E+01
54.000000 -18.000000 2.604045E+01
54.000000 -20.000000 2.895849E+01
54.000000 -22.000000 2.887587E+01
54.000000 -24.000000 2.389455E+01
54.000000 -26.000000 1.748708E+01
54.000000 -28.000000 1.546521E+01
54.000000 -30.000000 1.420629E+01
54.000000 -32.000000 1.349249E+01
54.000000 -34.000000 1.212255E+01
54.000000 -36.000000 -2.187061E-01
54.000000 -38.000000 -2.208391E+01
54.000000 -40.000000 -5.021349E+01
56.000000 40.000000 8.308796E+01
56.000000 38.000000 5.601464E+01
56.000000 36.000000 3.192189E+01
56.000000 34.000000 3.525758E+00
56.000000 32.000000 -1.243612E+01
56.000000 30.000000 -2.569489E+01
56.000000 28.000000 -2.819217E+01
56.000000 26.000000 -1.892636E+01
56.000000 24.000000 -7.617399E+00
56.000000 22.000000 -3.844193E+00
56.000000 20.000000 -4.846888E+00
56.000000 18.000000 -8.992930E+00
56.000000 16.000000 -1.376407E+01
56.000000 14.000000 -1.764099E+01
56.000000 12.000000 -1.853870E+01
56.000000 10.000000 -1.427714E+01
56.000000 8.000000 -6.280700E+00
56.000000 6.000000 1.707397E+00
56.000000 4.000000 1.043388E+01
56.000000 2.000000 2.226407E+01
56.000000 0.000000 3.257649E+01
56.000000 -2.000000 3.395092E+01
56.000000 -4.000000 2.843406E+01
56.000000 -6.000000 2.109436E+01
56.000000 -8.000000 1.795362E+01
56.000000 -10.000000 2.069069E+01
56.000000 -12.000000 2.321655E+01
56.000000 -14.000000 2.517536E+01
56.000000 -16.000000 2.692000E+01
56.000000 -18.000000 2.785192E+01
56.000000 -20.000000 2.504750E+01
56.000000 -22.000000 1.879536E+01
56.000000 -24.000000 1.082001E+01
56.000000 -26.000000 7.146649E+00
56.000000 -28.000000 7.219357E+00
56.000000 -30.000000 7.444618E+00
56.000000 -32.000000 6.723355E+00
56.000000 -34.000000 4.062547E+00
56.000000 -36.000000 -1.001542E+01
56.000000 -38.000000 -2.671099E+01
56.000000 -40.000000 -4.985757E+01
58.000000 40.000000 8.095718E+01
58.000000 38.000000 5.722860E+01
58.000000 36.000000 3.419531E+01
58.000000 34.000000 6.274127E+00
58.000000 32.000000 -1.238994E+01
58.000000 30.000000 -2.734417E+01
58.000000 28.000000 -3.166937E+01
58.000000 26.000000 -2.441657E+01
58.000000 24.000000 -1.439698E+01
58.000000 22.000000 -1.071880E+01
58.000000 20.000000 -1.056704E+01
58.000000 18.000000 -1.584086E+01
58.000000 16.000000 -2.338797E+01
58.000000 14.000000 -2.992467E+01
58.000000 12.000000 -3.097294E+01
58.000000 10.000000 -2.381044E+01
58.000000 8.000000 -8.407878E+00
58.000000 6.000000 9.063801E+00
58.000000 4.000000 2.330004E+01
58.000000 2.000000 3.358890E+01
58.000000 0.000000 4.112437E+01
58.000000 -2.000000 4.074879E+01
58.000000 -4.000000 3.612487E+01
58.000000 -6.000000 3.066042E+01
58.000000 -8.000000 2.853400E+01
58.000000 -10.000000 3.192473E+01
58.000000 -12.000000 3.378437E+01
58.000000 -14.000000 3.538162E+01
