-12.000000 4.000000 1.899399E+00
-12.000000 2.000000 -2.410033E+01
-12.000000 0.000000 -3.249881E+01
-12.000000 -2.000000 -3.858110E+01
-12.000000 -4.000000 -4.894849E+01
-12.000000 -6.000000 -5.726939E+01
-12.000000 -8.000000 -5.884632E+01
-12.000000 -10.000000 -5.674560E+01
-12.000000 -12.000000 -5.576615E+01
-12.000000 -14.000000 -5.530976E+01
-12.000000 -16.000000 -5.025167E+01
-12.000000 -18.000000 -4.043660E+01
-12.000000 -20.000000 -3.157535E+01
-12.000000 -22.000000 -3.091371E+01
-12.000000 -24.000000 -3.995253E+01
-12.000000 -26.000000 -4.749130E+01
-12.000000 -28.000000 -5.124988E+01
-12.000000 -30.000000 -5.161678E+01
-12.000000 -32.000000 -4.675876E+01
-12.000000 -34.000000 -3.997717E+01
-12.000000 -36.000000 -3.175435E+01
-12.000000 -38.000000 -2.396475E+01
-12.000000 -40.000000 -1.734077E+01
-10.000000 40.000000 -2.148331E+01
-10.000000 38.000000 -1.236103E+01
-10.000000 36.000000 -2.904064E+00
-10.000000 34.000000 5.171139E+00
-10.000000 32.000000 7.101387E+00
-10.000000 30.000000 5.553875E+00
-10.000000 28.000000 4.129860E+00
-10.000000 26.000000 6.177307E+00
-10.000000 24.000000 1.596786E+00
-10.000000 22.000000 -8.712242E+00
-10.000000 20.000000 -1.153746E+01
-10.000000 18.000000 7.946625E+00
-10.000000 16.000000 5.484622E+01
-10.000000 14.000000 1.192898E+02
-10.000000 12.000000 1.710260E+02
-10.000000 10.000000 1.823065E+02
-10.000000 8.000000 1.337247E+02
-10.000000 6.000000 6.711490E+01
-10.000000 4.000000 7.761324E+00
-10.000000 2.000000 -2.151673E+01
-10.000000 0.000000 -3.157926E+01
-10.000000 -2.000000 -3.704211E+01
-10.000000 -4.000000 -4.604395E+01
-10.000000 -6.000000 -5.460640E+01
-10.000000 -8.000000 -5.782927E+01
-10.000000 -10.000000 -5.566053E+01
-10.000000 -12.000000 -5.041978E+01
-10.000000 -14.000000 -4.494582E+01
-10.000000 -16.000000 -3.584750E+01
-10.000000 -18.000000 -2.429698E+01
-10.000000 -20.000000 -1.323028E+01
-10.000000 -22.000000 -8.708340E+00
-10.000000 -24.000000 -1.315070E+01
-10.000000 -26.000000 -2.055575E+01
-10.000000 -28.000000 -2.914709E+01
-10.000000 -30.000000 -3.659614E+01
-10.000000 -32.000000 -3.940789E+01
-10.000000 -34.000000 -3.798048E+01
-10.000000 -36.000000 -3.294661E+01
-10.000000 -38.000000 -2.538125E+01
-10.000000 -40.000000 -1.854838E+01
-8.000000 40.000000 -2.403732E+01
-8.000000 38.000000 -1.740530E+01
-8.000000 36.000000 -1.151054E+01
-8.000000 34.000000 -9.060398E+00
-8.000000 32.000000 -1.259809E+01
-8.000000 30.000000 -1.596683E+01
-8.000000 28.000000 -1.652081E+01
-8.000000 26.000000 -1.242115E+01
-8.000000 24.000000 -1.471757E+01
-8.000000 22.000000 -1.956886E+01
-8.000000 20.000000 -2.073705E+01
-8.000000 18.000000 -3.566372E+00
-8.000000 16.000000 3.763943E+01
-8.000000 14.000000 9.510145E+01
-8.000000 12.000000 1.437298E+02
-8.000000 10.000000 1.559392E+02
-8.000000 8.000000 1.169441E+02
-8.000000 6.000000 5.904185E+01
-8.000000 4.000000 8.954460E+00
-8.000000 2.000000 -1.379849E+01
-8.000000 0.000000 -1.924739E+01
-8.000000 -2.000000 -2.052213E+01
-8.000000 -4.000000 -2.671548E+01
-8.000000 -6.000000 -3.665357E+01
-8.000000 -8.000000 -4.463107E+01
-8.000000 -10.000000 -4.485644E+01
-8.000000 -12.000000 -3.909595E+01
-8.000000 -14.000000 -3.092044E+01
-8.000000 -16.000000 -2.078699E+01
-8.000000 -18.000000 -9.170353E+00
-8.000000 -20.000000 3.409842E+00
-8.000000 -22.000000 1.173305E+01
-8.000000 -24.000000 1.230808E+01
-8.000000 -26.000000 6.887291E+00
-8.000000 -28.000000 -6.159287E+00
-8.000000 -30.000000 -2.131792E+01
-8.000000 -32.000000 -3.137613E+01
-8.000000 -34.000000 -3.474805E+01
-8.000000 -36.000000 -3.282442E+01
-8.000000 -38.000000 -2.692295E+01
-8.000000 -40.000000 -1.994015E+01
-6.000000 40.000000 -2.508478E+01
-6.000000 38.000000 -2.104478E+01
-6.000000 36.000000 -1.912687E+01
-6.000000 34.000000 -2.128923E+01
-6.000000 32.000000 -2.774094E+01
-6.000000 30.000000 -3.156528E+01
-6.000000 28.000000 -3.073695E+01
-6.000000 26.000000 -2.435764E+01
-6.000000 24.000000 -2.331062E+01
-6.000000 22.000000 -2.369541E+01
-6.000000 20.000000 -2.321476E+01
-6.000000 18.000000 -8.071659E+00
-6.000000 16.000000 2.658598E+01
-6.000000 14.000000 7.278132E+01
-6.000000 12.000000 1.119288E+02
-6.000000 10.000000 1.207186E+02
-6.000000 8.000000 9.341943E+01
-6.000000 6.000000 4.910624E+01
-6.000000 4.000000 1.334652E+01
-6.000000 2.000000 -1.524887E-01
-6.000000 0.000000 6.348305E-01
-6.000000 -2.000000 4.170441E+00
-6.000000 -4.000000 7.415142E-01
-6.000000 -6.000000 -1.201515E+01
-6.000000 -8.000000 -2.543709E+01
-6.000000 -10.000000 -2.952106E+01
-6.000000 -12.000000 -2.722327E+01
-6.000000 -14.000000 -2.022835E+01
-6.000000 -16.000000 -1.101922E+01
-6.000000 -18.000000 -7.167964E-01
-6.000000 -20.000000 1.163824E+01
-6.000000 -22.000000 2.172745E+01
-6.000000 -24.000000 2.630364E+01
-6.000000 -26.000000 2.419844E+01
-6.000000 -28.000000 9.655088E+00
-6.000000 -30.000000 -1.109100E+01
-6.000000 -32.000000 -2.572247E+01
-6.000000 -34.000000 -3.094708E+01
-6.000000 -36.000000 -3.010037E+01
-6.000000 -38.000000 -2.571179E+01
-6.000000 -40.000000 -1.907296E+01
-4.000000 40.000000 -2.577542E+01
-4.000000 38.000000 -2.299058E+01
-4.000000 36.000000 -2.360021E+01
-4.000000 34.000000 -2.816668E+01
-4.000000 32.000000 -3.547368E+01
-4.000000 30.000000 -3.890149E+01
-4.000000 28.000000 -3.662107E+01
-4.000000 26.000000 -2.841404E+01
-4.000000 24.000000 -2.457924E+01
-4.000000 22.000000 -2.258438E+01
-4.000000 20.000000 -2.074244E+01
-4.000000 18.000000 -6.532757E+00
-4.000000 16.000000 2.382730E+01
-4.000000 14.000000 6.220701E+01
-4.000000 12.000000 9.440616E+01
-4.000000 10.000000 1.038967E+02
-4.000000 8.000000 8.884046E+01
-4.000000 6.000000 5.809476E+01
-4.000000 4.000000 3.142743E+01
-4.000000 2.000000 1.964156E+01
-4.000000 0.000000 1.996677E+01
-4.000000 -2.000000 2.258932E+01
-4.000000 -4.000000 1.861435E+01
-4.000000 -6.000000 3.978943E+00
-4.000000 -8.000000 -1.215169E+01
-4.000000 -10.000000 -1.991552E+01
-4.000000 -12.000000 -2.224142E+01
-4.000000 -14.000000 -1.828554E+01
-4.000000 -16.000000 -1.041497E+01
-4.000000 -18.000000 -1.681947E+00
-4.000000 -20.000000 8.961395E+00
-4.000000 -22.000000 1.867161E+01
-4.000000 -24.000000 2.474020E+01
-4.000000 -26.000000 2.370441E+01
-4.000000 -28.000000 1.054904E+01
-4.000000 -30.000000 -9.281841E+00
-4.000000 -32.000000 -2.347906E+01
-4.000000 -34.000000 -2.781453E+01
-4.000000 -36.000000 -2.553672E+01
-4.000000 -38.000000 -2.064390E+01
-4.000000 -40.000000 -1.392402E+01
-2.000000 40.000000 -2.715793E+01
-2.000000 38.000000 -2.346941E+01
-2.000000 36.000000 -2.372455E+01
-2.000000 34.000000 -2.744916E+01
-2.000000 32.000000 -3.379604E+01
-2.000000 30.000000 -3.595538E+01
-2.000000 28.000000 -3.236573E+01
-2.000000 26.000000 -2.391729E+01
-2.000000 24.000000 -1.913837E+01
-2.000000 22.000000 -1.618914E+01
-2.000000 20.000000 -1.357123E+01
-2.000000 18.000000 3.938904E-01
-2.000000 16.000000 2.961277E+01
-2.000000 14.000000 6.729924E+01
-2.000000 12.000000 1.011236E+02
-2.000000 10.000000 1.177411E+02
-2.000000 8.000000 1.111437E+02
-2.000000 6.000000 8.664542E+01
-2.000000 4.000000 5.849871E+01
-2.000000 2.000000 3.950446E+01
-2.000000 0.000000 3.224009E+01
-2.000000 -2.000000 2.953976E+01
-2.000000 -4.000000 2.309309E+01
-2.000000 -6.000000 7.757383E+00
-2.000000 -8.000000 -9.658457E+00
-2.000000 -10.000000 -2.123778E+01
-2.000000 -12.000000 -2.699607E+01
-2.000000 -14.000000 -2.608340E+01
-2.000000 -16.000000 -2.044985E+01
-2.000000 -18.000000 -1.322362E+01
-2.000000 -20.000000 -4.839556E+00
-2.000000 -22.000000 3.114240E+00
-2.000000 -24.000000 8.464651E+00
-2.000000 -26.000000 7.238914E+00
-2.000000 -28.000000 -2.471565E+00
-2.000000 -30.000000 -1.600251E+01
-2.000000 -32.000000 -2.528183E+01
-2.000000 -34.000000 -2.660072E+01
-2.000000 -36.000000 -2.079919E+01
-2.000000 -38.000000 -1.291712E+01
-2.000000 -40.000000 -4.533864E+00
0.000000 40.000000 -2.907793E+01
0.000000 38.000000 -2.207609E+01
0.000000 36.000000 -1.920056E+01
0.000000 34.000000 -1.905260E+01
0.000000 32.000000 -2.266738E+01
0.000000 30.000000 -2.308762E+01
0.000000 28.000000 -1.909945E+01
0.000000 26.000000 -1.184828E+01
0.000000 24.000000 -7.645229E+00
0.000000 22.000000 -5.561607E+00
0.000000 20.000000 -3.502705E+00
0.000000 18.000000 1.051477E+01
0.000000 16.000000 4.185763E+01
0.000000 14.000000 8.526711E+01
0.000000 12.000000 1.284937E+02
0.000000 10.000000 1.563189E+02
0.000000 8.000000 1.521036E+02
0.000000 6.000000 1.246689E+02
0.000000 4.000000 8.494833E+01
0.000000 2.000000 5.270416E+01
0.000000 0.000000 3.452412E+01
0.000000 -2.000000 2.569921E+01
0.000000 -4.000000 1.709168E+01
0.000000 -6.000000 1.739073E+00
0.000000 -8.000000 -1.650115E+01
0.000000 -10.000000 -3.135748E+01
0.000000 -12.000000 -3.934076E+01
0.000000 -14.000000 -4.103193E+01
0.000000 -16.000000 -3.773759E+01
0.000000 -18.000000 -3.223209E+01
0.000000 -20.000000 -2.626139E+01
0.000000 -22.000000 -2.079206E+01
0.000000 -24.000000 -1.706300E+01
0.000000 -26.000000 -1.729421E+01
0.000000 -28.000000 -2.229899E+01
0.000000 -30.000000 -2.870827E+01
0.000000 -32.000000 -3.118434E+01
0.000000 -34.000000 -2.721525E+01
0.000000 -36.000000 -1.611512E+01
0.000000 -38.000000 -4.186890E+00
0.000000 -40.000000 7.312874E+00
2.000000 40.000000 -3.060098E+01
2.000000 38.000000 -1.836603E+01
2.000000 36.000000 -1.056539E+01
2.000000 34.000000 -4.707396E+00
2.000000 32.000000 -5.051029E+00
2.000000 30.000000 -4.204659E+00
2.000000 28.000000 -5.951042E-01
2.000000 26.000000 5.489555E+00
2.000000 24.000000 9.838814E+00
2.000000 22.000000 9.718781E+00
2.000000 20.000000 9.306019E+00
2.000000 18.000000 2.113951E+01
2.000000 16.000000 5.340081E+01
2.000000 14.000000 1.034931E+02
2.000000 12.000000 1.587456E+02
2.000000 10.000000 1.994215E+02
2.000000 8.000000 1.953195E+02
2.000000 6.000000 1.600592E+02
2.000000 4.000000 1.037567E+02
2.000000 2.000000 5.600283E+01
2.000000 0.000000 2.734418E+01
2.000000 -2.000000 1.441350E+01
2.000000 -4.000000 5.913782E+00
2.000000 -6.000000 -8.571060E+00
2.000000 -8.000000 -2.718034E+01
2.000000 -10.000000 -4.367552E+01
2.000000 -12.000000 -5.310130E+01
2.000000 -14.000000 -5.712185E+01
2.000000 -16.000000 -5.561490E+01
2.000000 -18.000000 -5.171326E+01
2.000000 -20.000000 -4.797502E+01
2.000000 -22.000000 -4.504594E+01
2.000000 -24.000000 -4.306503E+01
2.000000 -26.000000 -4.233281E+01
2.000000 -28.000000 -4.280208E+01
2.000000 -30.000000 -4.288370E+01
2.000000 -32.000000 -3.857897E+01
2.000000 -34.000000 -2.876325E+01
2.000000 -36.000000 -1.201994E+01
2.000000 -38.000000 4.275120E+00
2.000000 -40.000000 1.997946E+01
4.000000 40.000000 -3.094975E+01
4.000000 38.000000 -1.255313E+01
4.000000 36.000000 1.031631E+00
4.000000 34.000000 1.243336E+01
4.000000 32.000000 1.428670E+01
4.000000 30.000000 1.495628E+01
4.000000 28.000000 1.777098E+01
4.000000 26.000000 2.380025E+01
4.000000 24.000000 3.072582E+01
4.000000 22.000000 2.892952E+01
4.000000 20.000000 2.459048E+01
4.000000 18.000000 2.930711E+01
4.000000 16.000000 5.635143E+01
4.000000 14.000000 1.081946E+02
4.000000 12.000000 1.724809E+02
4.000000 10.000000 2.246813E+02
4.000000 8.000000 2.236042E+02
4.000000 6.000000 1.828339E+02
4.000000 4.000000 1.123598E+02
4.000000 2.000000 5.073697E+01
4.000000 0.000000 1.348319E+01
4.000000 -2.000000 -9.105167E-01
4.000000 -4.000000 -6.207598E+00
4.000000 -6.000000 -1.774903E+01
4.000000 -8.000000 -3.534568E+01
4.000000 -10.000000 -5.094306E+01
4.000000 -12.000000 -6.116795E+01
4.000000 -14.000000 -6.755496E+01
4.000000 -16.000000 -6.731436E+01
4.000000 -18.000000 -6.407685E+01
4.000000 -20.000000 -6.172008E+01
4.000000 -22.000000 -6.083875E+01
4.000000 -24.000000 -6.049918E+01
4.000000 -26.000000 -6.064603E+01
4.000000 -28.000000 -5.834749E+01
4.000000 -30.000000 -5.386454E+01
4.000000 -32.000000 -4.398369E+01
4.000000 -34.000000 -2.984856E+01
4.000000 -36.000000 -8.876881E+00
4.000000 -38.000000 1.158979E+01
4.000000 -40.000000 3.196312E+01
6.000000 40.000000 -2.996820E+01
6.000000 38.000000 -4.847372E+00
6.000000 36.000000 1.421124E+01
6.000000 34.000000 2.876906E+01
6.000000 32.000000 3.012745E+01
6.000000 30.000000 2.841350E+01
6.000000 28.000000 2.936133E+01
6.000000 26.000000 3.648323E+01
6.000000 24.000000 4.800361E+01
6.000000 22.000000 4.596311E+01
6.000000 20.000000 3.784136E+01
6.000000 18.000000 3.187703E+01
6.000000 16.000000 4.728664E+01
6.000000 14.000000 9.443427E+01
6.000000 12.000000 1.621632E+02
6.000000 10.000000 2.220654E+02
6.000000 8.000000 2.288676E+02
6.000000 6.000000 1.900129E+02
6.000000 4.000000 1.134164E+02
6.000000 2.000000 4.152242E+01
6.000000 0.000000 -3.375252E+00
6.000000 -2.000000 -1.813852E+01
6.000000 -4.000000 -1.918650E+01
6.000000 -6.000000 -2.486435E+01
6.000000 -8.000000 -3.752594E+01
6.000000 -10.000000 -4.914009E+01
6.000000 -12.000000 -5.945277E+01
6.000000 -14.000000 -6.777628E+01
6.000000 -16.000000 -6.850930E+01
6.000000 -18.000000 -6.424365E+01
6.000000 -20.000000 -6.107422E+01
6.000000 -22.000000 -6.118600E+01
6.000000 -24.000000 -6.315255E+01
6.000000 -26.000000 -6.616742E+01
6.000000 -28.000000 -6.450969E+01
6.000000 -30.000000 -5.839510E+01
6.000000 -32.000000 -4.520153E+01
6.000000 -34.000000 -2.847028E+01
6.000000 -36.000000 -5.002882E+00
6.000000 -38.000000 1.759227E+01
6.000000 -40.000000 4.086268E+01
8.000000 40.000000 -2.716441E+01
8.000000 38.000000 3.798801E+00
8.000000 36.000000 2.684985E+01
8.000000 34.000000 4.145690E+01
8.000000 32.000000 3.872623E+01
8.000000 30.000000 3.189844E+01
8.000000 28.000000 2.916407E+01
8.000000 26.000000 3.685232E+01
8.000000 24.000000 5.168326E+01
8.000000 22.000000 5.023511E+01
8.000000 20.000000 3.926365E+01
8.000000 18.000000 2.406855E+01
8.000000 16.000000 2.811481E+01
8.000000 14.000000 6.843069E+01
8.000000 12.000000 1.370529E+02
8.000000 10.000000 2.024090E+02
8.000000 8.000000 2.195961E+02
8.000000 6.000000 1.874532E+02
8.000000 4.000000 1.118975E+02
8.000000 2.000000 3.384556E+01
8.000000 0.000000 -1.822613E+01
8.000000 -2.000000 -3.513146E+01
8.000000 -4.000000 -3.422980E+01
8.000000 -6.000000 -3.371697E+01
8.000000 -8.000000 -3.886691E+01
8.000000 -10.000000 -4.388391E+01
8.000000 -12.000000 -5.134331E+01
8.000000 -14.000000 -5.775892E+01
8.000000 -16.000000 -5.716467E+01
8.000000 -18.000000 -5.029878E+01
8.000000 -20.000000 -4.439132E+01
8.000000 -22.000000 -4.498458E+01
8.000000 -24.000000 -5.086284E+01
8.000000 -26.000000 -5.838949E+01
8.000000 -28.000000 -6.012221E+01
8.000000 -30.000000 -5.458938E+01
8.000000 -32.000000 -4.079271E+01
8.000000 -34.000000 -2.347965E+01
8.000000 -36.000000 5.850489E-01
8.000000 -38.000000 2.215809E+01
8.000000 -40.000000 4.540839E+01
10.000000 40.000000 -2.225796E+01
10.000000 38.000000 1.048326E+01
10.000000 36.000000 3.507080E+01
10.000000 34.000000 4.841893E+01
10.000000 32.000000 4.037848E+01
10.000000 30.000000 2.640297E+01
10.000000 28.000000 1.791448E+01
10.000000 26.000000 2.314934E+01
10.000000 24.000000 3.642330E+01
10.000000 22.000000 3.606058E+01
10.000000 20.000000 2.420382E+01
10.000000 18.000000 5.685360E+00
10.000000 16.000000 6.056482E+00
10.000000 14.000000 4.284659E+01
10.000000 12.000000 1.117950E+02
10.000000 10.000000 1.803734E+02
10.000000 8.000000 2.064680E+02
10.000000 6.000000 1.827537E+02
10.000000 4.000000 1.132677E+02
10.000000 2.000000 3.335924E+01
10.000000 0.000000 -2.539137E+01
10.000000 -2.000000 -4.846554E+01
10.000000 -4.000000 -5.088923E+01
10.000000 -6.000000 -4.782900E+01
10.000000 -8.000000 -4.580675E+01
10.000000 -10.000000 -4.305268E+01
10.000000 -12.000000 -4.425740E+01
10.000000 -14.000000 -4.487109E+01
10.000000 -16.000000 -3.892157E+01
10.000000 -18.000000 -2.677292E+01
10.000000 -20.000000 -1.706213E+01
10.000000 -22.000000 -1.886208E+01
10.000000 -24.000000 -2.983461E+01
10.000000 -26.000000 -4.220924E+01
10.000000 -28.000000 -4.667655E+01
10.000000 -30.000000 -4.218158E+01
10.000000 -32.000000 -2.981811E+01
10.000000 -34.000000 -1.527183E+01
10.000000 -36.000000 6.291606E+00
10.000000 -38.000000 2.507309E+01
10.000000 -40.000000 4.707818E+01
12.000000 40.000000 -1.810956E+01
12.000000 38.000000 1.275131E+01
12.000000 36.000000 3.740248E+01
12.000000 34.000000 4.991247E+01
12.000000 32.000000 3.773200E+01
12.000000 30.000000 1.679565E+01
12.000000 28.000000 1.315313E+00
12.000000 26.000000 1.164133E+00
12.000000 24.000000 7.898950E+00
12.000000 22.000000 7.937000E+00
12.000000 20.000000 -1.830481E+00
12.000000 18.000000 -1.558422E+01
12.000000 16.000000 -1.089846E+01
12.000000 14.000000 2.723799E+01
12.000000 12.000000 9.700568E+01
12.000000 10.000000 1.681065E+02
12.000000 8.000000 1.981494E+02
12.000000 6.000000 1.791732E+02
12.000000 4.000000 1.133281E+02
12.000000 2.000000 3.432959E+01
12.000000 0.000000 -2.580690E+01
12.000000 -2.000000 -5.461954E+01
12.000000 -4.000000 -6.281477E+01
12.000000 -6.000000 -6.176526E+01
12.000000 -8.000000 -5.771588E+01
12.000000 -10.000000 -4.981564E+01
12.000000 -12.000000 -4.392983E+01
12.000000 -14.000000 -3.698700E+01
12.000000 -16.000000 -2.358846E+01
12.000000 -18.000000 -5.071975E+00
12.000000 -20.000000 8.287138E+00
12.000000 -22.000000 5.827568E+00
12.000000 -24.000000 -8.630820E+00
12.000000 -26.000000 -2.290821E+01
12.000000 -28.000000 -2.701454E+01
12.000000 -30.000000 -2.298592E+01
12.000000 -32.000000 -1.349169E+01
12.000000 -34.000000 -4.583376E+00
12.000000 -36.000000 1.158279E+01
12.000000 -38.000000 2.704605E+01
12.000000 -40.000000 4.730333E+01
14.000000 40.000000 -1.889293E+01
14.000000 38.000000 1.028867E+01
14.000000 36.000000 3.629146E+01
14.000000 34.000000 4.897435E+01
14.000000 32.000000 3.421543E+01
14.000000 30.000000 8.591319E+00
14.000000 28.000000 -1.275053E+01
14.000000 26.000000 -1.939251E+01
14.000000 24.000000 -2.060587E+01
14.000000 22.000000 -2.074725E+01
14.000000 20.000000 -2.746874E+01
14.000000 18.000000 -3.243545E+01
14.000000 16.000000 -1.963316E+01
14.000000 14.000000 2.216507E+01
14.000000 12.000000 9.264975E+01
14.000000 10.000000 1.655917E+02
14.000000 8.000000 1.950742E+02
14.000000 6.000000 1.763095E+02
14.000000 4.000000 1.116105E+02
14.000000 2.000000 3.589145E+01
14.000000 0.000000 -2.156618E+01
14.000000 -2.000000 -5.427145E+01
14.000000 -4.000000 -6.830699E+01
14.000000 -6.000000 -7.250103E+01
14.000000 -8.000000 -7.225075E+01
14.000000 -10.000000 -6.448484E+01
14.000000 -12.000000 -5.345756E+01
14.000000 -14.000000 -3.891684E+01
14.000000 -16.000000 -1.791861E+01
14.000000 -18.000000 6.144645E+00
14.000000 -20.000000 2.246234E+01
14.000000 -22.000000 2.197532E+01
14.000000 -24.000000 8.650318E+00
14.000000 -26.000000 -3.724202E+00
14.000000 -28.000000 -5.194220E+00
14.000000 -30.000000 -7.086422E-01
14.000000 -32.000000 5.255989E+00
14.000000 -34.000000 6.758598E+00
14.000000 -36.000000 1.547400E+01
14.000000 -38.000000 2.797022E+01
14.000000 -40.000000 4.690869E+01
16.000000 40.000000 -2.434465E+01
16.000000 38.000000 3.807869E+00
16.000000 36.000000 3.156036E+01
16.000000 34.000000 4.583704E+01
16.000000 32.000000 3.140037E+01
16.000000 30.000000 4.413853E+00
16.000000 28.000000 -1.952150E+01
16.000000 26.000000 -3.019320E+01
16.000000 24.000000 -3.511478E+01
16.000000 22.000000 -3.405764E+01
16.000000 20.000000 -3.706733E+01
16.000000 18.000000 -3.433791E+01
16.000000 16.000000 -1.619130E+01
16.000000 14.000000 2.506760E+01
16.000000 12.000000 9.053375E+01
16.000000 10.000000 1.588562E+02
16.000000 8.000000 1.868101E+02
16.000000 6.000000 1.704950E+02
16.000000 4.000000 1.126622E+02
16.000000 2.000000 4.354872E+01
16.000000 0.000000 -1.284727E+01
16.000000 -2.000000 -4.939537E+01
16.000000 -4.000000 -7.052018E+01
16.000000 -6.000000 -8.374382E+01
16.000000 -8.000000 -9.004015E+01
16.000000 -10.000000 -8.608557E+01
16.000000 -12.000000 -7.249071E+01
16.000000 -14.000000 -5.217268E+01
16.000000 -16.000000 -2.503245E+01
16.000000 -18.000000 4.259982E+00
16.000000 -20.000000 2.482618E+01
16.000000 -22.000000 2.840041E+01
16.000000 -24.000000 2.059142E+01
16.000000 -26.000000 1.263774E+01
16.000000 -28.000000 1.458035E+01
16.000000 -30.000000 2.129188E+01
16.000000 -32.000000 2.445222E+01
16.000000 -34.000000 1.680626E+01
16.000000 -36.000000 1.615171E+01
16.000000 -38.000000 2.695378E+01
16.000000 -40.000000 4.592475E+01
18.000000 40.000000 -3.225499E+01
18.000000 38.000000 -5.511175E+00
18.000000 36.000000 2.222004E+01
18.000000 34.000000 3.943020E+01
18.000000 32.000000 2.863727E+01
18.000000 30.000000 3.414084E+00
18.000000 28.000000 -1.936066E+01
18.000000 26.000000 -2.815482E+01
18.000000 24.000000 -2.909588E+01
18.000000 22.000000 -2.348375E+01
18.000000 20.000000 -2.123270E+01
18.000000 18.000000 -1.564247E+01
18.000000 16.000000 3.663998E-01
18.000000 14.000000 3.435294E+01
18.000000 12.000000 8.833869E+01
18.000000 10.000000 1.458328E+02
18.000000 8.000000 1.725857E+02
18.000000 6.000000 1.618004E+02
18.000000 4.000000 1.159038E+02
18.000000 2.000000 5.627000E+01
18.000000 0.000000 1.168084E+00
18.000000 -2.000000 -4.085075E+01
18.000000 -4.000000 -7.289012E+01
18.000000 -6.000000 -9.911694E+01
18.000000 -8.000000 -1.134399E+02
18.000000 -10.000000 -1.144935E+02
18.000000 -12.000000 -9.880893E+01
18.000000 -14.000000 -7.408390E+01
18.000000 -16.000000 -4.265807E+01
18.000000 -18.000000 -8.900572E+00
18.000000 -20.000000 1.657417E+01
18.000000 -22.000000 2.508892E+01
18.000000 -24.000000 2.491203E+01
18.000000 -26.000000 2.276021E+01
18.000000 -28.000000 2.809131E+01
18.000000 -30.000000 3.810395E+01
18.000000 -32.000000 3.996110E+01
18.000000 -34.000000 2.427534E+01
18.000000 -36.000000 1.523488E+01
18.000000 -38.000000 2.516763E+01
18.000000 -40.000000 4.411099E+01
20.000000 40.000000 -4.222231E+01
20.000000 38.000000 -1.624225E+01
20.000000 36.000000 1.182516E+01
20.000000 34.000000 3.341073E+01
20.000000 32.000000 2.767746E+01
20.000000 30.000000 5.649651E+00
20.000000 28.000000 -1.362354E+01
20.000000 26.000000 -1.709414E+01
20.000000 24.000000 -9.521286E+00
20.000000 22.000000 1.981839E+00
20.000000 20.000000 9.023344E+00
20.000000 18.000000 1.362074E+01
20.000000 16.000000 2.262957E+01
20.000000 14.000000 4.651986E+01
20.000000 12.000000 8.840861E+01
20.000000 10.000000 1.348729E+02
20.000000 8.000000 1.613600E+02
20.000000 6.000000 1.572424E+02
20.000000 4.000000 1.233464E+02
20.000000 2.000000 7.296967E+01
20.000000 0.000000 1.976812E+01
20.000000 -2.000000 -2.918064E+01
20.000000 -4.000000 -7.416858E+01
20.000000 -6.000000 -1.136854E+02
20.000000 -8.000000 -1.362423E+02
20.000000 -10.000000 -1.428431E+02
20.000000 -12.000000 -1.263098E+02
20.000000 -14.000000 -9.875299E+01
20.000000 -16.000000 -6.452724E+01
20.000000 -18.000000 -2.902229E+01
20.000000 -20.000000 -1.220900E+00
20.000000 -22.000000 1.235872E+01
20.000000 -24.000000 1.850582E+01
20.000000 -26.000000 2.189794E+01
20.000000 -28.000000 2.982591E+01
20.000000 -30.000000 4.059809E+01
20.000000 -32.000000 4.209997E+01
20.000000 -34.000000 2.673982E+01
20.000000 -36.000000 1.732183E+01
20.000000 -38.000000 2.597269E+01
20.000000 -40.000000 4.281564E+01
22.000000 40.000000 -5.338531E+01
22.000000 38.000000 -2.704659E+01
22.000000 36.000000 3.225334E+00
22.000000 34.000000 3.051998E+01
22.000000 32.000000 3.047111E+01
22.000000 30.000000 1.219564E+01
22.000000 28.000000 -3.792978E+00
22.000000 26.000000 -3.863034E+00
22.000000 24.000000 9.937155E+00
22.000000 22.000000 2.458646E+01
22.000000 20.000000 3.275797E+01
22.000000 18.000000 3.442908E+01
22.000000 16.000000 3.880146E+01
22.000000 14.000000 5.818709E+01
22.000000 12.000000 9.499660E+01
22.000000 10.000000 1.365272E+02
22.000000 8.000000 1.628326E+02
22.000000 6.000000 1.633118E+02
22.000000 4.000000 1.362707E+02
22.000000 2.000000 9.019877E+01
22.000000 0.000000 3.647903E+01
22.000000 -2.000000 -1.895301E+01
22.000000 -4.000000 -7.297047E+01
22.000000 -6.000000 -1.202734E+02
22.000000 -8.000000 -1.486364E+02
22.000000 -10.000000 -1.595540E+02
22.000000 -12.000000 -1.448633E+02
22.000000 -14.000000 -1.182061E+02
22.000000 -16.000000 -8.468564E+01
22.000000 -18.000000 -5.127767E+01
22.000000 -20.000000 -2.459758E+01
22.000000 -22.000000 -8.367397E+00
22.000000 -24.000000 1.298187E+00
22.000000 -26.000000 7.931615E+00
22.000000 -28.000000 1.652962E+01
22.000000 -30.000000 2.579750E+01
22.000000 -32.000000 2.877346E+01
22.000000 -34.000000 2.208582E+01
22.000000 -36.000000 2.084692E+01
22.000000 -38.000000 2.928533E+01
22.000000 -40.000000 4.338545E+01
24.000000 40.000000 -6.442472E+01
24.000000 38.000000 -3.746267E+01
24.000000 36.000000 -3.308640E+00
24.000000 34.000000 3.063058E+01
24.000000 32.000000 3.690201E+01
24.000000 30.000000 2.191124E+01
24.000000 28.000000 6.635063E+00
24.000000 26.000000 5.893164E+00
24.000000 24.000000 2.041933E+01
24.000000 22.000000 3.353952E+01
24.000000 20.000000 3.878201E+01
24.000000 18.000000 3.758781E+01
24.000000 16.000000 4.342919E+01
24.000000 14.000000 6.756064E+01
24.000000 12.000000 1.085182E+02
24.000000 10.000000 1.523044E+02
24.000000 8.000000 1.775586E+02
24.000000 6.000000 1.784032E+02
24.000000 4.000000 1.515474E+02
24.000000 2.000000 1.045778E+02
24.000000 0.000000 4.849089E+01
24.000000 -2.000000 -1.091345E+01
24.000000 -4.000000 -6.855196E+01
24.000000 -6.000000 -1.182269E+02
24.000000 -8.000000 -1.495141E+02
24.000000 -10.000000 -1.631049E+02
24.000000 -12.000000 -1.518790E+02
24.000000 -14.000000 -1.288571E+02
24.000000 -16.000000 -9.962205E+01
24.000000 -18.000000 -7.122755E+01
24.000000 -20.000000 -4.816911E+01
24.000000 -22.000000 -3.274779E+01
24.000000 -24.000000 -2.255573E+01
24.000000 -26.000000 -1.562615E+01
24.000000 -28.000000 -7.983284E+00
24.000000 -30.000000 5.370822E-01
24.000000 -32.000000 7.559785E+00
24.000000 -34.000000 1.132079E+01
24.000000 -36.000000 2.093300E+01
24.000000 -38.000000 3.186332E+01
24.000000 -40.000000 4.524884E+01
26.000000 40.000000 -7.480248E+01
26.000000 38.000000 -4.676544E+01
26.000000 36.000000 -7.989582E+00
26.000000 34.000000 3.267891E+01
26.000000 32.000000 4.442629E+01
26.000000 30.000000 3.073262E+01
26.000000 28.000000 1.362490E+01
26.000000 26.000000 1.019015E+01
26.000000 24.000000 2.242281E+01
26.000000 22.000000 3.123267E+01
26.000000 20.000000 3.098987E+01
26.000000 18.000000 2.723729E+01
26.000000 16.000000 3.743115E+01
26.000000 14.000000 7.134311E+01
26.000000 12.000000 1.223507E+02
26.000000 10.000000 1.726619E+02
26.000000 8.000000 1.962990E+02
26.000000 6.000000 1.936881E+02
26.000000 4.000000 1.631629E+02
26.000000 2.000000 1.130293E+02
26.000000 0.000000 5.469427E+01
26.000000 -2.000000 -5.480415E+00
26.000000 -4.000000 -6.221812E+01
26.000000 -6.000000 -1.106188E+02
26.000000 -8.000000 -1.428677E+02
26.000000 -10.000000 -1.577984E+02
26.000000 -12.000000 -1.500480E+02
26.000000 -14.000000 -1.314750E+02
26.000000 -16.000000 -1.080458E+02
26.000000 -18.000000 -8.581843E+01
26.000000 -20.000000 -6.727030E+01
26.000000 -22.000000 -5.434003E+01
26.000000 -24.000000 -4.581583E+01
26.000000 -26.000000 -4.078693E+01
26.000000 -28.000000 -3.481683E+01
26.000000 -30.000000 -2.632063E+01
26.000000 -32.000000 -1.493264E+01
26.000000 -34.000000 -2.199343E+00
26.000000 -36.000000 1.717536E+01
26.000000 -38.000000 3.203982E+01
26.000000 -40.000000 4.657403E+01
28.000000 40.000000 -8.438557E+01
28.000000 38.000000 -5.458189E+01
28.000000 36.000000 -1.129485E+01
28.000000 34.000000 3.445893E+01
28.000000 32.000000 4.957167E+01
28.000000 30.000000 3.546417E+01
28.000000 28.000000 1.573593E+01
28.000000 26.000000 1.008597E+01
28.000000 24.000000 1.983069E+01
28.000000 22.000000 2.439970E+01
28.000000 20.000000 1.793053E+01
28.000000 18.000000 1.139545E+01
28.000000 16.000000 2.590518E+01
28.000000 14.000000 6.884894E+01
28.000000 12.000000 1.292956E+02
28.000000 10.000000 1.852983E+02
28.000000 8.000000 2.061805E+02
28.000000 6.000000 1.987828E+02
28.000000 4.000000 1.639743E+02
28.000000 2.000000 1.118284E+02
28.000000 0.000000 5.384948E+01
28.000000 -2.000000 -3.644258E+00
28.000000 -4.000000 -5.625886E+01
28.000000 -6.000000 -1.007193E+02
28.000000 -8.000000 -1.329278E+02
28.000000 -10.000000 -1.489894E+02
28.000000 -12.000000 -1.440262E+02
28.000000 -14.000000 -1.292734E+02
28.000000 -16.000000 -1.108721E+02
28.000000 -18.000000 -9.351115E+01
28.000000 -20.000000 -7.815639E+01
28.000000 -22.000000 -6.702183E+01
28.000000 -24.000000 -6.067496E+01
28.000000 -26.000000 -5.836221E+01
28.000000 -28.000000 -5.440077E+01
28.000000 -30.000000 -4.630834E+01
28.000000 -32.000000 -3.255184E+01
28.000000 -34.000000 -1.428644E+01
28.000000 -36.000000 1.100464E+01
28.000000 -38.000000 2.922628E+01
28.000000 -40.000000 4.553503E+01
30.000000 40.000000 -9.338795E+01
30.000000 38.000000 -6.210431E+01
30.000000 36.000000 -1.430530E+01
30.000000 34.000000 3.540005E+01
30.000000 32.000000 5.137664E+01
30.000000 30.000000 3.477193E+01
30.000000 28.000000 1.209892E+01
30.000000 26.000000 6.190887E+00
30.000000 24.000000 1.560006E+01
30.000000 22.000000 1.746984E+01
30.000000 20.000000 5.774527E+00
30.000000 18.000000 -3.854676E+00
30.000000 16.000000 1.284862E+01
30.000000 14.000000 6.019401E+01
30.000000 12.000000 1.252121E+02
30.000000 10.000000 1.827269E+02
30.000000 8.000000 1.989529E+02
30.000000 6.000000 1.868340E+02
30.000000 4.000000 1.493614E+02
30.000000 2.000000 9.865960E+01
30.000000 0.000000 4.538583E+01
30.000000 -2.000000 -5.717834E+00
30.000000 -4.000000 -5.197461E+01
30.000000 -6.000000 -9.021275E+01
30.000000 -8.000000 -1.217670E+02
30.000000 -10.000000 -1.403391E+02
30.000000 -12.000000 -1.379287E+02
30.000000 -14.000000 -1.257729E+02
30.000000 -16.000000 -1.099902E+02
30.000000 -18.000000 -9.366047E+01
30.000000 -20.000000 -7.849341E+01
30.000000 -22.000000 -6.730636E+01
30.000000 -24.000000 -6.214494E+01
30.000000 -26.000000 -6.206020E+01
30.000000 -28.000000 -6.000434E+01
30.000000 -30.000000 -5.265641E+01
30.000000 -32.000000 -3.889613E+01
30.000000 -34.000000 -2.089824E+01
30.000000 -36.000000 3.115808E+00
30.000000 -38.000000 2.285027E+01
30.000000 -40.000000 4.113377E+01
32.000000 40.000000 -1.014538E+02
32.000000 38.000000 -6.982354E+01
32.000000 36.000000 -1.876282E+01
32.000000 34.000000 3.366538E+01
32.000000 32.000000 4.917612E+01
32.000000 30.000000 2.978400E+01
32.000000 28.000000 5.505188E+00
32.000000 26.000000 3.688154E-01
32.000000 24.000000 9.530852E+00
32.000000 22.000000 1.011382E+01
32.000000 20.000000 -3.416283E+00
32.000000 18.000000 -1.481958E+01
32.000000 16.000000 1.153293E+00
32.000000 14.000000 4.605682E+01
32.000000 12.000000 1.078607E+02
32.000000 10.000000 1.617815E+02
32.000000 8.000000 1.737969E+02
32.000000 6.000000 1.575749E+02
32.000000 4.000000 1.198917E+02
32.000000 2.000000 7.427684E+01
32.000000 0.000000 2.953180E+01
32.000000 -2.000000 -1.116282E+01
32.000000 -4.000000 -4.727487E+01
32.000000 -6.000000 -7.840984E+01
32.000000 -8.000000 -1.102704E+02
32.000000 -10.000000 -1.324113E+02
32.000000 -12.000000 -1.333542E+02
32.000000 -14.000000 -1.225938E+02
32.000000 -16.000000 -1.056229E+02
32.000000 -18.000000 -8.603335E+01
32.000000 -20.000000 -6.805188E+01
32.000000 -22.000000 -5.521598E+01
32.000000 -24.000000 -5.022962E+01
32.000000 -26.000000 -5.209166E+01
32.000000 -28.000000 -5.193681E+01
32.000000 -30.000000 -4.506318E+01
32.000000 -32.000000 -3.297187E+01
32.000000 -34.000000 -2.080132E+01
32.000000 -36.000000 -4.616045E+00
32.000000 -38.000000 1.463902E+01
32.000000 -40.000000 3.447361E+01
34.000000 40.000000 -1.080198E+02
34.000000 38.000000 -7.789105E+01
34.000000 36.000000 -2.772383E+01
34.000000 34.000000 2.521565E+01
34.000000 32.000000 4.214927E+01
34.000000 30.000000 2.378118E+01
34.000000 28.000000 1.018129E+00
34.000000 26.000000 -3.760745E+00
34.000000 24.000000 3.218287E+00
34.000000 22.000000 1.867805E+00
34.000000 20.000000 -1.101717E+01
34.000000 18.000000 -2.043380E+01
34.000000 16.000000 -6.203852E+00
34.000000 14.000000 3.148449E+01
34.000000 12.000000 8.148191E+01
34.000000 10.000000 1.241612E+02
34.000000 8.000000 1.333623E+02
34.000000 6.000000 1.156061E+02
34.000000 4.000000 8.068648E+01
34.000000 2.000000 4.368014E+01
34.000000 0.000000 1.088216E+01
34.000000 -2.000000 -1.616478E+01
34.000000 -4.000000 -3.912095E+01
34.000000 -6.000000 -6.539252E+01
34.000000 -8.000000 -9.950815E+01
34.000000 -10.000000 -1.259043E+02
34.000000 -12.000000 -1.319042E+02
34.000000 -14.000000 -1.223541E+02
34.000000 -16.000000 -1.003156E+02
34.000000 -18.000000 -7.299610E+01
34.000000 -20.000000 -4.927173E+01
34.000000 -22.000000 -3.387624E+01
34.000000 -24.000000 -2.905191E+01
34.000000 -26.000000 -3.292860E+01
34.000000 -28.000000 -3.589168E+01
34.000000 -30.000000 -3.101501E+01
34.000000 -32.000000 -2.250218E+01
34.000000 -34.000000 -1.635947E+01
34.000000 -36.000000 -7.203573E+00
34.000000 -38.000000 9.496263E+00
34.000000 -40.000000 2.817784E+01
36.000000 40.000000 -1.138859E+02
36.000000 38.000000 -8.756634E+01
36.000000 36.000000 -4.160085E+01
36.000000 34.000000 1.072556E+01
36.000000 32.000000 3.129976E+01
36.000000 30.000000 1.736140E+01
36.000000 28.000000 -1.523954E+00
36.000000 26.000000 -4.396558E+00
36.000000 24.000000 1.161451E+00
36.000000 22.000000 -3.718901E+00
36.000000 20.000000 -1.618153E+01
36.000000 18.000000 -2.223172E+01
36.000000 16.000000 -1.009424E+01
36.000000 14.000000 1.892501E+01
36.000000 12.000000 5.330670E+01
36.000000 10.000000 7.949812E+01
36.000000 8.000000 8.730154E+01
36.000000 6.000000 7.166581E+01
36.000000 4.000000 4.273379E+01
36.000000 2.000000 1.601441E+01
36.000000 0.000000 -3.477090E+00
36.000000 -2.000000 -1.682497E+01
36.000000 -4.000000 -2.926921E+01
36.000000 -6.000000 -5.258849E+01
36.000000 -8.000000 -8.873029E+01
36.000000 -10.000000 -1.206465E+02
36.000000 -12.000000 -1.326791E+02
36.000000 -14.000000 -1.249168E+02
36.000000 -16.000000 -9.740065E+01
36.000000 -18.000000 -6.126523E+01
36.000000 -20.000000 -3.138401E+01
36.000000 -22.000000 -1.453091E+01
36.000000 -24.000000 -9.988801E+00
36.000000 -26.000000 -1.456256E+01
36.000000 -28.000000 -1.956404E+01
36.000000 -30.000000 -1.744893E+01
36.000000 -32.000000 -1.261112E+01
36.000000 -34.000000 -8.294195E+00
36.000000 -36.000000 -1.346107E+00
36.000000 -38.000000 1.089282E+01
36.000000 -40.000000 2.480103E+01
38.000000 40.000000 -1.199214E+02
38.000000 38.000000 -9.804161E+01
38.000000 36.000000 -5.705817E+01
38.000000 34.000000 -6.607220E+00
38.000000 32.000000 1.796678E+01
38.000000 30.000000 1.009694E+01
38.000000 28.000000 -3.820482E+00
38.000000 26.000000 -3.688139E+00
38.000000 24.000000 1.239439E+00
38.000000 22.000000 -7.441090E+00
38.000000 20.000000 -2.012139E+01
38.000000 18.000000 -2.376384E+01
38.000000 16.000000 -1.346442E+01
38.000000 14.000000 8.422090E+00
38.000000 12.000000 3.176724E+01
38.000000 10.000000 4.674249E+01
38.000000 8.000000 5.346299E+01
38.000000 6.000000 3.981094E+01
38.000000 4.000000 1.680033E+01
38.000000 2.000000 -4.809113E-01
38.000000 0.000000 -8.762905E+00
38.000000 -2.000000 -1.331748E+01
38.000000 -4.000000 -2.066868E+01
38.000000 -6.000000 -4.259563E+01
38.000000 -8.000000 -7.949244E+01
38.000000 -10.000000 -1.150292E+02
38.000000 -12.000000 -1.318258E+02
38.000000 -14.000000 -1.267168E+02
38.000000 -16.000000 -9.806351E+01
38.000000 -18.000000 -5.882748E+01
38.000000 -20.000000 -2.630141E+01
38.000000 -22.000000 -9.055397E+00
38.000000 -24.000000 -3.077509E+00
38.000000 -26.000000 -5.312182E+00
38.000000 -28.000000 -7.934461E+00
38.000000 -30.000000 -6.111653E+00
38.000000 -32.000000 -1.773023E+00
38.000000 -34.000000 3.640116E+00
38.000000 -36.000000 1.023277E+01
38.000000 -38.000000 1.730700E+01
38.000000 -40.000000 2.500435E+01
40.000000 40.000000 -1.255733E+02
40.000000 38.000000 -1.070272E+02
40.000000 36.000000 -7.146230E+01
40.000000 34.000000 -2.549154E+01
40.000000 32.000000 1.830721E+00
40.000000 30.000000 1.548544E+00
40.000000 28.000000 -6.399576E+00
40.000000 26.000000 -5.427903E+00
40.000000 24.000000 -3.576478E+00
40.000000 22.000000 -1.518067E+01
40.000000 20.000000 -2.760917E+01
40.000000 18.000000 -2.772126E+01
40.000000 16.000000 -1.571032E+01
40.000000 14.000000 5.353129E+00
40.000000 12.000000 2.801731E+01
40.000000 10.000000 4.173384E+01
40.000000 8.000000 4.108211E+01
40.000000 6.000000 2.345010E+01
40.000000 4.000000 2.818034E+00
40.000000 2.000000 -7.557694E+00
40.000000 0.000000 -9.363664E+00
40.000000 -2.000000 -1.015527E+01
40.000000 -4.000000 -1.629726E+01
40.000000 -6.000000 -3.769734E+01
40.000000 -8.000000 -7.331987E+01
40.000000 -10.000000 -1.076630E+02
40.000000 -12.000000 -1.258753E+02
40.000000 -14.000000 -1.245172E+02
40.000000 -16.000000 -9.954353E+01
40.000000 -18.000000 -6.403261E+01
40.000000 -20.000000 -3.328765E+01
40.000000 -22.000000 -1.576052E+01
40.000000 -24.000000 -6.563279E+00
40.000000 -26.000000 -3.299187E+00
40.000000 -28.000000 -1.011081E+00
40.000000 -30.000000 2.933217E+00
40.000000 -32.000000 9.193282E+00
40.000000 -34.000000 1.608373E+01
40.000000 -36.000000 2.209304E+01
40.000000 -38.000000 2.389624E+01
40.000000 -40.000000 2.537524E+01
42.000000 40.000000 -1.296646E+02
42.000000 38.000000 -1.135634E+02
42.000000 36.000000 -8.350437E+01
42.000000 34.000000 -4.363440E+01
42.000000 32.000000 -1.564239E+01
42.000000 30.000000 -9.066288E+00
42.000000 28.000000 -1.148143E+01
42.000000 26.000000 -1.149114E+01
42.000000 24.000000 -1.411202E+01
42.000000 22.000000 -2.654966E+01
42.000000 20.000000 -3.699853E+01
42.000000 18.000000 -3.208268E+01
42.000000 16.000000 -1.462497E+01
42.000000 14.000000 1.000431E+01
42.000000 12.000000 3.485282E+01
42.000000 10.000000 4.850940E+01
42.000000 8.000000 4.080146E+01
42.000000 6.000000 1.984632E+01
42.000000 4.000000 -2.640653E-01
42.000000 2.000000 -7.703673E+00
42.000000 0.000000 -7.311965E+00
42.000000 -2.000000 -7.490667E+00
42.000000 -4.000000 -1.475925E+01
42.000000 -6.000000 -3.588785E+01
42.000000 -8.000000 -6.770198E+01
42.000000 -10.000000 -9.824630E+01
42.000000 -12.000000 -1.148886E+02
42.000000 -14.000000 -1.160942E+02
42.000000 -16.000000 -9.782098E+01
42.000000 -18.000000 -6.955721E+01
42.000000 -20.000000 -4.312129E+01
42.000000 -22.000000 -2.605963E+01
42.000000 -24.000000 -1.424687E+01
42.000000 -26.000000 -5.451916E+00
42.000000 -28.000000 7.983189E-01
42.000000 -30.000000 7.512207E+00
42.000000 -32.000000 1.601811E+01
42.000000 -34.000000 2.374302E+01
42.000000 -36.000000 2.897535E+01
42.000000 -38.000000 2.669558E+01
42.000000 -40.000000 2.343869E+01
44.000000 40.000000 -1.311994E+02
44.000000 38.000000 -1.170730E+02
44.000000 36.000000 -9.164215E+01
44.000000 34.000000 -5.770030E+01
44.000000 32.000000 -3.090688E+01
44.000000 30.000000 -2.080232E+01
44.000000 28.000000 -2.016796E+01
44.000000 26.000000 -2.112146E+01
44.000000 24.000000 -2.688976E+01
44.000000 22.000000 -3.768317E+01
44.000000 20.000000 -4.454468E+01
44.000000 18.000000 -3.563377E+01
44.000000 16.000000 -1.331878E+01
44.000000 14.000000 1.455585E+01
44.000000 12.000000 3.938520E+01
44.000000 10.000000 5.109273E+01
44.000000 8.000000 4.093783E+01
44.000000 6.000000 2.155878E+01
44.000000 4.000000 4.708998E+00
44.000000 2.000000 -6.258922E-01
44.000000 0.000000 5.973482E-02
44.000000 -2.000000 -1.410479E+00
44.000000 -4.000000 -1.085492E+01
44.000000 -6.000000 -3.158237E+01
44.000000 -8.000000 -5.847674E+01
44.000000 -10.000000 -8.457384E+01
44.000000 -12.000000 -9.933928E+01
44.000000 -14.000000 -1.023628E+02
44.000000 -16.000000 -9.188065E+01
44.000000 -18.000000 -7.213824E+01
44.000000 -20.000000 -5.156687E+01
44.000000 -22.000000 -3.619060E+01
44.000000 -24.000000 -2.371045E+01
44.000000 -26.000000 -1.329631E+01
44.000000 -28.000000 -5.195760E+00
44.000000 -30.000000 3.788006E+00
44.000000 -32.000000 1.399484E+01
44.000000 -34.000000 2.260644E+01
44.000000 -36.000000 2.755812E+01
44.000000 -38.000000 2.465714E+01
44.000000 -40.000000 2.047764E+01
46.000000 40.000000 -1.304346E+02
46.000000 38.000000 -1.179829E+02
46.000000 36.000000 -9.588915E+01
46.000000 34.000000 -6.651124E+01
46.000000 32.000000 -4.188465E+01
46.000000 30.000000 -3.112683E+01
46.000000 28.000000 -2.933623E+01
46.000000 26.000000 -3.053637E+01
46.000000 24.000000 -3.716651E+01
46.000000 22.000000 -4.473595E+01
46.000000 20.000000 -4.798996E+01
46.000000 18.000000 -3.728786E+01
46.000000 16.000000 -1.388388E+01
46.000000 14.000000 1.394050E+01
46.000000 12.000000 3.706492E+01
46.000000 10.000000 4.730019E+01
46.000000 8.000000 3.856376E+01
46.000000 6.000000 2.389597E+01
46.000000 4.000000 1.231388E+01
46.000000 2.000000 9.435874E+00
46.000000 0.000000 1.002604E+01
46.000000 -2.000000 6.908344E+00
46.000000 -4.000000 -3.728839E+00
46.000000 -6.000000 -2.286091E+01
46.000000 -8.000000 -4.539963E+01
46.000000 -10.000000 -6.675113E+01
46.000000 -12.000000 -8.084269E+01
46.000000 -14.000000 -8.679279E+01
46.000000 -16.000000 -8.320015E+01
46.000000 -18.000000 -7.180454E+01
46.000000 -20.000000 -5.786718E+01
46.000000 -22.000000 -4.585916E+01
46.000000 -24.000000 -3.520360E+01
46.000000 -26.000000 -2.650499E+01
46.000000 -28.000000 -1.863510E+01
46.000000 -30.000000 -8.892863E+00
46.000000 -32.000000 2.240790E+00
46.000000 -34.000000 1.224633E+01
46.000000 -36.000000 1.830249E+01
46.000000 -38.000000 1.776022E+01
46.000000 -40.000000 1.581756E+01
48.000000 40.000000 -1.285771E+02
48.000000 38.000000 -1.176601E+02
48.000000 36.000000 -9.759218E+01
48.000000 34.000000 -7.039584E+01
48.000000 32.000000 -4.744036E+01
48.000000 30.000000 -3.740027E+01
48.000000 28.000000 -3.480887E+01
48.000000 26.000000 -3.485409E+01
48.000000 24.000000 -3.969611E+01
48.000000 22.000000 -4.399686E+01
48.000000 20.000000 -4.510092E+01
48.000000 18.000000 -3.450416E+01
48.000000 16.000000 -1.378165E+01
48.000000 14.000000 1.044331E+01
48.000000 12.000000 3.025475E+01
48.000000 10.000000 3.839559E+01
48.000000 8.000000 3.132561E+01
48.000000 6.000000 2.127299E+01
48.000000 4.000000 1.584028E+01
48.000000 2.000000 1.708846E+01
48.000000 0.000000 1.922105E+01
48.000000 -2.000000 1.550149E+01
48.000000 -4.000000 4.563791E+00
48.000000 -6.000000 -1.259347E+01
48.000000 -8.000000 -3.146290E+01
48.000000 -10.000000 -4.835427E+01
48.000000 -12.000000 -6.210971E+01
48.000000 -14.000000 -7.115176E+01
48.000000 -16.000000 -7.344423E+01
48.000000 -18.000000 -6.894150E+01
48.000000 -20.000000 -6.101957E+01
48.000000 -22.000000 -5.386030E+01
48.000000 -24.000000 -4.789388E+01
48.000000 -26.000000 -4.305047E+01
48.000000 -28.000000 -3.723008E+01
48.000000 -30.000000 -2.865984E+01
48.000000 -32.000000 -1.715954E+01
48.000000 -34.000000 -5.215306E+00
48.000000 -36.000000 3.563109E+00
48.000000 -38.000000 6.562921E+00
48.000000 -40.000000 8.016041E+00
50.000000 40.000000 -1.264184E+02
50.000000 38.000000 -1.162742E+02
50.000000 36.000000 -9.721594E+01
50.000000 34.000000 -7.099304E+01
50.000000 32.000000 -4.889982E+01
50.000000 30.000000 -3.882484E+01
50.000000 28.000000 -3.407081E+01
50.000000 26.000000 -3.102462E+01
50.000000 24.000000 -3.130944E+01
50.000000 22.000000 -3.281300E+01
50.000000 20.000000 -3.333543E+01
50.000000 18.000000 -2.433722E+01
50.000000 16.000000 -8.436824E+00
50.000000 14.000000 9.757808E+00
50.000000 12.000000 2.372970E+01
50.000000 10.000000 2.644052E+01
50.000000 8.000000 1.761592E+01
50.000000 6.000000 9.110740E+00
50.000000 4.000000 1.007993E+01
50.000000 2.000000 1.821837E+01
50.000000 0.000000 2.471446E+01
50.000000 -2.000000 2.192019E+01
50.000000 -4.000000 1.104906E+01
50.000000 -6.000000 -4.626699E+00
50.000000 -8.000000 -2.070414E+01
50.000000 -10.000000 -3.307037E+01
50.000000 -12.000000 -4.579153E+01
50.000000 -14.000000 -5.682332E+01
50.000000 -16.000000 -6.322141E+01
50.000000 -18.000000 -6.318603E+01
50.000000 -20.000000 -5.970788E+01
50.000000 -22.000000 -5.824175E+01
50.000000 -24.000000 -5.926781E+01
50.000000 -26.000000 -6.029512E+01
50.000000 -28.000000 -5.811605E+01
50.000000 -30.000000 -5.239850E+01
50.000000 -32.000000 -4.085165E+01
50.000000 -34.000000 -2.662700E+01
50.000000 -36.000000 -1.426985E+01
50.000000 -38.000000 -7.244281E+00
50.000000 -40.000000 -2.022486E+00
52.000000 40.000000 -1.244592E+02
52.000000 38.000000 -1.140363E+02
52.000000 36.000000 -9.552723E+01
52.000000 34.000000 -7.022851E+01
52.000000 32.000000 -4.851685E+01
52.000000 30.000000 -3.653700E+01
52.000000 28.000000 -2.729213E+01
52.000000 26.000000 -1.851928E+01
52.000000 24.000000 -1.219266E+01
52.000000 22.000000 -1.119100E+01
52.000000 20.000000 -1.231314E+01
52.000000 18.000000 -5.791852E+00
52.000000 16.000000 5.884500E+00
52.000000 14.000000 1.728632E+01
52.000000 12.000000 2.160047E+01
52.000000 10.000000 1.386961E+01
52.000000 8.000000 -1.101367E+00
52.000000 6.000000 -1.197621E+01
52.000000 4.000000 -6.235598E+00
52.000000 2.000000 1.019222E+01
52.000000 0.000000 2.346885E+01
52.000000 -2.000000 2.325721E+01
52.000000 -4.000000 1.278652E+01
52.000000 -6.000000 -2.851978E+00
52.000000 -8.000000 -1.689037E+01
52.000000 -10.000000 -2.495213E+01
52.000000 -12.000000 -3.433840E+01
52.000000 -14.000000 -4.446201E+01
52.000000 -16.000000 -5.212745E+01
52.000000 -18.000000 -5.332623E+01
52.000000 -20.000000 -5.244800E+01
52.000000 -22.000000 -5.681962E+01
52.000000 -24.000000 -6.638351E+01
52.000000 -26.000000 -7.514840E+01
52.000000 -28.000000 -7.797817E+01
52.000000 -30.000000 -7.601677E+01
52.000000 -32.000000 -6.467954E+01
52.000000 -34.000000 -4.846777E+01
52.000000 -36.000000 -3.279630E+01
52.000000 -38.000000 -2.204963E+01
52.000000 -40.000000 -1.309359E+01
54.000000 40.000000 -1.223939E+02
54.000000 38.000000 -1.114161E+02
54.000000 36.000000 -9.378418E+01
54.000000 34.000000 -6.913361E+01
54.000000 32.000000 -4.719723E+01
54.000000 30.000000 -3.243652E+01
54.000000 28.000000 -1.730943E+01
54.000000 26.000000 -8.321886E-01
54.000000 24.000000 1.373194E+01
54.000000 22.000000 1.638392E+01
54.000000 20.000000 1.378809E+01
54.000000 18.000000 1.726532E+01
54.000000 16.000000 2.522193E+01
54.000000 14.000000 3.089369E+01
54.000000 12.000000 2.565538E+01
54.000000 10.000000 6.997046E+00
54.000000 8.000000 -1.628955E+01
54.000000 6.000000 -3.293856E+01
54.000000 4.000000 -2.706659E+01
54.000000 2.000000 -5.586836E+00
54.000000 0.000000 1.306770E+01
54.000000 -2.000000 1.519230E+01
54.000000 -4.000000 5.539375E+00
54.000000 -6.000000 -1.011017E+01
54.000000 -8.000000 -2.149207E+01
54.000000 -10.000000 -2.516211E+01
54.000000 -12.000000 -2.799299E+01
54.000000 -14.000000 -3.365072E+01
54.000000 -16.000000 -3.915697E+01
54.000000 -18.000000 -3.914252E+01
54.000000 -20.000000 -4.020800E+01
54.000000 -22.000000 -4.947904E+01
54.000000 -24.000000 -6.794611E+01
54.000000 -26.000000 -8.525765E+01
54.000000 -28.000000 -9.321830E+01
54.000000 -30.000000 -9.435188E+01
54.000000 -32.000000 -8.426127E+01
54.000000 -34.000000 -6.793157E+01
54.000000 -36.000000 -5.039945E+01
54.000000 -38.000000 -3.645421E+01
54.000000 -40.000000 -2.421734E+01
56.000000 40.000000 -1.185944E+02
56.000000 38.000000 -1.067979E+02
56.000000 36.000000 -9.139383E+01
56.000000 34.000000 -6.745316E+01
56.000000 32.000000 -4.571964E+01
56.000000 30.000000 -2.767042E+01
56.000000 28.000000 -6.849038E+00
56.000000 26.000000 1.562427E+01
56.000000 24.000000 3.894872E+01
56.000000 22.000000 4.360638E+01
56.000000 20.000000 4.066056E+01
56.000000 18.000000 4.073580E+01
56.000000 16.000000 4.400817E+01
56.000000 14.000000 4.494482E+01
56.000000 12.000000 3.443472E+01
56.000000 10.000000 1.084247E+01
56.000000 8.000000 -1.825568E+01
56.000000 6.000000 -4.085861E+01
56.000000 4.000000 -4.160521E+01
56.000000 2.000000 -2.482522E+01
56.000000 0.000000 -8.494705E+00
56.000000 -2.000000 -6.534310E+00
56.000000 -4.000000 -1.551493E+01
56.000000 -6.000000 -2.844199E+01
56.000000 -8.000000 -3.440303E+01
56.000000 -10.000000 -3.019956E+01
56.000000 -12.000000 -2.377953E+01
56.000000 -14.000000 -2.296637E+01
56.000000 -16.000000 -2.407107E+01
56.000000 -18.000000 -2.299821E+01
56.000000 -20.000000 -2.594704E+01
56.000000 -22.000000 -3.912247E+01
56.000000 -24.000000 -6.453920E+01
56.000000 -26.000000 -8.855002E+01
56.000000 -28.000000 -9.976237E+01
56.000000 -30.000000 -1.023375E+02
56.000000 -32.000000 -9.436773E+01
56.000000 -34.000000 -8.013069E+01
56.000000 -36.000000 -6.239302E+01
56.000000 -38.000000 -4.643825E+01
56.000000 -40.000000 -3.278125E+01
58.000000 40.000000 -1.147006E+02
58.000000 38.000000 -1.031582E+02
58.000000 36.000000 -8.874596E+01
58.000000 34.000000 -6.706619E+01
