-16.000000 22.000000 5.402663E+01
-16.000000 20.000000 5.832299E+01
-16.000000 18.000000 8.407434E+01
-16.000000 16.000000 1.295282E+02
-16.000000 14.000000 1.713702E+02
-16.000000 12.000000 1.857985E+02
-16.000000 10.000000 1.622628E+02
-16.000000 8.000000 1.119492E+02
-16.000000 6.000000 6.550072E+01
-16.000000 4.000000 4.276776E+01
-16.000000 2.000000 3.960036E+01
-16.000000 0.000000 4.155516E+01
-16.000000 -2.000000 4.063751E+01
-16.000000 -4.000000 3.808417E+01
-16.000000 -6.000000 3.239294E+01
-16.000000 -8.000000 2.465378E+01
-16.000000 -10.000000 1.618888E+01
-16.000000 -12.000000 3.498383E+00
-16.000000 -14.000000 -5.593294E+00
-16.000000 -16.000000 -1.259533E+01
-16.000000 -18.000000 -2.052209E+01
-16.000000 -20.000000 -2.951724E+01
-16.000000 -22.000000 -2.971691E+01
-16.000000 -24.000000 -2.019456E+01
-16.000000 -26.000000 -1.221168E+01
-16.000000 -28.000000 -1.584098E+01
-16.000000 -30.000000 -2.185611E+01
-16.000000 -32.000000 -2.077141E+01
-16.000000 -34.000000 -3.563421E+00
-16.000000 -36.000000 1.910160E+01
-16.000000 -38.000000 3.688975E+01
-16.000000 -40.000000 5.004698E+01
-14.000000 40.000000 -1.181302E+01
-14.000000 38.000000 -4.564474E+00
-14.000000 36.000000 3.260067E+00
-14.000000 34.000000 8.549788E+00
-14.000000 32.000000 1.070357E+01
-14.000000 30.000000 1.493064E+01
-14.000000 28.000000 2.040498E+01
-14.000000 26.000000 2.679499E+01
-14.000000 24.000000 3.049800E+01
-14.000000 22.000000 3.399338E+01
-14.000000 20.000000 4.164827E+01
-14.000000 18.000000 7.517703E+01
-14.000000 16.000000 1.342864E+02
-14.000000 14.000000 1.908649E+02
-14.000000 12.000000 2.144370E+02
-14.000000 10.000000 1.910532E+02
-14.000000 8.000000 1.283336E+02
-14.000000 6.000000 6.638861E+01
-14.000000 4.000000 3.026805E+01
-14.000000 2.000000 2.168437E+01
-14.000000 0.000000 2.352596E+01
-14.000000 -2.000000 2.567936E+01
-14.000000 -4.000000 2.505605E+01
-14.000000 -6.000000 2.115745E+01
-14.000000 -8.000000 1.862688E+01
-14.000000 -10.000000 1.887101E+01
-14.000000 -12.000000 1.711574E+01
-14.000000 -14.000000 1.666336E+01
-14.000000 -16.000000 1.330017E+01
-14.000000 -18.000000 2.672323E+00
-14.000000 -20.000000 -1.061497E+01
-14.000000 -22.000000 -1.337670E+01
-14.000000 -24.000000 -5.157991E+00
-14.000000 -26.000000 1.530487E+00
-14.000000 -28.000000 -3.944788E+00
-14.000000 -30.000000 -1.259669E+01
-14.000000 -32.000000 -1.510018E+01
-14.000000 -34.000000 -7.009544E-01
-14.000000 -36.000000 2.029316E+01
-14.000000 -38.000000 3.688941E+01
-14.000000 -40.000000 4.769532E+01
-12.000000 40.000000 -1.101355E+01
-12.000000 38.000000 -6.735752E+00
-12.000000 36.000000 -2.010981E+00
-12.000000 34.000000 -3.543549E-01
-12.000000 32.000000 -2.984070E+00
-12.000000 30.000000 -3.030598E+00
-12.000000 28.000000 1.120052E+00
-12.000000 26.000000 1.002098E+01
-12.000000 24.000000 1.528423E+01
-12.000000 22.000000 2.019198E+01
-12.000000 20.000000 3.107228E+01
-12.000000 18.000000 6.990601E+01
-12.000000 16.000000 1.393612E+02
-12.000000 14.000000 2.079766E+02
-12.000000 12.000000 2.391729E+02
-12.000000 10.000000 2.163932E+02
-12.000000 8.000000 1.454670E+02
-12.000000 6.000000 7.108542E+01
-12.000000 4.000000 2.063346E+01
-12.000000 2.000000 2.591148E+00
-12.000000 0.000000 1.990395E-01
-12.000000 -2.000000 3.256882E+00
-12.000000 -4.000000 4.344334E+00
-12.000000 -6.000000 3.744080E+00
-12.000000 -8.000000 7.650391E+00
-12.000000 -10.000000 1.579093E+01
-12.000000 -12.000000 2.676808E+01
-12.000000 -14.000000 3.962118E+01
-12.000000 -16.000000 4.162795E+01
-12.000000 -18.000000 2.663663E+01
-12.000000 -20.000000 7.965565E+00
-12.000000 -22.000000 2.111713E+00
-12.000000 -24.000000 8.309399E+00
-12.000000 -26.000000 1.359748E+01
-12.000000 -28.000000 8.249031E+00
-12.000000 -30.000000 -1.213919E+00
-12.000000 -32.000000 -6.179802E+00
-12.000000 -34.000000 5.896557E+00
-12.000000 -36.000000 2.502943E+01
-12.000000 -38.000000 3.910554E+01
-12.000000 -40.000000 4.750890E+01
-10.000000 40.000000 -9.396811E+00
-10.000000 38.000000 -4.825588E+00
-10.000000 36.000000 -4.559078E-01
-10.000000 34.000000 -8.134613E-01
-10.000000 32.000000 -7.773266E+00
-10.000000 30.000000 -1.285249E+01
-10.000000 28.000000 -1.204142E+01
-10.000000 26.000000 -2.357483E+00
-10.000000 24.000000 4.048199E+00
-10.000000 22.000000 9.213963E+00
-10.000000 20.000000 2.095538E+01
-10.000000 18.000000 6.255412E+01
-10.000000 16.000000 1.393859E+02
-10.000000 14.000000 2.181894E+02
-10.000000 12.000000 2.559733E+02
-10.000000 10.000000 2.343145E+02
-10.000000 8.000000 1.593990E+02
-10.000000 6.000000 7.773796E+01
-10.000000 4.000000 1.597096E+01
-10.000000 2.000000 -1.181306E+01
-10.000000 0.000000 -1.965520E+01
-10.000000 -2.000000 -1.686492E+01
-10.000000 -4.000000 -1.285397E+01
-10.000000 -6.000000 -7.828522E+00
-10.000000 -8.000000 5.621948E-01
-10.000000 -10.000000 1.138619E+01
-10.000000 -12.000000 2.942485E+01
-10.000000 -14.000000 5.202913E+01
-10.000000 -16.000000 5.863797E+01
-10.000000 -18.000000 4.175704E+01
-10.000000 -20.000000 2.150838E+01
-10.000000 -22.000000 1.515591E+01
-10.000000 -24.000000 1.978537E+01
-10.000000 -26.000000 2.339822E+01
-10.000000 -28.000000 1.837093E+01
-10.000000 -30.000000 9.572365E+00
-10.000000 -32.000000 3.150820E+00
-10.000000 -34.000000 1.265570E+01
-10.000000 -36.000000 3.011261E+01
-10.000000 -38.000000 4.221412E+01
-10.000000 -40.000000 4.951334E+01
-8.000000 40.000000 -7.416419E+00
-8.000000 38.000000 1.101872E+00
-8.000000 36.000000 7.845653E+00
-8.000000 34.000000 7.551807E+00
-8.000000 32.000000 -2.627621E+00
-8.000000 30.000000 -1.316574E+01
-8.000000 28.000000 -1.788628E+01
-8.000000 26.000000 -1.131500E+01
-8.000000 24.000000 -7.209377E+00
-8.000000 22.000000 -4.006279E+00
-8.000000 20.000000 5.766403E+00
-8.000000 18.000000 4.828038E+01
-8.000000 16.000000 1.307700E+02
-8.000000 14.000000 2.176807E+02
-8.000000 12.000000 2.614252E+02
-8.000000 10.000000 2.428801E+02
-8.000000 8.000000 1.693371E+02
-8.000000 6.000000 8.719116E+01
-8.000000 4.000000 2.195021E+01
-8.000000 2.000000 -1.064770E+01
-8.000000 0.000000 -2.156502E+01
-8.000000 -2.000000 -1.909337E+01
-8.000000 -4.000000 -1.260136E+01
-8.000000 -6.000000 -3.297436E+00
-8.000000 -8.000000 4.421093E+00
-8.000000 -10.000000 1.124764E+01
-8.000000 -12.000000 2.458931E+01
-8.000000 -14.000000 4.173237E+01
-8.000000 -16.000000 4.933239E+01
-8.000000 -18.000000 3.862003E+01
-8.000000 -20.000000 2.461284E+01
-8.000000 -22.000000 2.281577E+01
-8.000000 -24.000000 2.834948E+01
-8.000000 -26.000000 3.128767E+01
-8.000000 -28.000000 2.638519E+01
-8.000000 -30.000000 1.838934E+01
-8.000000 -32.000000 1.100505E+01
-8.000000 -34.000000 1.836325E+01
-8.000000 -36.000000 3.451875E+01
-8.000000 -38.000000 4.551340E+01
-8.000000 -40.000000 5.293448E+01
-6.000000 40.000000 -4.183005E+00
-6.000000 38.000000 8.661979E+00
-6.000000 36.000000 1.820851E+01
-6.000000 34.000000 2.020012E+01
-6.000000 32.000000 8.695045E+00
-6.000000 30.000000 -6.551964E+00
-6.000000 28.000000 -1.743996E+01
-6.000000 26.000000 -1.655528E+01
-6.000000 24.000000 -1.716015E+01
-6.000000 22.000000 -1.773359E+01
-6.000000 20.000000 -1.247849E+01
-6.000000 18.000000 2.856235E+01
-6.000000 16.000000 1.141007E+02
-6.000000 14.000000 2.053081E+02
-6.000000 12.000000 2.545285E+02
-6.000000 10.000000 2.432200E+02
-6.000000 8.000000 1.777634E+02
-6.000000 6.000000 1.013837E+02
-6.000000 4.000000 3.783505E+01
-6.000000 2.000000 3.607208E+00
-6.000000 0.000000 -8.132763E+00
-6.000000 -2.000000 -5.990170E+00
-6.000000 -4.000000 1.419830E+00
-6.000000 -6.000000 1.091335E+01
-6.000000 -8.000000 1.463200E+01
-6.000000 -10.000000 1.394023E+01
-6.000000 -12.000000 1.609292E+01
-6.000000 -14.000000 2.221480E+01
-6.000000 -16.000000 2.765914E+01
-6.000000 -18.000000 2.379756E+01
-6.000000 -20.000000 1.820293E+01
-6.000000 -22.000000 2.323803E+01
-6.000000 -24.000000 3.285347E+01
-6.000000 -26.000000 3.717836E+01
-6.000000 -28.000000 3.207992E+01
-6.000000 -30.000000 2.330729E+01
-6.000000 -32.000000 1.578574E+01
-6.000000 -34.000000 2.249276E+01
-6.000000 -36.000000 3.729722E+01
-6.000000 -38.000000 4.802114E+01
-6.000000 -40.000000 5.638749E+01
-4.000000 40.000000 -7.199020E-01
-4.000000 38.000000 1.556509E+01
-4.000000 36.000000 2.732622E+01
-4.000000 34.000000 3.166049E+01
-4.000000 32.000000 2.130800E+01
-4.000000 30.000000 5.009350E+00
-4.000000 28.000000 -9.969200E+00
-4.000000 26.000000 -1.504115E+01
-4.000000 24.000000 -2.086626E+01
-4.000000 22.000000 -2.584284E+01
-4.000000 20.000000 -2.597087E+01
-4.000000 18.000000 9.333782E+00
-4.000000 16.000000 8.989252E+01
-4.000000 14.000000 1.782643E+02
-4.000000 12.000000 2.338622E+02
-4.000000 10.000000 2.378081E+02
-4.000000 8.000000 1.875641E+02
-4.000000 6.000000 1.186576E+02
-4.000000 4.000000 5.365889E+01
-4.000000 2.000000 1.594608E+01
-4.000000 0.000000 3.214123E+00
-4.000000 -2.000000 6.588383E+00
-4.000000 -4.000000 1.673087E+01
-4.000000 -6.000000 2.569715E+01
-4.000000 -8.000000 2.580479E+01
-4.000000 -10.000000 1.922185E+01
-4.000000 -12.000000 1.145683E+01
-4.000000 -14.000000 1.004330E+01
-4.000000 -16.000000 1.116792E+01
-4.000000 -18.000000 9.960730E+00
-4.000000 -20.000000 1.036421E+01
-4.000000 -22.000000 1.982423E+01
-4.000000 -24.000000 3.321315E+01
-4.000000 -26.000000 3.996181E+01
-4.000000 -28.000000 3.491621E+01
-4.000000 -30.000000 2.454368E+01
-4.000000 -32.000000 1.712751E+01
-4.000000 -34.000000 2.368777E+01
-4.000000 -36.000000 3.763195E+01
-4.000000 -38.000000 4.907621E+01
-4.000000 -40.000000 5.882388E+01
-2.000000 40.000000 7.549479E-01
-2.000000 38.000000 1.946230E+01
-2.000000 36.000000 3.251571E+01
-2.000000 34.000000 3.765103E+01
-2.000000 32.000000 3.099764E+01
-2.000000 30.000000 1.819125E+01
-2.000000 28.000000 3.639332E+00
-2.000000 26.000000 -4.392094E+00
-2.000000 24.000000 -1.330669E+01
-2.000000 22.000000 -2.112679E+01
-2.000000 20.000000 -2.547002E+01
-2.000000 18.000000 1.925583E-01
-2.000000 16.000000 6.586733E+01
-2.000000 14.000000 1.434989E+02
-2.000000 12.000000 2.058590E+02
-2.000000 10.000000 2.297128E+02
-2.000000 8.000000 1.956349E+02
-2.000000 6.000000 1.300776E+02
-2.000000 4.000000 5.813410E+01
-2.000000 2.000000 1.496423E+01
-2.000000 0.000000 1.383678E+00
-2.000000 -2.000000 7.694828E+00
-2.000000 -4.000000 2.113270E+01
-2.000000 -6.000000 3.203815E+01
-2.000000 -8.000000 3.162126E+01
-2.000000 -10.000000 2.297224E+01
-2.000000 -12.000000 1.141454E+01
-2.000000 -14.000000 6.585918E+00
-2.000000 -16.000000 4.585247E+00
-2.000000 -18.000000 3.968855E+00
-2.000000 -20.000000 6.319761E+00
-2.000000 -22.000000 1.717430E+01
-2.000000 -24.000000 3.205858E+01
-2.000000 -26.000000 4.010949E+01
-2.000000 -28.000000 3.527295E+01
-2.000000 -30.000000 2.354242E+01
-2.000000 -32.000000 1.463272E+01
-2.000000 -34.000000 2.110182E+01
-2.000000 -36.000000 3.615840E+01
-2.000000 -38.000000 4.924194E+01
-2.000000 -40.000000 6.040603E+01
0.000000 40.000000 -2.016427E+00
0.000000 38.000000 1.750747E+01
0.000000 36.000000 3.046456E+01
0.000000 34.000000 3.660178E+01
0.000000 32.000000 3.543395E+01
0.000000 30.000000 2.947908E+01
0.000000 28.000000 1.982992E+01
0.000000 26.000000 1.385894E+01
0.000000 24.000000 7.451187E+00
0.000000 22.000000 -1.630665E+00
0.000000 20.000000 -9.094059E+00
0.000000 18.000000 5.627533E+00
0.000000 16.000000 5.404499E+01
0.000000 14.000000 1.192151E+02
0.000000 12.000000 1.847751E+02
0.000000 10.000000 2.235530E+02
0.000000 8.000000 1.990361E+02
0.000000 6.000000 1.309113E+02
0.000000 4.000000 5.041969E+01
0.000000 2.000000 1.942734E+00
0.000000 0.000000 -1.139361E+01
0.000000 -2.000000 -1.790657E+00
0.000000 -4.000000 1.281327E+01
0.000000 -6.000000 2.441375E+01
0.000000 -8.000000 2.506174E+01
0.000000 -10.000000 1.760380E+01
0.000000 -12.000000 7.952578E+00
0.000000 -14.000000 3.147263E+00
0.000000 -16.000000 1.424911E+00
0.000000 -18.000000 2.278677E+00
0.000000 -20.000000 5.544132E+00
0.000000 -22.000000 1.608268E+01
0.000000 -24.000000 3.028227E+01
0.000000 -26.000000 3.722809E+01
0.000000 -28.000000 3.157063E+01
0.000000 -30.000000 1.899820E+01
0.000000 -32.000000 9.210098E+00
0.000000 -34.000000 1.659041E+01
0.000000 -36.000000 3.427304E+01
0.000000 -38.000000 4.994050E+01
0.000000 -40.000000 6.307308E+01
2.000000 40.000000 -1.021926E+01
2.000000 38.000000 8.369563E+00
2.000000 36.000000 1.978752E+01
2.000000 34.000000 2.798089E+01
2.000000 32.000000 3.297367E+01
2.000000 30.000000 3.520667E+01
2.000000 28.000000 3.311446E+01
2.000000 26.000000 3.300097E+01
2.000000 24.000000 3.306141E+01
2.000000 22.000000 2.303740E+01
2.000000 20.000000 1.255301E+01
2.000000 18.000000 1.835994E+01
2.000000 16.000000 5.713410E+01
2.000000 14.000000 1.196483E+02
2.000000 12.000000 1.862570E+02
2.000000 10.000000 2.266984E+02
2.000000 8.000000 2.009791E+02
2.000000 6.000000 1.288065E+02
2.000000 4.000000 4.286997E+01
2.000000 2.000000 -9.448784E+00
2.000000 0.000000 -2.449782E+01
2.000000 -2.000000 -1.632716E+01
2.000000 -4.000000 -3.468021E+00
2.000000 -6.000000 4.833958E+00
2.000000 -8.000000 3.864899E+00
2.000000 -10.000000 -1.109573E+00
2.000000 -12.000000 -5.845737E+00
2.000000 -14.000000 -8.119373E+00
2.000000 -16.000000 -5.804508E+00
2.000000 -18.000000 -1.800922E+00
2.000000 -20.000000 3.642759E+00
2.000000 -22.000000 1.386074E+01
2.000000 -24.000000 2.675729E+01
2.000000 -26.000000 3.180812E+01
2.000000 -28.000000 2.539912E+01
2.000000 -30.000000 1.316980E+01
2.000000 -32.000000 3.836393E+00
2.000000 -34.000000 1.271107E+01
2.000000 -36.000000 3.381944E+01
2.000000 -38.000000 5.181003E+01
2.000000 -40.000000 6.629895E+01
4.000000 40.000000 -2.207828E+01
4.000000 38.000000 -5.606030E+00
4.000000 36.000000 2.941391E+00
4.000000 34.000000 1.276779E+01
4.000000 32.000000 2.310263E+01
4.000000 30.000000 3.222638E+01
4.000000 28.000000 3.790045E+01
4.000000 26.000000 4.447894E+01
4.000000 24.000000 5.064676E+01
4.000000 22.000000 4.027150E+01
4.000000 20.000000 2.786680E+01
4.000000 18.000000 2.880869E+01
4.000000 16.000000 6.478889E+01
4.000000 14.000000 1.297637E+02
4.000000 12.000000 1.978589E+02
4.000000 10.000000 2.359837E+02
4.000000 8.000000 2.063292E+02
4.000000 6.000000 1.322797E+02
4.000000 4.000000 4.250871E+01
4.000000 2.000000 -1.571284E+01
4.000000 0.000000 -3.691954E+01
4.000000 -2.000000 -3.440929E+01
4.000000 -4.000000 -2.469151E+01
4.000000 -6.000000 -1.760370E+01
4.000000 -8.000000 -1.564670E+01
4.000000 -10.000000 -1.686801E+01
4.000000 -12.000000 -1.629052E+01
4.000000 -14.000000 -1.576622E+01
4.000000 -16.000000 -1.000748E+01
4.000000 -18.000000 -3.828728E+00
4.000000 -20.000000 1.345011E+00
4.000000 -22.000000 1.025705E+01
4.000000 -24.000000 2.217601E+01
4.000000 -26.000000 2.614448E+01
4.000000 -28.000000 1.938196E+01
4.000000 -30.000000 8.115318E+00
4.000000 -32.000000 -7.770233E-01
4.000000 -34.000000 9.306341E+00
4.000000 -36.000000 3.358324E+01
4.000000 -38.000000 5.294938E+01
4.000000 -40.000000 6.763103E+01
6.000000 40.000000 -3.203854E+01
6.000000 38.000000 -1.844664E+01
6.000000 36.000000 -1.401576E+01
6.000000 34.000000 -7.461979E+00
6.000000 32.000000 2.837465E+00
6.000000 30.000000 1.546049E+01
6.000000 28.000000 2.643897E+01
6.000000 26.000000 3.757416E+01
6.000000 24.000000 4.767139E+01
6.000000 22.000000 4.026295E+01
6.000000 20.000000 2.970781E+01
6.000000 18.000000 3.107284E+01
6.000000 16.000000 6.637193E+01
6.000000 14.000000 1.312604E+02
6.000000 12.000000 2.008440E+02
6.000000 10.000000 2.417120E+02
6.000000 8.000000 2.154662E+02
6.000000 6.000000 1.430069E+02
6.000000 4.000000 4.833429E+01
6.000000 2.000000 -2.080662E+01
6.000000 0.000000 -5.242887E+01
6.000000 -2.000000 -5.276267E+01
6.000000 -4.000000 -3.988543E+01
6.000000 -6.000000 -2.539214E+01
6.000000 -8.000000 -1.417716E+01
6.000000 -10.000000 -9.742966E+00
6.000000 -12.000000 -6.236950E+00
6.000000 -14.000000 -4.522207E+00
6.000000 -16.000000 -1.607819E+00
6.000000 -18.000000 1.178467E+00
6.000000 -20.000000 2.325331E+00
6.000000 -22.000000 7.248341E+00
6.000000 -24.000000 1.644519E+01
6.000000 -26.000000 1.968359E+01
6.000000 -28.000000 1.290978E+01
6.000000 -30.000000 2.688295E+00
6.000000 -32.000000 -4.548607E+00
6.000000 -34.000000 6.464819E+00
6.000000 -36.000000 3.157114E+01
6.000000 -38.000000 5.135148E+01
6.000000 -40.000000 6.635293E+01
8.000000 40.000000 -3.613618E+01
8.000000 38.000000 -2.674322E+01
8.000000 36.000000 -2.739010E+01
8.000000 34.000000 -3.040953E+01
8.000000 32.000000 -2.807087E+01
8.000000 30.000000 -1.709495E+01
8.000000 28.000000 -4.489634E+00
8.000000 26.000000 8.584717E+00
8.000000 24.000000 2.080736E+01
8.000000 22.000000 2.064799E+01
8.000000 20.000000 1.651522E+01
8.000000 18.000000 2.286312E+01
8.000000 16.000000 5.861590E+01
8.000000 14.000000 1.227476E+02
8.000000 12.000000 1.952199E+02
8.000000 10.000000 2.438598E+02
8.000000 8.000000 2.271124E+02
8.000000 6.000000 1.587797E+02
8.000000 4.000000 5.822116E+01
8.000000 2.000000 -2.387566E+01
8.000000 0.000000 -6.645832E+01
8.000000 -2.000000 -6.589039E+01
8.000000 -4.000000 -4.229672E+01
8.000000 -6.000000 -1.318929E+01
8.000000 -8.000000 7.796293E+00
8.000000 -10.000000 1.955094E+01
8.000000 -12.000000 2.294217E+01
8.000000 -14.000000 2.172334E+01
8.000000 -16.000000 1.742144E+01
8.000000 -18.000000 1.236416E+01
8.000000 -20.000000 6.595568E+00
8.000000 -22.000000 4.792881E+00
8.000000 -24.000000 8.183328E+00
8.000000 -26.000000 1.067222E+01
8.000000 -28.000000 5.650251E+00
8.000000 -30.000000 -2.456421E+00
8.000000 -32.000000 -6.161726E+00
8.000000 -34.000000 5.103630E+00
8.000000 -36.000000 2.790839E+01
8.000000 -38.000000 4.700842E+01
8.000000 -40.000000 6.254886E+01
10.000000 40.000000 -3.529598E+01
10.000000 38.000000 -3.099489E+01
10.000000 36.000000 -3.630270E+01
10.000000 34.000000 -4.978856E+01
10.000000 32.000000 -5.894263E+01
10.000000 30.000000 -5.556646E+01
10.000000 28.000000 -4.597594E+01
10.000000 26.000000 -3.265821E+01
10.000000 24.000000 -2.077389E+01
10.000000 22.000000 -1.301480E+01
10.000000 20.000000 -9.193817E+00
10.000000 18.000000 3.171772E+00
10.000000 16.000000 4.097436E+01
10.000000 14.000000 1.062058E+02
10.000000 12.000000 1.845024E+02
10.000000 10.000000 2.446251E+02
10.000000 8.000000 2.407850E+02
10.000000 6.000000 1.796347E+02
10.000000 4.000000 7.483572E+01
10.000000 2.000000 -1.902292E+01
10.000000 0.000000 -7.125606E+01
10.000000 -2.000000 -6.984123E+01
10.000000 -4.000000 -3.463367E+01
10.000000 -6.000000 8.271433E+00
10.000000 -8.000000 3.404775E+01
10.000000 -10.000000 4.938520E+01
10.000000 -12.000000 5.095159E+01
10.000000 -14.000000 4.675829E+01
10.000000 -16.000000 3.753119E+01
10.000000 -18.000000 2.551120E+01
10.000000 -20.000000 1.206032E+01
10.000000 -22.000000 1.885801E+00
10.000000 -24.000000 -1.235834E+00
10.000000 -26.000000 7.096500E-01
10.000000 -28.000000 -1.669064E+00
10.000000 -30.000000 -5.897928E+00
10.000000 -32.000000 -6.406107E+00
10.000000 -34.000000 3.821993E+00
10.000000 -36.000000 2.302674E+01
10.000000 -38.000000 4.103434E+01
10.000000 -40.000000 5.716884E+01
12.000000 40.000000 -3.322256E+01
12.000000 38.000000 -3.196076E+01
12.000000 36.000000 -3.891203E+01
12.000000 34.000000 -5.893806E+01
12.000000 32.000000 -7.833865E+01
12.000000 30.000000 -8.535097E+01
12.000000 28.000000 -8.242122E+01
12.000000 26.000000 -7.129055E+01
12.000000 24.000000 -6.172195E+01
12.000000 22.000000 -4.752947E+01
12.000000 20.000000 -3.778420E+01
12.000000 18.000000 -2.086821E+01
12.000000 16.000000 2.019967E+01
12.000000 14.000000 8.830694E+01
12.000000 12.000000 1.738521E+02
12.000000 10.000000 2.464931E+02
12.000000 8.000000 2.555079E+02
12.000000 6.000000 2.025502E+02
12.000000 4.000000 9.582644E+01
12.000000 2.000000 -6.206146E+00
12.000000 0.000000 -6.544265E+01
12.000000 -2.000000 -6.562204E+01
12.000000 -4.000000 -2.606269E+01
12.000000 -6.000000 2.126535E+01
12.000000 -8.000000 4.123984E+01
12.000000 -10.000000 4.784688E+01
12.000000 -12.000000 4.796692E+01
12.000000 -14.000000 5.284014E+01
12.000000 -16.000000 5.094214E+01
12.000000 -18.000000 3.786407E+01
12.000000 -20.000000 1.719611E+01
12.000000 -22.000000 -1.817522E+00
12.000000 -24.000000 -1.022829E+01
12.000000 -26.000000 -8.561274E+00
12.000000 -28.000000 -8.139330E+00
12.000000 -30.000000 -8.205324E+00
12.000000 -32.000000 -7.068911E+00
12.000000 -34.000000 1.341911E+00
12.000000 -36.000000 1.782205E+01
12.000000 -38.000000 3.539087E+01
12.000000 -40.000000 5.214706E+01
14.000000 40.000000 -3.515885E+01
14.000000 38.000000 -3.102860E+01
14.000000 36.000000 -3.418231E+01
14.000000 34.000000 -5.355567E+01
14.000000 32.000000 -7.839553E+01
14.000000 30.000000 -9.353224E+01
14.000000 28.000000 -9.724369E+01
14.000000 26.000000 -9.063431E+01
14.000000 24.000000 -8.469658E+01
14.000000 22.000000 -6.756898E+01
14.000000 20.000000 -5.582913E+01
14.000000 18.000000 -3.681789E+01
14.000000 16.000000 6.336227E+00
14.000000 14.000000 7.651195E+01
14.000000 12.000000 1.648665E+02
14.000000 10.000000 2.438280E+02
14.000000 8.000000 2.610809E+02
14.000000 6.000000 2.162344E+02
14.000000 4.000000 1.126609E+02
14.000000 2.000000 8.728699E+00
14.000000 0.000000 -5.460406E+01
14.000000 -2.000000 -6.075586E+01
14.000000 -4.000000 -2.983788E+01
14.000000 -6.000000 5.546894E+00
14.000000 -8.000000 1.044434E+01
14.000000 -10.000000 3.460806E+00
14.000000 -12.000000 1.159962E+01
14.000000 -14.000000 3.954138E+01
14.000000 -16.000000 5.719487E+01
14.000000 -18.000000 4.683236E+01
14.000000 -20.000000 1.780738E+01
14.000000 -22.000000 -8.891024E+00
14.000000 -24.000000 -1.942029E+01
14.000000 -26.000000 -1.611899E+01
14.000000 -28.000000 -1.340456E+01
14.000000 -30.000000 -1.250920E+01
14.000000 -32.000000 -1.083516E+01
14.000000 -34.000000 -2.733820E+00
14.000000 -36.000000 1.366387E+01
14.000000 -38.000000 3.189963E+01
14.000000 -40.000000 4.958648E+01
16.000000 40.000000 -4.409801E+01
16.000000 38.000000 -3.224604E+01
16.000000 36.000000 -2.607969E+01
16.000000 34.000000 -3.578388E+01
16.000000 32.000000 -5.748617E+01
16.000000 30.000000 -7.469761E+01
16.000000 28.000000 -8.236827E+01
16.000000 26.000000 -8.028705E+01
16.000000 24.000000 -7.707953E+01
16.000000 22.000000 -6.195727E+01
16.000000 20.000000 -5.213224E+01
16.000000 18.000000 -3.434479E+01
16.000000 16.000000 7.330621E+00
16.000000 14.000000 7.254354E+01
16.000000 12.000000 1.508107E+02
16.000000 10.000000 2.231317E+02
16.000000 8.000000 2.419273E+02
16.000000 6.000000 2.065905E+02
16.000000 4.000000 1.140418E+02
16.000000 2.000000 1.591995E+01
16.000000 0.000000 -4.794285E+01
16.000000 -2.000000 -6.505704E+01
16.000000 -4.000000 -5.681241E+01
16.000000 -6.000000 -5.020332E+01
16.000000 -8.000000 -5.987094E+01
16.000000 -10.000000 -6.834383E+01
16.000000 -12.000000 -3.663636E+01
16.000000 -14.000000 2.102977E+01
16.000000 -16.000000 6.155053E+01
16.000000 -18.000000 5.387487E+01
16.000000 -20.000000 1.587153E+01
16.000000 -22.000000 -1.623698E+01
16.000000 -24.000000 -2.579758E+01
16.000000 -26.000000 -2.008672E+01
16.000000 -28.000000 -1.717189E+01
16.000000 -30.000000 -1.832481E+01
16.000000 -32.000000 -1.705328E+01
16.000000 -34.000000 -8.037498E+00
16.000000 -36.000000 1.026680E+01
16.000000 -38.000000 2.947648E+01
16.000000 -40.000000 4.748879E+01
18.000000 40.000000 -5.886575E+01
18.000000 38.000000 -3.769512E+01
18.000000 36.000000 -1.890734E+01
18.000000 34.000000 -1.223162E+01
18.000000 32.000000 -2.236895E+01
18.000000 30.000000 -3.533580E+01
18.000000 28.000000 -4.431849E+01
18.000000 26.000000 -4.535756E+01
18.000000 24.000000 -4.157661E+01
18.000000 22.000000 -3.149341E+01
18.000000 20.000000 -2.554504E+01
18.000000 18.000000 -1.293146E+01
18.000000 16.000000 2.076179E+01
18.000000 14.000000 6.995079E+01
18.000000 12.000000 1.225615E+02
18.000000 10.000000 1.724541E+02
18.000000 8.000000 1.882993E+02
18.000000 6.000000 1.632295E+02
18.000000 4.000000 9.024490E+01
18.000000 2.000000 6.861633E+00
18.000000 0.000000 -5.534874E+01
18.000000 -2.000000 -8.749571E+01
18.000000 -4.000000 -1.045297E+02
18.000000 -6.000000 -1.209334E+02
18.000000 -8.000000 -1.337602E+02
18.000000 -10.000000 -1.319112E+02
18.000000 -12.000000 -7.174350E+01
18.000000 -14.000000 1.292770E+01
18.000000 -16.000000 7.063932E+01
18.000000 -18.000000 6.407457E+01
18.000000 -20.000000 1.929828E+01
18.000000 -22.000000 -1.664030E+01
18.000000 -24.000000 -2.624485E+01
18.000000 -26.000000 -2.120914E+01
18.000000 -28.000000 -2.055283E+01
18.000000 -30.000000 -2.463713E+01
18.000000 -32.000000 -2.569830E+01
18.000000 -34.000000 -1.548872E+01
18.000000 -36.000000 5.743367E+00
18.000000 -38.000000 2.543999E+01
18.000000 -40.000000 4.218818E+01
20.000000 40.000000 -7.441286E+01
20.000000 38.000000 -4.473896E+01
20.000000 36.000000 -1.441089E+01
20.000000 34.000000 8.876261E+00
20.000000 32.000000 1.316432E+01
20.000000 30.000000 6.623409E+00
20.000000 28.000000 -1.892336E+00
20.000000 26.000000 -4.052314E+00
20.000000 24.000000 2.937240E+00
20.000000 22.000000 8.476039E+00
20.000000 20.000000 1.121878E+01
20.000000 18.000000 1.683717E+01
20.000000 16.000000 3.727794E+01
20.000000 14.000000 6.263295E+01
20.000000 12.000000 8.057510E+01
20.000000 10.000000 9.639206E+01
20.000000 8.000000 1.062821E+02
20.000000 6.000000 8.976338E+01
20.000000 4.000000 4.301960E+01
20.000000 2.000000 -1.650190E+01
20.000000 0.000000 -7.216756E+01
20.000000 -2.000000 -1.152623E+02
20.000000 -4.000000 -1.481407E+02
20.000000 -6.000000 -1.711254E+02
20.000000 -8.000000 -1.753971E+02
20.000000 -10.000000 -1.565578E+02
20.000000 -12.000000 -7.525281E+01
20.000000 -14.000000 2.515843E+01
20.000000 -16.000000 8.789259E+01
20.000000 -18.000000 7.747672E+01
20.000000 -20.000000 2.675696E+01
20.000000 -22.000000 -1.253758E+01
20.000000 -24.000000 -2.433595E+01
20.000000 -26.000000 -2.270028E+01
20.000000 -28.000000 -2.623856E+01
20.000000 -30.000000 -3.396062E+01
20.000000 -32.000000 -3.781934E+01
20.000000 -34.000000 -2.583548E+01
20.000000 -36.000000 -1.440215E+00
20.000000 -38.000000 1.864384E+01
20.000000 -40.000000 3.348949E+01
22.000000 40.000000 -8.585004E+01
22.000000 38.000000 -5.261219E+01
22.000000 36.000000 -1.645091E+01
22.000000 34.000000 1.864940E+01
22.000000 32.000000 3.583957E+01
22.000000 30.000000 3.512466E+01
22.000000 28.000000 2.691914E+01
22.000000 26.000000 2.405870E+01
22.000000 24.000000 3.339906E+01
22.000000 22.000000 3.621928E+01
22.000000 20.000000 3.732007E+01
22.000000 18.000000 3.787015E+01
22.000000 16.000000 4.572942E+01
22.000000 14.000000 5.089515E+01
22.000000 12.000000 4.373865E+01
22.000000 10.000000 3.215634E+01
22.000000 8.000000 2.826994E+01
22.000000 6.000000 9.063922E+00
22.000000 4.000000 -1.321869E+01
22.000000 2.000000 -4.163357E+01
22.000000 0.000000 -8.278500E+01
22.000000 -2.000000 -1.268984E+02
22.000000 -4.000000 -1.638442E+02
22.000000 -6.000000 -1.815937E+02
22.000000 -8.000000 -1.753646E+02
22.000000 -10.000000 -1.423501E+02
22.000000 -12.000000 -5.113300E+01
22.000000 -14.000000 5.154396E+01
22.000000 -16.000000 1.066502E+02
22.000000 -18.000000 8.645315E+01
22.000000 -20.000000 2.979210E+01
22.000000 -22.000000 -1.271032E+01
22.000000 -24.000000 -2.788328E+01
22.000000 -26.000000 -2.978254E+01
22.000000 -28.000000 -3.695318E+01
22.000000 -30.000000 -4.717950E+01
22.000000 -32.000000 -5.151942E+01
22.000000 -34.000000 -3.766102E+01
22.000000 -36.000000 -1.144001E+01
22.000000 -38.000000 9.421141E+00
22.000000 -40.000000 2.330772E+01
24.000000 40.000000 -9.267813E+01
24.000000 38.000000 -6.375969E+01
24.000000 36.000000 -2.760294E+01
24.000000 34.000000 1.468100E+01
24.000000 32.000000 4.039715E+01
24.000000 30.000000 4.276013E+01
24.000000 28.000000 3.297006E+01
24.000000 26.000000 2.744784E+01
24.000000 24.000000 3.610701E+01
24.000000 22.000000 3.855820E+01
24.000000 20.000000 3.988922E+01
24.000000 18.000000 3.894461E+01
24.000000 16.000000 4.044165E+01
24.000000 14.000000 3.735093E+01
24.000000 12.000000 2.427910E+01
24.000000 10.000000 6.020775E+00
24.000000 8.000000 -8.409464E+00
24.000000 6.000000 -3.360691E+01
24.000000 4.000000 -4.101572E+01
24.000000 2.000000 -4.574176E+01
24.000000 0.000000 -7.450396E+01
24.000000 -2.000000 -1.160258E+02
24.000000 -4.000000 -1.495205E+02
24.000000 -6.000000 -1.584462E+02
24.000000 -8.000000 -1.467895E+02
24.000000 -10.000000 -1.079704E+02
24.000000 -12.000000 -2.028289E+01
24.000000 -14.000000 7.176629E+01
24.000000 -16.000000 1.111451E+02
24.000000 -18.000000 7.913605E+01
24.000000 -20.000000 1.706898E+01
24.000000 -22.000000 -2.671184E+01
24.000000 -24.000000 -4.233700E+01
24.000000 -26.000000 -4.405534E+01
24.000000 -28.000000 -5.137605E+01
24.000000 -30.000000 -6.115559E+01
24.000000 -32.000000 -6.344278E+01
24.000000 -34.000000 -4.833357E+01
24.000000 -36.000000 -2.222779E+01
24.000000 -38.000000 -2.599745E-01
24.000000 -40.000000 1.455078E+01
26.000000 40.000000 -9.710575E+01
26.000000 38.000000 -7.705655E+01
26.000000 36.000000 -4.410675E+01
26.000000 34.000000 8.146000E-01
26.000000 32.000000 2.858059E+01
26.000000 30.000000 2.910741E+01
26.000000 28.000000 1.538993E+01
26.000000 26.000000 5.775283E+00
26.000000 24.000000 1.042695E+01
26.000000 22.000000 1.494394E+01
26.000000 20.000000 1.956500E+01
26.000000 18.000000 2.309858E+01
26.000000 16.000000 2.693148E+01
26.000000 14.000000 2.682665E+01
26.000000 12.000000 2.039098E+01
26.000000 10.000000 1.168772E+01
26.000000 8.000000 7.944857E+00
26.000000 6.000000 -1.722076E+00
26.000000 4.000000 -6.280202E+00
26.000000 2.000000 -1.825650E+01
26.000000 0.000000 -5.100745E+01
26.000000 -2.000000 -9.137107E+01
26.000000 -4.000000 -1.172380E+02
26.000000 -6.000000 -1.218910E+02
26.000000 -8.000000 -1.139683E+02
26.000000 -10.000000 -7.982103E+01
26.000000 -12.000000 -6.308299E+00
26.000000 -14.000000 6.823752E+01
26.000000 -16.000000 9.145775E+01
26.000000 -18.000000 5.056975E+01
26.000000 -20.000000 -1.387430E+01
26.000000 -22.000000 -5.487148E+01
26.000000 -24.000000 -6.469966E+01
26.000000 -26.000000 -6.021443E+01
26.000000 -28.000000 -6.292269E+01
26.000000 -30.000000 -6.971669E+01
26.000000 -32.000000 -6.988888E+01
26.000000 -34.000000 -5.500290E+01
26.000000 -36.000000 -3.038624E+01
26.000000 -38.000000 -7.734639E+00
26.000000 -40.000000 8.809853E+00
28.000000 40.000000 -1.008959E+02
28.000000 38.000000 -8.818625E+01
28.000000 36.000000 -5.908341E+01
28.000000 34.000000 -1.659865E+01
28.000000 32.000000 7.296923E+00
28.000000 30.000000 1.319176E+00
28.000000 28.000000 -1.833174E+01
28.000000 26.000000 -3.204704E+01
28.000000 24.000000 -3.296902E+01
28.000000 22.000000 -2.358452E+01
28.000000 20.000000 -1.099274E+01
28.000000 18.000000 3.068368E+00
28.000000 16.000000 1.653187E+01
28.000000 14.000000 2.676617E+01
28.000000 12.000000 3.299089E+01
28.000000 10.000000 3.983041E+01
28.000000 8.000000 5.275625E+01
28.000000 6.000000 6.263863E+01
28.000000 4.000000 5.570108E+01
28.000000 2.000000 2.516047E+01
28.000000 0.000000 -1.913662E+01
28.000000 -2.000000 -6.133279E+01
28.000000 -4.000000 -8.270171E+01
28.000000 -6.000000 -8.878266E+01
28.000000 -8.000000 -8.981684E+01
28.000000 -10.000000 -6.956666E+01
28.000000 -12.000000 -1.617668E+01
28.000000 -14.000000 3.920379E+01
28.000000 -16.000000 5.102378E+01
28.000000 -18.000000 9.520302E+00
28.000000 -20.000000 -5.001294E+01
28.000000 -22.000000 -8.381763E+01
28.000000 -24.000000 -8.305732E+01
28.000000 -26.000000 -6.842327E+01
28.000000 -28.000000 -6.461053E+01
28.000000 -30.000000 -6.812074E+01
28.000000 -32.000000 -6.859037E+01
28.000000 -34.000000 -5.600859E+01
28.000000 -36.000000 -3.435789E+01
28.000000 -38.000000 -1.247476E+01
28.000000 -40.000000 4.795827E+00
30.000000 40.000000 -1.038881E+02
30.000000 38.000000 -9.500315E+01
30.000000 36.000000 -7.021726E+01
30.000000 34.000000 -3.516985E+01
30.000000 32.000000 -1.796800E+01
30.000000 30.000000 -2.992561E+01
30.000000 28.000000 -5.480152E+01
30.000000 26.000000 -7.147690E+01
30.000000 24.000000 -7.683619E+01
30.000000 22.000000 -6.097043E+01
30.000000 20.000000 -3.779547E+01
30.000000 18.000000 -9.997047E+00
30.000000 16.000000 1.651278E+01
30.000000 14.000000 3.962343E+01
30.000000 12.000000 5.781844E+01
30.000000 10.000000 7.375415E+01
30.000000 8.000000 9.107398E+01
30.000000 6.000000 1.054104E+02
30.000000 4.000000 9.440208E+01
30.000000 2.000000 5.407402E+01
30.000000 0.000000 3.893055E+00
30.000000 -2.000000 -3.924486E+01
30.000000 -4.000000 -5.986196E+01
30.000000 -6.000000 -6.879071E+01
30.000000 -8.000000 -7.904957E+01
30.000000 -10.000000 -7.552888E+01
30.000000 -12.000000 -4.243820E+01
30.000000 -14.000000 -2.982720E+00
30.000000 -16.000000 5.467276E+00
30.000000 -18.000000 -2.670625E+01
30.000000 -20.000000 -7.357134E+01
30.000000 -22.000000 -9.621401E+01
30.000000 -24.000000 -8.408095E+01
30.000000 -26.000000 -6.055122E+01
30.000000 -28.000000 -5.258176E+01
30.000000 -30.000000 -5.552487E+01
30.000000 -32.000000 -5.902715E+01
30.000000 -34.000000 -5.106732E+01
30.000000 -36.000000 -3.499196E+01
30.000000 -38.000000 -1.640138E+01
30.000000 -40.000000 -5.221310E-01
32.000000 40.000000 -1.052024E+02
32.000000 38.000000 -9.750230E+01
32.000000 36.000000 -7.799716E+01
32.000000 34.000000 -5.317384E+01
32.000000 32.000000 -4.232397E+01
32.000000 30.000000 -5.612257E+01
32.000000 28.000000 -8.212119E+01
32.000000 26.000000 -9.946268E+01
32.000000 24.000000 -1.081780E+02
32.000000 22.000000 -8.942136E+01
32.000000 20.000000 -6.025754E+01
32.000000 18.000000 -2.133090E+01
32.000000 16.000000 1.904361E+01
32.000000 14.000000 5.636913E+01
32.000000 12.000000 8.433987E+01
32.000000 10.000000 1.021124E+02
32.000000 8.000000 1.107153E+02
32.000000 6.000000 1.142234E+02
32.000000 4.000000 9.616958E+01
32.000000 2.000000 5.547702E+01
32.000000 0.000000 7.608650E+00
32.000000 -2.000000 -3.412990E+01
32.000000 -4.000000 -5.657843E+01
32.000000 -6.000000 -6.659319E+01
32.000000 -8.000000 -8.075755E+01
32.000000 -10.000000 -8.881365E+01
32.000000 -12.000000 -7.209699E+01
32.000000 -14.000000 -4.398315E+01
32.000000 -16.000000 -3.109503E+01
32.000000 -18.000000 -4.710472E+01
32.000000 -20.000000 -7.669157E+01
32.000000 -22.000000 -8.605574E+01
32.000000 -24.000000 -6.532210E+01
32.000000 -26.000000 -3.809634E+01
32.000000 -28.000000 -3.035645E+01
32.000000 -30.000000 -3.605061E+01
32.000000 -32.000000 -4.465865E+01
32.000000 -34.000000 -4.200741E+01
32.000000 -36.000000 -3.264962E+01
32.000000 -38.000000 -1.969574E+01
32.000000 -40.000000 -7.511593E+00
34.000000 40.000000 -1.047881E+02
34.000000 38.000000 -9.660954E+01
34.000000 36.000000 -8.308285E+01
34.000000 34.000000 -6.779093E+01
34.000000 32.000000 -5.991855E+01
34.000000 30.000000 -7.149327E+01
34.000000 28.000000 -9.439850E+01
34.000000 26.000000 -1.099552E+02
34.000000 24.000000 -1.213846E+02
34.000000 22.000000 -1.080345E+02
34.000000 20.000000 -8.242102E+01
34.000000 18.000000 -4.022704E+01
34.000000 16.000000 1.272398E+01
34.000000 14.000000 6.514858E+01
34.000000 12.000000 1.028897E+02
34.000000 10.000000 1.195719E+02
34.000000 8.000000 1.121079E+02
34.000000 6.000000 9.590884E+01
34.000000 4.000000 6.871851E+01
34.000000 2.000000 3.380428E+01
34.000000 0.000000 -4.289671E+00
34.000000 -2.000000 -4.069785E+01
34.000000 -4.000000 -6.483994E+01
34.000000 -6.000000 -7.337726E+01
34.000000 -8.000000 -8.538727E+01
34.000000 -10.000000 -9.853966E+01
34.000000 -12.000000 -9.358512E+01
34.000000 -14.000000 -7.304539E+01
34.000000 -16.000000 -5.342291E+01
34.000000 -18.000000 -5.294851E+01
34.000000 -20.000000 -6.438994E+01
34.000000 -22.000000 -6.148787E+01
34.000000 -24.000000 -3.702164E+01
34.000000 -26.000000 -1.201053E+01
34.000000 -28.000000 -8.758074E+00
34.000000 -30.000000 -1.862124E+01
34.000000 -32.000000 -3.229065E+01
34.000000 -34.000000 -3.315058E+01
34.000000 -36.000000 -2.802359E+01
34.000000 -38.000000 -2.042923E+01
34.000000 -40.000000 -1.307135E+01
36.000000 40.000000 -1.043305E+02
36.000000 38.000000 -9.611929E+01
36.000000 36.000000 -8.779350E+01
36.000000 34.000000 -7.780225E+01
36.000000 32.000000 -6.730727E+01
36.000000 30.000000 -7.209416E+01
36.000000 28.000000 -8.885135E+01
36.000000 26.000000 -1.017439E+02
36.000000 24.000000 -1.155897E+02
36.000000 22.000000 -1.144363E+02
36.000000 20.000000 -1.020198E+02
36.000000 18.000000 -6.620187E+01
36.000000 16.000000 -5.098618E+00
36.000000 14.000000 6.079241E+01
36.000000 12.000000 1.083144E+02
36.000000 10.000000 1.237088E+02
36.000000 8.000000 1.000150E+02
36.000000 6.000000 6.227101E+01
36.000000 4.000000 2.447649E+01
36.000000 2.000000 -2.731398E+00
36.000000 0.000000 -2.520574E+01
36.000000 -2.000000 -4.658477E+01
36.000000 -4.000000 -6.304723E+01
36.000000 -6.000000 -7.080134E+01
36.000000 -8.000000 -8.397849E+01
36.000000 -10.000000 -1.014649E+02
36.000000 -12.000000 -1.033271E+02
36.000000 -14.000000 -8.686428E+01
36.000000 -16.000000 -6.393894E+01
36.000000 -18.000000 -5.283964E+01
36.000000 -20.000000 -5.093264E+01
36.000000 -22.000000 -4.046331E+01
36.000000 -24.000000 -1.613112E+01
36.000000 -26.000000 3.577599E+00
36.000000 -28.000000 1.188955E+00
36.000000 -30.000000 -1.102936E+01
36.000000 -32.000000 -2.673468E+01
36.000000 -34.000000 -2.745060E+01
36.000000 -36.000000 -2.163720E+01
36.000000 -38.000000 -1.685302E+01
36.000000 -40.000000 -1.423575E+01
38.000000 40.000000 -1.054423E+02
38.000000 38.000000 -1.009913E+02
38.000000 36.000000 -9.565595E+01
38.000000 34.000000 -8.379770E+01
38.000000 32.000000 -6.491113E+01
38.000000 30.000000 -5.894621E+01
38.000000 28.000000 -6.739373E+01
38.000000 26.000000 -7.763409E+01
38.000000 24.000000 -9.243991E+01
38.000000 22.000000 -1.050554E+02
38.000000 20.000000 -1.097764E+02
38.000000 18.000000 -8.707338E+01
38.000000 16.000000 -2.565280E+01
38.000000 14.000000 4.871248E+01
38.000000 12.000000 1.042533E+02
38.000000 10.000000 1.194637E+02
38.000000 8.000000 8.271659E+01
38.000000 6.000000 2.633046E+01
38.000000 4.000000 -2.020032E+01
38.000000 2.000000 -3.926638E+01
38.000000 0.000000 -4.431948E+01
38.000000 -2.000000 -4.596388E+01
38.000000 -4.000000 -4.957657E+01
38.000000 -6.000000 -5.683143E+01
38.000000 -8.000000 -7.379263E+01
38.000000 -10.000000 -9.524982E+01
38.000000 -12.000000 -1.015612E+02
38.000000 -14.000000 -9.061495E+01
38.000000 -16.000000 -7.107271E+01
38.000000 -18.000000 -5.847612E+01
38.000000 -20.000000 -5.169606E+01
38.000000 -22.000000 -3.909525E+01
38.000000 -24.000000 -1.673429E+01
38.000000 -26.000000 -6.693726E-01
38.000000 -28.000000 -4.813969E+00
38.000000 -30.000000 -1.535507E+01
38.000000 -32.000000 -2.759970E+01
38.000000 -34.000000 -2.393350E+01
38.000000 -36.000000 -1.310318E+01
38.000000 -38.000000 -8.351665E+00
38.000000 -40.000000 -9.597242E+00
40.000000 40.000000 -1.080988E+02
40.000000 38.000000 -1.100732E+02
40.000000 36.000000 -1.072936E+02
40.000000 34.000000 -8.909428E+01
40.000000 32.000000 -5.823193E+01
40.000000 30.000000 -4.030956E+01
40.000000 28.000000 -4.041162E+01
40.000000 26.000000 -4.719499E+01
40.000000 24.000000 -5.913357E+01
40.000000 22.000000 -8.015390E+01
40.000000 20.000000 -9.723732E+01
40.000000 18.000000 -8.788806E+01
40.000000 16.000000 -3.443900E+01
40.000000 14.000000 3.890373E+01
40.000000 12.000000 9.667965E+01
40.000000 10.000000 1.120666E+02
40.000000 8.000000 6.736558E+01
40.000000 6.000000 -1.662897E+00
40.000000 4.000000 -5.502496E+01
40.000000 2.000000 -6.850511E+01
40.000000 0.000000 -5.976871E+01
40.000000 -2.000000 -4.491842E+01
40.000000 -4.000000 -3.731616E+01
40.000000 -6.000000 -4.082433E+01
40.000000 -8.000000 -5.797938E+01
40.000000 -10.000000 -7.965779E+01
40.000000 -12.000000 -8.920901E+01
40.000000 -14.000000 -8.834087E+01
40.000000 -16.000000 -7.982594E+01
40.000000 -18.000000 -7.493477E+01
40.000000 -20.000000 -7.142358E+01
40.000000 -22.000000 -5.973298E+01
40.000000 -24.000000 -3.709225E+01
40.000000 -26.000000 -1.922125E+01
40.000000 -28.000000 -1.986826E+01
40.000000 -30.000000 -2.495791E+01
40.000000 -32.000000 -3.005689E+01
40.000000 -34.000000 -2.060543E+01
40.000000 -36.000000 -4.978538E+00
40.000000 -38.000000 8.047152E-01
40.000000 -40.000000 -2.199975E+00
42.000000 40.000000 -1.094534E+02
42.000000 38.000000 -1.167340E+02
42.000000 36.000000 -1.172214E+02
42.000000 34.000000 -9.373629E+01
42.000000 32.000000 -5.239656E+01
42.000000 30.000000 -2.479240E+01
42.000000 28.000000 -1.851524E+01
42.000000 26.000000 -2.153395E+01
42.000000 24.000000 -2.819357E+01
42.000000 22.000000 -4.988629E+01
42.000000 20.000000 -7.097354E+01
42.000000 18.000000 -7.214235E+01
42.000000 16.000000 -3.303522E+01
42.000000 14.000000 2.843709E+01
42.000000 12.000000 7.996062E+01
42.000000 10.000000 9.343269E+01
42.000000 8.000000 4.819039E+01
42.000000 6.000000 -2.238721E+01
42.000000 4.000000 -7.830312E+01
42.000000 2.000000 -8.841948E+01
42.000000 0.000000 -6.838676E+01
42.000000 -2.000000 -4.091991E+01
42.000000 -4.000000 -2.489054E+01
42.000000 -6.000000 -2.347231E+01
42.000000 -8.000000 -3.575396E+01
42.000000 -10.000000 -5.323659E+01
42.000000 -12.000000 -6.882674E+01
42.000000 -14.000000 -8.051593E+01
42.000000 -16.000000 -8.744257E+01
42.000000 -18.000000 -9.599504E+01
42.000000 -20.000000 -9.990372E+01
42.000000 -22.000000 -8.940439E+01
42.000000 -24.000000 -6.261187E+01
42.000000 -26.000000 -3.814064E+01
42.000000 -28.000000 -3.270468E+01
42.000000 -30.000000 -3.159740E+01
42.000000 -32.000000 -3.015956E+01
42.000000 -34.000000 -1.742384E+01
42.000000 -36.000000 -1.012340E+00
42.000000 -38.000000 5.430460E+00
42.000000 -40.000000 2.904091E+00
44.000000 40.000000 -1.059070E+02
44.000000 38.000000 -1.152047E+02
44.000000 36.000000 -1.179728E+02
44.000000 34.000000 -9.468123E+01
44.000000 32.000000 -5.110321E+01
44.000000 30.000000 -1.912254E+01
44.000000 28.000000 -7.870604E+00
44.000000 26.000000 -7.416093E+00
44.000000 24.000000 -1.031891E+01
44.000000 22.000000 -2.830968E+01
44.000000 20.000000 -4.777061E+01
44.000000 18.000000 -5.571579E+01
44.000000 16.000000 -3.235789E+01
44.000000 14.000000 1.088841E+01
44.000000 12.000000 5.037716E+01
44.000000 10.000000 6.065465E+01
44.000000 8.000000 2.363993E+01
44.000000 6.000000 -3.575907E+01
44.000000 4.000000 -8.759898E+01
44.000000 2.000000 -9.555423E+01
44.000000 0.000000 -6.638921E+01
44.000000 -2.000000 -3.118376E+01
44.000000 -4.000000 -1.115364E+01
44.000000 -6.000000 -5.864485E+00
44.000000 -8.000000 -1.245355E+01
44.000000 -10.000000 -2.537795E+01
44.000000 -12.000000 -4.759290E+01
44.000000 -14.000000 -6.975582E+01
44.000000 -16.000000 -9.053145E+01
44.000000 -18.000000 -1.108766E+02
44.000000 -20.000000 -1.199652E+02
44.000000 -22.000000 -1.075728E+02
44.000000 -24.000000 -7.519791E+01
44.000000 -26.000000 -4.557898E+01
44.000000 -28.000000 -3.603627E+01
44.000000 -30.000000 -3.186965E+01
44.000000 -32.000000 -2.809301E+01
44.000000 -34.000000 -1.546175E+01
44.000000 -36.000000 -1.476302E+00
44.000000 -38.000000 4.377623E+00
44.000000 -40.000000 2.729422E+00
46.000000 40.000000 -9.701293E+01
46.000000 38.000000 -1.057186E+02
46.000000 36.000000 -1.089798E+02
46.000000 34.000000 -9.092156E+01
46.000000 32.000000 -5.379355E+01
46.000000 30.000000 -2.421931E+01
46.000000 28.000000 -9.373045E+00
46.000000 26.000000 -4.851963E+00
46.000000 24.000000 -5.663250E+00
46.000000 22.000000 -1.805883E+01
46.000000 20.000000 -3.488039E+01
46.000000 18.000000 -4.562241E+01
46.000000 16.000000 -3.463376E+01
46.000000 14.000000 -8.969463E+00
46.000000 12.000000 1.701635E+01
46.000000 10.000000 2.447221E+01
46.000000 8.000000 6.424026E-01
46.000000 6.000000 -4.185798E+01
46.000000 4.000000 -8.082986E+01
46.000000 2.000000 -8.527549E+01
46.000000 0.000000 -5.678281E+01
46.000000 -2.000000 -2.189806E+01
46.000000 -4.000000 -1.352352E+00
46.000000 -6.000000 4.705793E+00
46.000000 -8.000000 -3.799553E-01
46.000000 -10.000000 -1.222541E+01
46.000000 -12.000000 -3.529515E+01
46.000000 -14.000000 -6.127744E+01
46.000000 -16.000000 -8.899671E+01
46.000000 -18.000000 -1.126363E+02
46.000000 -20.000000 -1.198420E+02
46.000000 -22.000000 -1.029682E+02
46.000000 -24.000000 -6.765553E+01
46.000000 -26.000000 -3.825469E+01
46.000000 -28.000000 -3.060290E+01
46.000000 -30.000000 -2.841379E+01
46.000000 -32.000000 -2.649576E+01
46.000000 -34.000000 -1.602445E+01
46.000000 -36.000000 -5.760611E+00
46.000000 -38.000000 -1.341963E+00
46.000000 -40.000000 -1.982152E+00
48.000000 40.000000 -8.503728E+01
48.000000 38.000000 -9.221580E+01
48.000000 36.000000 -9.475397E+01
48.000000 34.000000 -8.324998E+01
48.000000 32.000000 -5.741519E+01
48.000000 30.000000 -3.538785E+01
48.000000 28.000000 -1.823137E+01
48.000000 26.000000 -8.139670E+00
48.000000 24.000000 -6.042150E+00
48.000000 22.000000 -1.252258E+01
48.000000 20.000000 -2.693364E+01
48.000000 18.000000 -3.760314E+01
48.000000 16.000000 -3.380156E+01
48.000000 14.000000 -2.025428E+01
48.000000 12.000000 -5.604164E+00
48.000000 10.000000 -7.364044E-01
48.000000 8.000000 -1.197624E+01
48.000000 6.000000 -3.619079E+01
48.000000 4.000000 -5.747046E+01
48.000000 2.000000 -5.867607E+01
48.000000 0.000000 -4.055558E+01
48.000000 -2.000000 -1.587818E+01
48.000000 -4.000000 -3.697891E-01
48.000000 -6.000000 1.221306E+00
48.000000 -8.000000 -6.055252E+00
48.000000 -10.000000 -1.821942E+01
48.000000 -12.000000 -3.883891E+01
48.000000 -14.000000 -6.225330E+01
48.000000 -16.000000 -8.701474E+01
48.000000 -18.000000 -1.047606E+02
48.000000 -20.000000 -1.042731E+02
48.000000 -22.000000 -8.222830E+01
48.000000 -24.000000 -4.738117E+01
48.000000 -26.000000 -2.287952E+01
48.000000 -28.000000 -2.212624E+01
48.000000 -30.000000 -2.629834E+01
48.000000 -32.000000 -2.823542E+01
48.000000 -34.000000 -1.991162E+01
48.000000 -36.000000 -1.222195E+01
48.000000 -38.000000 -8.510282E+00
48.000000 -40.000000 -7.518216E+00
50.000000 40.000000 -7.388041E+01
50.000000 38.000000 -7.752160E+01
50.000000 36.000000 -7.787095E+01
50.000000 34.000000 -7.190327E+01
50.000000 32.000000 -5.776568E+01
50.000000 30.000000 -4.473688E+01
50.000000 28.000000 -2.572084E+01
50.000000 26.000000 -7.848580E+00
50.000000 24.000000 -8.207932E-01
50.000000 22.000000 -3.655860E+00
50.000000 20.000000 -1.651879E+01
50.000000 18.000000 -2.582385E+01
50.000000 16.000000 -2.414841E+01
50.000000 14.000000 -1.699510E+01
50.000000 12.000000 -9.359678E+00
50.000000 10.000000 -6.870104E+00
50.000000 8.000000 -9.482197E+00
50.000000 6.000000 -1.790756E+01
50.000000 4.000000 -2.549590E+01
50.000000 2.000000 -2.732646E+01
50.000000 0.000000 -2.281239E+01
50.000000 -2.000000 -1.581910E+01
50.000000 -4.000000 -1.134594E+01
50.000000 -6.000000 -1.507295E+01
50.000000 -8.000000 -2.466376E+01
50.000000 -10.000000 -3.623155E+01
50.000000 -12.000000 -5.320988E+01
50.000000 -14.000000 -7.008856E+01
50.000000 -16.000000 -8.415341E+01
50.000000 -18.000000 -9.134850E+01
50.000000 -20.000000 -8.369130E+01
50.000000 -22.000000 -5.954021E+01
50.000000 -24.000000 -2.884172E+01
50.000000 -26.000000 -1.212949E+01
50.000000 -28.000000 -1.841857E+01
50.000000 -30.000000 -2.909827E+01
50.000000 -32.000000 -3.470465E+01
50.000000 -34.000000 -2.698268E+01
50.000000 -36.000000 -1.869302E+01
50.000000 -38.000000 -1.375187E+01
50.000000 -40.000000 -1.130280E+01
52.000000 40.000000 -6.643608E+01
52.000000 38.000000 -6.447714E+01
52.000000 36.000000 -6.114817E+01
52.000000 34.000000 -5.799321E+01
52.000000 32.000000 -5.185096E+01
52.000000 30.000000 -4.613250E+01
52.000000 28.000000 -2.507977E+01
52.000000 26.000000 2.486811E+00
52.000000 24.000000 1.722357E+01
52.000000 22.000000 1.684411E+01
52.000000 20.000000 5.069509E+00
52.000000 18.000000 -3.171319E+00
52.000000 16.000000 -1.795903E+00
52.000000 14.000000 1.612687E+00
52.000000 12.000000 3.897625E+00
52.000000 10.000000 3.095105E+00
52.000000 8.000000 2.005932E+00
52.000000 6.000000 -8.373098E-01
52.000000 4.000000 -4.003992E+00
52.000000 2.000000 -9.261364E+00
52.000000 0.000000 -1.586650E+01
52.000000 -2.000000 -2.362427E+01
52.000000 -4.000000 -2.920140E+01
52.000000 -6.000000 -3.437461E+01
52.000000 -8.000000 -4.123605E+01
52.000000 -10.000000 -5.125296E+01
52.000000 -12.000000 -6.299329E+01
52.000000 -14.000000 -7.210542E+01
52.000000 -16.000000 -7.623739E+01
52.000000 -18.000000 -7.491401E+01
52.000000 -20.000000 -6.564454E+01
52.000000 -22.000000 -4.550970E+01
52.000000 -24.000000 -2.228622E+01
52.000000 -26.000000 -1.356776E+01
52.000000 -28.000000 -2.448272E+01
52.000000 -30.000000 -3.839900E+01
