-22.000000 10.000000 7.138452E+01
-22.000000 8.000000 5.692898E+01
-22.000000 6.000000 4.638318E+01
-22.000000 4.000000 4.322004E+01
-22.000000 2.000000 3.976314E+01
-22.000000 0.000000 3.240168E+01
-22.000000 -2.000000 2.502922E+01
-22.000000 -4.000000 2.298793E+01
-22.000000 -6.000000 2.639373E+01
-22.000000 -8.000000 3.079251E+01
-22.000000 -10.000000 3.285785E+01
-22.000000 -12.000000 3.355242E+01
-22.000000 -14.000000 3.313760E+01
-22.000000 -16.000000 2.039688E+01
-22.000000 -18.000000 4.452152E-01
-22.000000 -20.000000 -1.056015E+01
-22.000000 -22.000000 -8.373828E+00
-22.000000 -24.000000 3.546362E+00
-22.000000 -26.000000 9.462653E+00
-22.000000 -28.000000 -7.373600E-01
-22.000000 -30.000000 -1.301694E+01
-22.000000 -32.000000 -1.585616E+01
-22.000000 -34.000000 -6.304924E+00
-22.000000 -36.000000 1.088674E+01
-22.000000 -38.000000 2.891907E+01
-22.000000 -40.000000 4.454917E+01
-20.000000 40.000000 2.339135E+01
-20.000000 38.000000 3.826671E+01
-20.000000 36.000000 5.103226E+01
-20.000000 34.000000 6.091059E+01
-20.000000 32.000000 6.449763E+01
-20.000000 30.000000 6.415129E+01
-20.000000 28.000000 6.108829E+01
-20.000000 26.000000 5.852125E+01
-20.000000 24.000000 5.963067E+01
-20.000000 22.000000 6.423513E+01
-20.000000 20.000000 6.947789E+01
-20.000000 18.000000 7.794399E+01
-20.000000 16.000000 9.118469E+01
-20.000000 14.000000 1.055305E+02
-20.000000 12.000000 1.085876E+02
-20.000000 10.000000 9.230194E+01
-20.000000 8.000000 6.617036E+01
-20.000000 6.000000 4.282006E+01
-20.000000 4.000000 3.081269E+01
-20.000000 2.000000 2.545433E+01
-20.000000 0.000000 2.094976E+01
-20.000000 -2.000000 1.836280E+01
-20.000000 -4.000000 2.145970E+01
-20.000000 -6.000000 2.950353E+01
-20.000000 -8.000000 3.614458E+01
-20.000000 -10.000000 3.920103E+01
-20.000000 -12.000000 3.735183E+01
-20.000000 -14.000000 3.474674E+01
-20.000000 -16.000000 2.256799E+01
-20.000000 -18.000000 5.545185E+00
-20.000000 -20.000000 -3.932045E+00
-20.000000 -22.000000 -1.216272E+00
-20.000000 -24.000000 1.083366E+01
-20.000000 -26.000000 1.663707E+01
-20.000000 -28.000000 6.033541E+00
-20.000000 -30.000000 -7.365722E+00
-20.000000 -32.000000 -1.222299E+01
-20.000000 -34.000000 -5.345156E+00
-20.000000 -36.000000 9.764446E+00
-20.000000 -38.000000 2.825406E+01
-20.000000 -40.000000 4.482454E+01
-18.000000 40.000000 2.096092E+01
-18.000000 38.000000 3.450443E+01
-18.000000 36.000000 4.455600E+01
-18.000000 34.000000 4.999261E+01
-18.000000 32.000000 4.999907E+01
-18.000000 30.000000 4.912852E+01
-18.000000 28.000000 4.785191E+01
-18.000000 26.000000 4.878930E+01
-18.000000 24.000000 5.421758E+01
-18.000000 22.000000 6.350287E+01
-18.000000 20.000000 7.147587E+01
-18.000000 18.000000 8.303764E+01
-18.000000 16.000000 1.031856E+02
-18.000000 14.000000 1.272928E+02
-18.000000 12.000000 1.379651E+02
-18.000000 10.000000 1.226637E+02
-18.000000 8.000000 8.454062E+01
-18.000000 6.000000 4.641845E+01
-18.000000 4.000000 2.621163E+01
-18.000000 2.000000 2.041007E+01
-18.000000 0.000000 2.010447E+01
-18.000000 -2.000000 2.054395E+01
-18.000000 -4.000000 2.291367E+01
-18.000000 -6.000000 2.870046E+01
-18.000000 -8.000000 3.179289E+01
-18.000000 -10.000000 3.141251E+01
-18.000000 -12.000000 2.848915E+01
-18.000000 -14.000000 2.655268E+01
-18.000000 -16.000000 1.729726E+01
-18.000000 -18.000000 3.079216E+00
-18.000000 -20.000000 -5.518974E+00
-18.000000 -22.000000 -2.924322E+00
-18.000000 -24.000000 1.048518E+01
-18.000000 -26.000000 1.907114E+01
-18.000000 -28.000000 1.143529E+01
-18.000000 -30.000000 -7.090950E-02
-18.000000 -32.000000 -5.593609E+00
-18.000000 -34.000000 -8.562336E-01
-18.000000 -36.000000 1.195838E+01
-18.000000 -38.000000 2.894709E+01
-18.000000 -40.000000 4.479210E+01
-16.000000 40.000000 1.752308E+01
-16.000000 38.000000 2.976643E+01
-16.000000 36.000000 3.846721E+01
-16.000000 34.000000 4.158644E+01
-16.000000 32.000000 3.926714E+01
-16.000000 30.000000 3.808859E+01
-16.000000 28.000000 3.885124E+01
-16.000000 26.000000 4.367574E+01
-16.000000 24.000000 5.347309E+01
-16.000000 22.000000 6.394266E+01
-16.000000 20.000000 7.111083E+01
-16.000000 18.000000 8.293663E+01
-16.000000 16.000000 1.091708E+02
-16.000000 14.000000 1.445201E+02
-16.000000 12.000000 1.658785E+02
-16.000000 10.000000 1.547011E+02
-16.000000 8.000000 1.058943E+02
-16.000000 6.000000 5.430517E+01
-16.000000 4.000000 2.603385E+01
-16.000000 2.000000 1.908512E+01
-16.000000 0.000000 2.117439E+01
-16.000000 -2.000000 2.359937E+01
-16.000000 -4.000000 2.376368E+01
-16.000000 -6.000000 2.318460E+01
-16.000000 -8.000000 1.933626E+01
-16.000000 -10.000000 1.325869E+01
-16.000000 -12.000000 1.283180E+01
-16.000000 -14.000000 1.558429E+01
-16.000000 -16.000000 1.033461E+01
-16.000000 -18.000000 -3.627022E+00
-16.000000 -20.000000 -1.442148E+01
-16.000000 -22.000000 -1.353153E+01
-16.000000 -24.000000 1.762295E+00
-16.000000 -26.000000 1.589211E+01
-16.000000 -28.000000 1.456310E+01
-16.000000 -30.000000 6.979650E+00
-16.000000 -32.000000 2.049400E+00
-16.000000 -34.000000 6.118398E+00
-16.000000 -36.000000 1.779634E+01
-16.000000 -38.000000 3.206970E+01
-16.000000 -40.000000 4.546181E+01
-14.000000 40.000000 1.271004E+01
-14.000000 38.000000 2.501590E+01
-14.000000 36.000000 3.485255E+01
-14.000000 34.000000 3.893325E+01
-14.000000 32.000000 3.669601E+01
-14.000000 30.000000 3.541715E+01
-14.000000 28.000000 3.670433E+01
-14.000000 26.000000 4.250804E+01
-14.000000 24.000000 5.292997E+01
-14.000000 22.000000 6.073846E+01
-14.000000 20.000000 6.360114E+01
-14.000000 18.000000 7.260953E+01
-14.000000 16.000000 1.033506E+02
-14.000000 14.000000 1.491529E+02
-14.000000 12.000000 1.825461E+02
-14.000000 10.000000 1.780822E+02
-14.000000 8.000000 1.235128E+02
-14.000000 6.000000 6.393733E+01
-14.000000 4.000000 2.661660E+01
-14.000000 2.000000 1.557021E+01
-14.000000 0.000000 1.700374E+01
-14.000000 -2.000000 2.044358E+01
-14.000000 -4.000000 2.082852E+01
-14.000000 -6.000000 1.682569E+01
-14.000000 -8.000000 8.761831E+00
-14.000000 -10.000000 2.542763E-01
-14.000000 -12.000000 2.498581E+00
-14.000000 -14.000000 8.969980E+00
-14.000000 -16.000000 6.610020E+00
-14.000000 -18.000000 -8.306234E+00
-14.000000 -20.000000 -2.272245E+01
-14.000000 -22.000000 -2.395613E+01
-14.000000 -24.000000 -8.289143E+00
-14.000000 -26.000000 9.741024E+00
-14.000000 -28.000000 1.458816E+01
-14.000000 -30.000000 1.067842E+01
-14.000000 -32.000000 7.328592E+00
-14.000000 -34.000000 1.146372E+01
-14.000000 -36.000000 2.288870E+01
-14.000000 -38.000000 3.654048E+01
-14.000000 -40.000000 4.918555E+01
-12.000000 40.000000 7.511166E+00
-12.000000 38.000000 2.092937E+01
-12.000000 36.000000 3.366371E+01
-12.000000 34.000000 4.080793E+01
-12.000000 32.000000 4.081280E+01
-12.000000 30.000000 4.007979E+01
-12.000000 28.000000 4.005530E+01
-12.000000 26.000000 4.338634E+01
-12.000000 24.000000 4.974082E+01
-12.000000 22.000000 5.125702E+01
-12.000000 20.000000 4.747568E+01
-12.000000 18.000000 5.159583E+01
-12.000000 16.000000 8.438545E+01
-12.000000 14.000000 1.372581E+02
-12.000000 12.000000 1.794985E+02
-12.000000 10.000000 1.794752E+02
-12.000000 8.000000 1.254023E+02
-12.000000 6.000000 6.765356E+01
-12.000000 4.000000 2.842860E+01
-12.000000 2.000000 1.389804E+01
-12.000000 0.000000 1.239773E+01
-12.000000 -2.000000 1.611155E+01
-12.000000 -4.000000 1.870233E+01
-12.000000 -6.000000 1.580431E+01
-12.000000 -8.000000 7.815540E+00
-12.000000 -10.000000 -7.063675E-01
-12.000000 -12.000000 1.535904E+00
-12.000000 -14.000000 9.089188E+00
-12.000000 -16.000000 8.522114E+00
-12.000000 -18.000000 -6.082829E+00
-12.000000 -20.000000 -2.208619E+01
-12.000000 -22.000000 -2.513565E+01
-12.000000 -24.000000 -1.110035E+01
-12.000000 -26.000000 6.212715E+00
-12.000000 -28.000000 1.228036E+01
-12.000000 -30.000000 1.052462E+01
-12.000000 -32.000000 9.247495E+00
-12.000000 -34.000000 1.430471E+01
-12.000000 -36.000000 2.637648E+01
-12.000000 -38.000000 4.074181E+01
-12.000000 -40.000000 5.377684E+01
-10.000000 40.000000 4.485924E+00
-10.000000 38.000000 1.774503E+01
-10.000000 36.000000 3.169705E+01
-10.000000 34.000000 4.186051E+01
-10.000000 32.000000 4.555033E+01
-10.000000 30.000000 4.574576E+01
-10.000000 28.000000 4.416629E+01
-10.000000 26.000000 4.409526E+01
-10.000000 24.000000 4.488793E+01
-10.000000 22.000000 3.837415E+01
-10.000000 20.000000 2.684144E+01
-10.000000 18.000000 2.521086E+01
-10.000000 16.000000 5.664129E+01
-10.000000 14.000000 1.120748E+02
-10.000000 12.000000 1.605652E+02
-10.000000 10.000000 1.645424E+02
-10.000000 8.000000 1.153143E+02
-10.000000 6.000000 6.485428E+01
-10.000000 4.000000 3.041098E+01
-10.000000 2.000000 1.561213E+01
-10.000000 0.000000 1.212944E+01
-10.000000 -2.000000 1.626270E+01
-10.000000 -4.000000 2.167145E+01
-10.000000 -6.000000 2.149928E+01
-10.000000 -8.000000 1.426612E+01
-10.000000 -10.000000 5.758404E+00
-10.000000 -12.000000 7.265472E+00
-10.000000 -14.000000 1.506592E+01
-10.000000 -16.000000 1.590016E+01
-10.000000 -18.000000 3.497446E+00
-10.000000 -20.000000 -1.144012E+01
-10.000000 -22.000000 -1.581630E+01
-10.000000 -24.000000 -5.410336E+00
-10.000000 -26.000000 8.553650E+00
-10.000000 -28.000000 1.210212E+01
-10.000000 -30.000000 1.037400E+01
-10.000000 -32.000000 9.899522E+00
-10.000000 -34.000000 1.614999E+01
-10.000000 -36.000000 2.980501E+01
-10.000000 -38.000000 4.370432E+01
-10.000000 -40.000000 5.514485E+01
-8.000000 40.000000 2.625343E+00
-8.000000 38.000000 1.457760E+01
-8.000000 36.000000 2.818984E+01
-8.000000 34.000000 4.110086E+01
-8.000000 32.000000 4.816553E+01
-8.000000 30.000000 4.910824E+01
-8.000000 28.000000 4.649629E+01
-8.000000 26.000000 4.389061E+01
-8.000000 24.000000 4.021053E+01
-8.000000 22.000000 2.789972E+01
-8.000000 20.000000 1.048511E+01
-8.000000 18.000000 2.633324E+00
-8.000000 16.000000 2.819790E+01
-8.000000 14.000000 8.013839E+01
-8.000000 12.000000 1.310099E+02
-8.000000 10.000000 1.433136E+02
-8.000000 8.000000 1.074073E+02
-8.000000 6.000000 6.504077E+01
-8.000000 4.000000 3.455419E+01
-8.000000 2.000000 2.012177E+01
-8.000000 0.000000 1.645662E+01
-8.000000 -2.000000 2.101554E+01
-8.000000 -4.000000 2.733142E+01
-8.000000 -6.000000 2.925348E+01
-8.000000 -8.000000 2.269428E+01
-8.000000 -10.000000 1.434888E+01
-8.000000 -12.000000 1.630784E+01
-8.000000 -14.000000 2.547866E+01
-8.000000 -16.000000 2.724418E+01
-8.000000 -18.000000 1.622374E+01
-8.000000 -20.000000 2.221931E+00
-8.000000 -22.000000 -3.244259E+00
-8.000000 -24.000000 3.376966E+00
-8.000000 -26.000000 1.373267E+01
-8.000000 -28.000000 1.438885E+01
-8.000000 -30.000000 1.132254E+01
-8.000000 -32.000000 1.094025E+01
-8.000000 -34.000000 1.789475E+01
-8.000000 -36.000000 3.199465E+01
-8.000000 -38.000000 4.488300E+01
-8.000000 -40.000000 5.425725E+01
-6.000000 40.000000 -5.155754E-01
-6.000000 38.000000 1.070622E+01
-6.000000 36.000000 2.421272E+01
-6.000000 34.000000 3.896721E+01
-6.000000 32.000000 4.736892E+01
-6.000000 30.000000 4.862694E+01
-6.000000 28.000000 4.523482E+01
-6.000000 26.000000 4.112516E+01
-6.000000 24.000000 3.570030E+01
-6.000000 22.000000 2.303967E+01
-6.000000 20.000000 5.926960E+00
-6.000000 18.000000 -3.869762E+00
-6.000000 16.000000 1.546473E+01
-6.000000 14.000000 5.975396E+01
-6.000000 12.000000 1.068993E+02
-6.000000 10.000000 1.233845E+02
-6.000000 8.000000 9.946846E+01
-6.000000 6.000000 6.452690E+01
-6.000000 4.000000 3.807764E+01
-6.000000 2.000000 2.511608E+01
-6.000000 0.000000 2.240279E+01
-6.000000 -2.000000 2.662000E+01
-6.000000 -4.000000 3.225460E+01
-6.000000 -6.000000 3.462534E+01
-6.000000 -8.000000 2.890085E+01
-6.000000 -10.000000 2.154742E+01
-6.000000 -12.000000 2.485758E+01
-6.000000 -14.000000 3.573344E+01
-6.000000 -16.000000 3.745385E+01
-6.000000 -18.000000 2.585995E+01
-6.000000 -20.000000 1.112333E+01
-6.000000 -22.000000 4.569185E+00
-6.000000 -24.000000 9.802401E+00
-6.000000 -26.000000 1.827988E+01
-6.000000 -28.000000 1.772466E+01
-6.000000 -30.000000 1.362051E+01
-6.000000 -32.000000 1.314398E+01
-6.000000 -34.000000 1.952382E+01
-6.000000 -36.000000 3.191313E+01
-6.000000 -38.000000 4.407732E+01
-6.000000 -40.000000 5.277654E+01
-4.000000 40.000000 -4.245602E+00
-4.000000 38.000000 6.910173E+00
-4.000000 36.000000 1.992212E+01
-4.000000 34.000000 3.426780E+01
-4.000000 32.000000 4.225934E+01
-4.000000 30.000000 4.329846E+01
-4.000000 28.000000 3.895054E+01
-4.000000 26.000000 3.375959E+01
-4.000000 24.000000 2.859218E+01
-4.000000 22.000000 2.004164E+01
-4.000000 20.000000 1.004191E+01
-4.000000 18.000000 7.691101E+00
-4.000000 16.000000 2.775974E+01
-4.000000 14.000000 6.588311E+01
-4.000000 12.000000 1.032170E+02
-4.000000 10.000000 1.144682E+02
-4.000000 8.000000 9.336897E+01
-4.000000 6.000000 6.090774E+01
-4.000000 4.000000 3.601951E+01
-4.000000 2.000000 2.483122E+01
-4.000000 0.000000 2.326487E+01
-4.000000 -2.000000 2.747198E+01
-4.000000 -4.000000 3.256484E+01
-4.000000 -6.000000 3.475899E+01
-4.000000 -8.000000 3.044808E+01
-4.000000 -10.000000 2.473515E+01
-4.000000 -12.000000 2.934999E+01
-4.000000 -14.000000 4.050530E+01
-4.000000 -16.000000 4.105387E+01
-4.000000 -18.000000 2.760819E+01
-4.000000 -20.000000 1.182033E+01
-4.000000 -22.000000 5.832420E+00
-4.000000 -24.000000 1.291156E+01
-4.000000 -26.000000 2.245949E+01
-4.000000 -28.000000 2.230409E+01
-4.000000 -30.000000 1.786965E+01
-4.000000 -32.000000 1.590542E+01
-4.000000 -34.000000 1.980769E+01
-4.000000 -36.000000 2.993228E+01
-4.000000 -38.000000 4.148122E+01
-4.000000 -40.000000 5.034522E+01
-2.000000 40.000000 -7.052065E+00
-2.000000 38.000000 3.919943E+00
-2.000000 36.000000 1.515063E+01
-2.000000 34.000000 2.672810E+01
-2.000000 32.000000 3.331960E+01
-2.000000 30.000000 3.414834E+01
-2.000000 28.000000 2.964720E+01
-2.000000 26.000000 2.427903E+01
-2.000000 24.000000 2.002300E+01
-2.000000 22.000000 1.732107E+01
-2.000000 20.000000 1.658616E+01
-2.000000 18.000000 2.457725E+01
-2.000000 16.000000 4.952412E+01
-2.000000 14.000000 8.662767E+01
-2.000000 12.000000 1.168183E+02
-2.000000 10.000000 1.203022E+02
-2.000000 8.000000 9.437595E+01
-2.000000 6.000000 5.928652E+01
-2.000000 4.000000 3.228866E+01
-2.000000 2.000000 2.059499E+01
-2.000000 0.000000 1.845882E+01
-2.000000 -2.000000 2.231410E+01
-2.000000 -4.000000 2.727983E+01
-2.000000 -6.000000 2.966572E+01
-2.000000 -8.000000 2.733086E+01
-2.000000 -10.000000 2.435505E+01
-2.000000 -12.000000 2.990205E+01
-2.000000 -14.000000 3.888445E+01
-2.000000 -16.000000 3.674217E+01
-2.000000 -18.000000 2.126193E+01
-2.000000 -20.000000 5.477911E+00
-2.000000 -22.000000 2.649366E+00
-2.000000 -24.000000 1.394662E+01
-2.000000 -26.000000 2.600089E+01
-2.000000 -28.000000 2.637306E+01
-2.000000 -30.000000 2.117660E+01
-2.000000 -32.000000 1.643185E+01
-2.000000 -34.000000 1.747066E+01
-2.000000 -36.000000 2.643297E+01
-2.000000 -38.000000 3.793173E+01
-2.000000 -40.000000 4.786852E+01
0.000000 40.000000 -8.051907E+00
0.000000 38.000000 2.168282E+00
0.000000 36.000000 1.003912E+01
0.000000 34.000000 1.647941E+01
0.000000 32.000000 2.077378E+01
0.000000 30.000000 2.253046E+01
0.000000 28.000000 2.010622E+01
0.000000 26.000000 1.661915E+01
0.000000 24.000000 1.363286E+01
0.000000 22.000000 1.420441E+01
0.000000 20.000000 1.824310E+01
0.000000 18.000000 3.223824E+01
0.000000 16.000000 6.223571E+01
0.000000 14.000000 1.032306E+02
0.000000 12.000000 1.353029E+02
0.000000 10.000000 1.388160E+02
0.000000 8.000000 1.083018E+02
0.000000 6.000000 6.783240E+01
0.000000 4.000000 3.391256E+01
0.000000 2.000000 1.657866E+01
0.000000 0.000000 1.075050E+01
0.000000 -2.000000 1.232753E+01
0.000000 -4.000000 1.709323E+01
0.000000 -6.000000 2.016404E+01
0.000000 -8.000000 1.990753E+01
0.000000 -10.000000 2.036453E+01
0.000000 -12.000000 2.628855E+01
0.000000 -14.000000 3.213976E+01
0.000000 -16.000000 2.722770E+01
0.000000 -18.000000 1.071908E+01
0.000000 -20.000000 -4.223223E+00
0.000000 -22.000000 -3.257372E+00
0.000000 -24.000000 1.277680E+01
0.000000 -26.000000 2.749056E+01
0.000000 -28.000000 2.810795E+01
0.000000 -30.000000 2.116796E+01
0.000000 -32.000000 1.348232E+01
0.000000 -34.000000 1.265820E+01
0.000000 -36.000000 2.175486E+01
0.000000 -38.000000 3.477330E+01
0.000000 -40.000000 4.695625E+01
2.000000 40.000000 -7.055647E+00
2.000000 38.000000 1.961164E+00
2.000000 36.000000 5.314871E+00
2.000000 34.000000 5.332800E+00
2.000000 32.000000 7.150845E+00
2.000000 30.000000 1.101889E+01
2.000000 28.000000 1.230047E+01
2.000000 26.000000 1.212672E+01
2.000000 24.000000 1.049035E+01
2.000000 22.000000 9.711229E+00
2.000000 20.000000 1.230217E+01
2.000000 18.000000 2.611684E+01
2.000000 16.000000 5.881258E+01
2.000000 14.000000 1.049878E+02
2.000000 12.000000 1.451909E+02
2.000000 10.000000 1.588434E+02
2.000000 8.000000 1.320810E+02
2.000000 6.000000 8.920526E+01
2.000000 4.000000 4.586934E+01
2.000000 2.000000 1.685680E+01
2.000000 0.000000 2.120226E+00
2.000000 -2.000000 -4.445248E-01
2.000000 -4.000000 3.788853E+00
2.000000 -6.000000 8.223608E+00
2.000000 -8.000000 1.056866E+01
2.000000 -10.000000 1.237161E+01
2.000000 -12.000000 1.694856E+01
2.000000 -14.000000 2.068013E+01
2.000000 -16.000000 1.455057E+01
2.000000 -18.000000 -1.354671E+00
2.000000 -20.000000 -1.395194E+01
2.000000 -22.000000 -9.810261E+00
2.000000 -24.000000 9.361352E+00
2.000000 -26.000000 2.607449E+01
2.000000 -28.000000 2.655311E+01
2.000000 -30.000000 1.820052E+01
2.000000 -32.000000 8.755478E+00
2.000000 -34.000000 6.992229E+00
2.000000 -36.000000 1.672032E+01
2.000000 -38.000000 3.292639E+01
2.000000 -40.000000 4.830514E+01
4.000000 40.000000 -5.267023E+00
4.000000 38.000000 2.793873E+00
4.000000 36.000000 2.663965E+00
4.000000 34.000000 -2.146404E+00
4.000000 32.000000 -2.258884E+00
4.000000 30.000000 3.302080E+00
4.000000 28.000000 7.700645E+00
4.000000 26.000000 1.037405E+01
4.000000 24.000000 9.438622E+00
4.000000 22.000000 4.014881E+00
4.000000 20.000000 1.073784E+00
4.000000 18.000000 1.004587E+01
4.000000 16.000000 4.134934E+01
4.000000 14.000000 9.050087E+01
4.000000 12.000000 1.407465E+02
4.000000 10.000000 1.699896E+02
4.000000 8.000000 1.553727E+02
4.000000 6.000000 1.154927E+02
4.000000 4.000000 6.351067E+01
4.000000 2.000000 1.953025E+01
4.000000 0.000000 -7.529133E+00
4.000000 -2.000000 -1.504854E+01
4.000000 -4.000000 -1.101562E+01
4.000000 -6.000000 -3.018251E+00
4.000000 -8.000000 3.801210E+00
4.000000 -10.000000 6.018388E+00
4.000000 -12.000000 5.668225E+00
4.000000 -14.000000 4.641340E+00
4.000000 -16.000000 -2.366297E+00
4.000000 -18.000000 -1.616689E+01
4.000000 -20.000000 -2.474545E+01
4.000000 -22.000000 -1.737816E+01
4.000000 -24.000000 3.913260E+00
4.000000 -26.000000 2.247383E+01
4.000000 -28.000000 2.301387E+01
4.000000 -30.000000 1.510464E+01
4.000000 -32.000000 5.905073E+00
4.000000 -34.000000 3.574082E+00
4.000000 -36.000000 1.381281E+01
4.000000 -38.000000 3.248691E+01
4.000000 -40.000000 5.103580E+01
6.000000 40.000000 -3.835488E+00
6.000000 38.000000 4.101000E+00
6.000000 36.000000 3.381918E+00
6.000000 34.000000 -2.257879E+00
6.000000 32.000000 -4.105392E+00
6.000000 30.000000 5.506611E-01
6.000000 28.000000 5.378593E+00
6.000000 26.000000 8.855050E+00
6.000000 24.000000 8.149691E+00
6.000000 22.000000 -3.928738E-01
6.000000 20.000000 -9.397131E+00
6.000000 18.000000 -7.840878E+00
6.000000 16.000000 1.806960E+01
6.000000 14.000000 6.676126E+01
6.000000 12.000000 1.252452E+02
6.000000 10.000000 1.712219E+02
6.000000 8.000000 1.748730E+02
6.000000 6.000000 1.427591E+02
6.000000 4.000000 8.261496E+01
6.000000 2.000000 2.036060E+01
6.000000 0.000000 -2.282174E+01
6.000000 -2.000000 -3.751621E+01
6.000000 -4.000000 -3.115253E+01
6.000000 -6.000000 -1.495545E+01
6.000000 -8.000000 -2.069508E+00
6.000000 -10.000000 9.051838E-01
6.000000 -12.000000 -5.391544E+00
6.000000 -14.000000 -1.236440E+01
6.000000 -16.000000 -2.059438E+01
6.000000 -18.000000 -3.144086E+01
6.000000 -20.000000 -3.488074E+01
6.000000 -22.000000 -2.450033E+01
6.000000 -24.000000 -2.533348E+00
6.000000 -26.000000 1.714925E+01
6.000000 -28.000000 2.027271E+01
6.000000 -30.000000 1.470721E+01
6.000000 -32.000000 6.654029E+00
6.000000 -34.000000 4.580935E+00
6.000000 -36.000000 1.568125E+01
6.000000 -38.000000 3.443831E+01
6.000000 -40.000000 5.428265E+01
8.000000 40.000000 -3.430265E+00
8.000000 38.000000 5.867290E+00
8.000000 36.000000 7.660922E+00
8.000000 34.000000 4.734974E+00
8.000000 32.000000 1.105700E+00
8.000000 30.000000 2.138350E+00
8.000000 28.000000 4.055887E+00
8.000000 26.000000 6.009579E+00
8.000000 24.000000 5.425522E+00
8.000000 22.000000 -2.918503E+00
8.000000 20.000000 -1.560366E+01
8.000000 18.000000 -2.126284E+01
8.000000 16.000000 -2.045218E+00
8.000000 14.000000 4.509230E+01
8.000000 12.000000 1.103667E+02
8.000000 10.000000 1.718941E+02
8.000000 8.000000 1.931365E+02
8.000000 6.000000 1.690835E+02
8.000000 4.000000 9.911957E+01
8.000000 2.000000 1.501036E+01
8.000000 0.000000 -4.898038E+01
8.000000 -2.000000 -7.266965E+01
8.000000 -4.000000 -6.153403E+01
8.000000 -6.000000 -3.317647E+01
8.000000 -8.000000 -1.351344E+01
8.000000 -10.000000 -8.511940E+00
8.000000 -12.000000 -1.592175E+01
8.000000 -14.000000 -2.353403E+01
8.000000 -16.000000 -3.126513E+01
8.000000 -18.000000 -3.883938E+01
8.000000 -20.000000 -3.759849E+01
8.000000 -22.000000 -2.559201E+01
8.000000 -24.000000 -5.150175E+00
8.000000 -26.000000 1.309750E+01
8.000000 -28.000000 1.912783E+01
8.000000 -30.000000 1.599988E+01
8.000000 -32.000000 9.480047E+00
8.000000 -34.000000 8.129197E+00
8.000000 -36.000000 2.016319E+01
8.000000 -38.000000 3.886669E+01
8.000000 -40.000000 5.877110E+01
10.000000 40.000000 -4.036050E+00
10.000000 38.000000 8.134899E+00
10.000000 36.000000 1.461784E+01
10.000000 34.000000 1.582529E+01
10.000000 32.000000 1.078533E+01
10.000000 30.000000 7.181692E+00
10.000000 28.000000 3.897249E+00
10.000000 26.000000 2.505552E+00
10.000000 24.000000 1.545655E+00
10.000000 22.000000 -4.932549E+00
10.000000 20.000000 -1.769624E+01
10.000000 18.000000 -2.694437E+01
10.000000 16.000000 -1.279580E+01
10.000000 14.000000 3.265843E+01
10.000000 12.000000 1.030065E+02
10.000000 10.000000 1.753586E+02
10.000000 8.000000 2.072174E+02
10.000000 6.000000 1.879204E+02
10.000000 4.000000 1.087086E+02
10.000000 2.000000 5.767749E+00
10.000000 0.000000 -7.812263E+01
10.000000 -2.000000 -1.127207E+02
10.000000 -4.000000 -1.002025E+02
10.000000 -6.000000 -6.179112E+01
10.000000 -8.000000 -3.470461E+01
10.000000 -10.000000 -2.438507E+01
10.000000 -12.000000 -2.671274E+01
10.000000 -14.000000 -2.832398E+01
10.000000 -16.000000 -2.957982E+01
10.000000 -18.000000 -3.065844E+01
10.000000 -20.000000 -2.603899E+01
10.000000 -22.000000 -1.455986E+01
10.000000 -24.000000 1.519489E+00
10.000000 -26.000000 1.457804E+01
10.000000 -28.000000 1.884874E+01
10.000000 -30.000000 1.585837E+01
10.000000 -32.000000 1.163679E+01
10.000000 -34.000000 1.134007E+01
10.000000 -36.000000 2.409547E+01
10.000000 -38.000000 4.432384E+01
10.000000 -40.000000 6.467021E+01
12.000000 40.000000 -5.082557E+00
12.000000 38.000000 1.083630E+01
12.000000 36.000000 2.291648E+01
12.000000 34.000000 2.767284E+01
12.000000 32.000000 2.093266E+01
12.000000 30.000000 1.262495E+01
12.000000 28.000000 4.194635E+00
12.000000 26.000000 -3.513651E-01
12.000000 24.000000 -1.878061E+00
12.000000 22.000000 -5.167523E+00
12.000000 20.000000 -1.489660E+01
12.000000 18.000000 -2.355507E+01
12.000000 16.000000 -1.266232E+01
12.000000 14.000000 2.974084E+01
12.000000 12.000000 1.001542E+02
12.000000 10.000000 1.764340E+02
12.000000 8.000000 2.133080E+02
12.000000 6.000000 1.962556E+02
12.000000 4.000000 1.130677E+02
12.000000 2.000000 -2.848549E-01
12.000000 0.000000 -9.776348E+01
12.000000 -2.000000 -1.437746E+02
12.000000 -4.000000 -1.368852E+02
12.000000 -6.000000 -9.657019E+01
12.000000 -8.000000 -6.422575E+01
12.000000 -10.000000 -4.746808E+01
12.000000 -12.000000 -4.096662E+01
12.000000 -14.000000 -3.138399E+01
12.000000 -16.000000 -2.055428E+01
12.000000 -18.000000 -1.096240E+01
12.000000 -20.000000 -1.613021E+00
12.000000 -22.000000 8.364253E+00
12.000000 -24.000000 1.700878E+01
12.000000 -26.000000 2.133793E+01
12.000000 -28.000000 1.965192E+01
12.000000 -30.000000 1.427457E+01
12.000000 -32.000000 1.195120E+01
12.000000 -34.000000 1.447294E+01
12.000000 -36.000000 2.894712E+01
12.000000 -38.000000 4.994535E+01
12.000000 -40.000000 6.998875E+01
14.000000 40.000000 -6.121502E+00
14.000000 38.000000 1.345964E+01
14.000000 36.000000 3.060972E+01
14.000000 34.000000 3.753073E+01
14.000000 32.000000 2.853627E+01
14.000000 30.000000 1.601089E+01
14.000000 28.000000 3.885470E+00
14.000000 26.000000 -1.798290E+00
14.000000 24.000000 -2.329064E+00
14.000000 22.000000 -1.900397E+00
14.000000 20.000000 -7.362028E+00
14.000000 18.000000 -1.403208E+01
14.000000 16.000000 -4.993674E+00
14.000000 14.000000 3.358983E+01
14.000000 12.000000 9.924613E+01
14.000000 10.000000 1.726123E+02
14.000000 8.000000 2.093271E+02
14.000000 6.000000 1.943024E+02
14.000000 4.000000 1.155037E+02
14.000000 2.000000 2.920344E+00
14.000000 0.000000 -9.986619E+01
14.000000 -2.000000 -1.575188E+02
14.000000 -4.000000 -1.642978E+02
14.000000 -6.000000 -1.325078E+02
14.000000 -8.000000 -9.976408E+01
14.000000 -10.000000 -7.735502E+01
14.000000 -12.000000 -6.092506E+01
14.000000 -14.000000 -3.818293E+01
14.000000 -16.000000 -1.130163E+01
14.000000 -18.000000 1.175234E+01
14.000000 -20.000000 2.813491E+01
14.000000 -22.000000 3.744261E+01
14.000000 -24.000000 3.709616E+01
14.000000 -26.000000 2.992392E+01
14.000000 -28.000000 2.029429E+01
14.000000 -30.000000 1.136286E+01
14.000000 -32.000000 1.045346E+01
14.000000 -34.000000 1.775807E+01
14.000000 -36.000000 3.536248E+01
14.000000 -38.000000 5.515294E+01
14.000000 -40.000000 7.348433E+01
16.000000 40.000000 -6.338688E+00
16.000000 38.000000 1.574524E+01
16.000000 36.000000 3.613760E+01
16.000000 34.000000 4.479236E+01
16.000000 32.000000 3.390985E+01
16.000000 30.000000 1.715198E+01
16.000000 28.000000 2.080015E+00
16.000000 26.000000 -3.516653E+00
16.000000 24.000000 -1.609863E+00
16.000000 22.000000 2.612014E+00
16.000000 20.000000 1.521000E+00
16.000000 18.000000 -2.528969E+00
16.000000 16.000000 5.551392E+00
16.000000 14.000000 3.890678E+01
16.000000 12.000000 9.669228E+01
16.000000 10.000000 1.623258E+02
16.000000 8.000000 1.966443E+02
16.000000 6.000000 1.869735E+02
16.000000 4.000000 1.206330E+02
16.000000 2.000000 1.947123E+01
16.000000 0.000000 -8.091665E+01
16.000000 -2.000000 -1.499444E+02
16.000000 -4.000000 -1.765684E+02
16.000000 -6.000000 -1.633698E+02
16.000000 -8.000000 -1.367644E+02
16.000000 -10.000000 -1.137331E+02
16.000000 -12.000000 -8.879745E+01
16.000000 -14.000000 -5.197018E+01
16.000000 -16.000000 -7.176103E+00
16.000000 -18.000000 3.021080E+01
16.000000 -20.000000 5.361125E+01
16.000000 -22.000000 6.247940E+01
16.000000 -24.000000 5.434422E+01
16.000000 -26.000000 3.648227E+01
16.000000 -28.000000 1.854016E+01
16.000000 -30.000000 6.026378E+00
16.000000 -32.000000 7.790061E+00
16.000000 -34.000000 2.051656E+01
16.000000 -36.000000 4.136760E+01
16.000000 -38.000000 5.955347E+01
16.000000 -40.000000 7.602301E+01
18.000000 40.000000 -6.869224E+00
18.000000 38.000000 1.709814E+01
18.000000 36.000000 4.013149E+01
18.000000 34.000000 5.067689E+01
18.000000 32.000000 3.852318E+01
18.000000 30.000000 1.747302E+01
18.000000 28.000000 -5.747652E-01
18.000000 26.000000 -6.330495E+00
18.000000 24.000000 -2.690868E+00
18.000000 22.000000 4.695573E+00
18.000000 20.000000 7.623857E+00
18.000000 18.000000 6.829144E+00
18.000000 16.000000 1.448692E+01
18.000000 14.000000 4.269534E+01
18.000000 12.000000 9.186983E+01
18.000000 10.000000 1.479309E+02
18.000000 8.000000 1.801171E+02
18.000000 6.000000 1.770798E+02
18.000000 4.000000 1.267295E+02
18.000000 2.000000 4.170759E+01
18.000000 0.000000 -5.120093E+01
18.000000 -2.000000 -1.258513E+02
18.000000 -4.000000 -1.698932E+02
18.000000 -6.000000 -1.785956E+02
18.000000 -8.000000 -1.662258E+02
18.000000 -10.000000 -1.501957E+02
18.000000 -12.000000 -1.202639E+02
18.000000 -14.000000 -7.170093E+01
18.000000 -16.000000 -1.192380E+01
18.000000 -18.000000 3.814169E+01
18.000000 -20.000000 6.683591E+01
18.000000 -22.000000 7.472065E+01
18.000000 -24.000000 6.270715E+01
18.000000 -26.000000 3.880495E+01
18.000000 -28.000000 1.457898E+01
18.000000 -30.000000 -6.489997E-01
18.000000 -32.000000 3.837312E+00
18.000000 -34.000000 2.096657E+01
18.000000 -36.000000 4.470275E+01
18.000000 -38.000000 6.242096E+01
18.000000 -40.000000 7.793372E+01
20.000000 40.000000 -1.023843E+01
20.000000 38.000000 1.599760E+01
20.000000 36.000000 4.241161E+01
20.000000 34.000000 5.562691E+01
20.000000 32.000000 4.345864E+01
20.000000 30.000000 1.920353E+01
20.000000 28.000000 -1.700720E+00
20.000000 26.000000 -8.259930E+00
20.000000 24.000000 -4.529769E+00
20.000000 22.000000 3.741888E+00
20.000000 20.000000 8.225836E+00
20.000000 18.000000 9.297464E+00
20.000000 16.000000 1.752332E+01
20.000000 14.000000 4.348094E+01
20.000000 12.000000 8.706675E+01
20.000000 10.000000 1.353819E+02
20.000000 8.000000 1.659649E+02
20.000000 6.000000 1.689576E+02
20.000000 4.000000 1.333175E+02
20.000000 2.000000 6.296972E+01
20.000000 0.000000 -2.164042E+01
20.000000 -2.000000 -9.781899E+01
20.000000 -4.000000 -1.524986E+02
20.000000 -6.000000 -1.786736E+02
20.000000 -8.000000 -1.827993E+02
20.000000 -10.000000 -1.775329E+02
20.000000 -12.000000 -1.478354E+02
20.000000 -14.000000 -9.365384E+01
20.000000 -16.000000 -2.575928E+01
20.000000 -18.000000 3.080359E+01
20.000000 -20.000000 6.195661E+01
20.000000 -22.000000 7.022491E+01
20.000000 -24.000000 5.989339E+01
20.000000 -26.000000 3.716237E+01
20.000000 -28.000000 1.204986E+01
20.000000 -30.000000 -4.241583E+00
20.000000 -32.000000 -1.517620E-01
20.000000 -34.000000 1.782975E+01
20.000000 -36.000000 4.315795E+01
20.000000 -38.000000 6.216551E+01
20.000000 -40.000000 7.829878E+01
22.000000 40.000000 -1.739660E+01
22.000000 38.000000 1.087917E+01
22.000000 36.000000 4.013861E+01
22.000000 34.000000 5.788498E+01
22.000000 32.000000 4.906139E+01
22.000000 30.000000 2.452176E+01
22.000000 28.000000 1.614765E+00
22.000000 26.000000 -6.833091E+00
22.000000 24.000000 -4.199574E+00
22.000000 22.000000 3.265343E+00
22.000000 20.000000 6.149368E+00
22.000000 18.000000 6.324482E+00
22.000000 16.000000 1.574014E+01
22.000000 14.000000 4.136586E+01
22.000000 12.000000 8.215269E+01
22.000000 10.000000 1.259283E+02
22.000000 8.000000 1.555459E+02
22.000000 6.000000 1.635616E+02
22.000000 4.000000 1.392942E+02
22.000000 2.000000 7.853497E+01
22.000000 0.000000 -4.811172E-01
22.000000 -2.000000 -7.740545E+01
22.000000 -4.000000 -1.364385E+02
22.000000 -6.000000 -1.714155E+02
22.000000 -8.000000 -1.873665E+02
22.000000 -10.000000 -1.913374E+02
22.000000 -12.000000 -1.662207E+02
22.000000 -14.000000 -1.135286E+02
22.000000 -16.000000 -4.606726E+01
22.000000 -18.000000 9.243074E+00
22.000000 -20.000000 3.921214E+01
22.000000 -22.000000 4.960553E+01
22.000000 -24.000000 4.696790E+01
22.000000 -26.000000 3.378422E+01
22.000000 -28.000000 1.354565E+01
22.000000 -30.000000 -2.958048E+00
22.000000 -32.000000 -2.206865E+00
22.000000 -34.000000 1.278993E+01
22.000000 -36.000000 3.683562E+01
22.000000 -38.000000 5.792318E+01
22.000000 -40.000000 7.621157E+01
24.000000 40.000000 -2.795311E+01
24.000000 38.000000 1.521973E+00
24.000000 36.000000 3.253956E+01
24.000000 34.000000 5.646235E+01
24.000000 32.000000 5.377168E+01
24.000000 30.000000 3.147073E+01
24.000000 28.000000 7.605127E+00
24.000000 26.000000 -2.779673E+00
24.000000 24.000000 -4.350357E-01
24.000000 22.000000 5.980476E+00
24.000000 20.000000 6.346416E+00
24.000000 18.000000 4.646837E+00
24.000000 16.000000 1.445951E+01
24.000000 14.000000 3.984578E+01
24.000000 12.000000 7.944300E+01
24.000000 10.000000 1.211853E+02
24.000000 8.000000 1.496782E+02
24.000000 6.000000 1.592908E+02
24.000000 4.000000 1.399699E+02
24.000000 2.000000 8.279386E+01
24.000000 0.000000 4.932394E+00
24.000000 -2.000000 -7.177597E+01
24.000000 -4.000000 -1.292365E+02
24.000000 -6.000000 -1.646865E+02
24.000000 -8.000000 -1.858606E+02
24.000000 -10.000000 -1.953040E+02
24.000000 -12.000000 -1.758432E+02
24.000000 -14.000000 -1.283830E+02
24.000000 -16.000000 -6.779988E+01
24.000000 -18.000000 -1.954430E+01
24.000000 -20.000000 5.941412E+00
24.000000 -22.000000 1.856886E+01
24.000000 -24.000000 2.784189E+01
24.000000 -26.000000 3.018625E+01
24.000000 -28.000000 1.832580E+01
24.000000 -30.000000 2.501120E+00
24.000000 -32.000000 -1.315380E+00
24.000000 -34.000000 8.027215E+00
24.000000 -36.000000 2.822472E+01
24.000000 -38.000000 5.089955E+01
24.000000 -40.000000 7.153813E+01
26.000000 40.000000 -4.160393E+01
26.000000 38.000000 -1.293223E+01
26.000000 36.000000 2.076714E+01
26.000000 34.000000 5.196400E+01
26.000000 32.000000 5.617228E+01
26.000000 30.000000 3.662050E+01
26.000000 28.000000 1.249961E+01
26.000000 26.000000 1.880156E+00
26.000000 24.000000 5.631739E+00
26.000000 22.000000 1.131743E+01
26.000000 20.000000 1.020790E+01
26.000000 18.000000 7.862358E+00
26.000000 16.000000 1.738441E+01
26.000000 14.000000 4.303639E+01
26.000000 12.000000 8.311548E+01
26.000000 10.000000 1.247654E+02
26.000000 8.000000 1.516800E+02
26.000000 6.000000 1.582143E+02
26.000000 4.000000 1.334960E+02
26.000000 2.000000 7.235843E+01
26.000000 0.000000 -7.885132E+00
26.000000 -2.000000 -8.312679E+01
26.000000 -4.000000 -1.352441E+02
26.000000 -6.000000 -1.659723E+02
26.000000 -8.000000 -1.861137E+02
26.000000 -10.000000 -1.970164E+02
26.000000 -12.000000 -1.805975E+02
26.000000 -14.000000 -1.378411E+02
26.000000 -16.000000 -8.731986E+01
26.000000 -18.000000 -4.932273E+01
26.000000 -20.000000 -2.893751E+01
26.000000 -22.000000 -1.381425E+01
26.000000 -24.000000 7.832495E+00
26.000000 -26.000000 2.605295E+01
26.000000 -28.000000 2.409270E+01
26.000000 -30.000000 1.125328E+01
26.000000 -32.000000 2.334314E+00
26.000000 -34.000000 4.597062E+00
26.000000 -36.000000 2.053742E+01
26.000000 -38.000000 4.332045E+01
26.000000 -40.000000 6.488817E+01
28.000000 40.000000 -5.663528E+01
28.000000 38.000000 -3.120078E+01
28.000000 36.000000 5.746870E+00
28.000000 34.000000 4.416254E+01
28.000000 32.000000 5.543643E+01
28.000000 30.000000 3.896758E+01
28.000000 28.000000 1.553003E+01
28.000000 26.000000 5.402370E+00
28.000000 24.000000 1.021958E+01
28.000000 22.000000 1.547698E+01
28.000000 20.000000 1.407673E+01
28.000000 18.000000 1.274273E+01
28.000000 16.000000 2.321041E+01
28.000000 14.000000 5.160301E+01
28.000000 12.000000 9.470365E+01
28.000000 10.000000 1.384784E+02
28.000000 8.000000 1.620299E+02
28.000000 6.000000 1.598152E+02
28.000000 4.000000 1.206160E+02
28.000000 2.000000 4.876109E+01
28.000000 0.000000 -3.478536E+01
28.000000 -2.000000 -1.056716E+02
28.000000 -4.000000 -1.501041E+02
28.000000 -6.000000 -1.739523E+02
28.000000 -8.000000 -1.909303E+02
28.000000 -10.000000 -2.024365E+02
28.000000 -12.000000 -1.862852E+02
28.000000 -14.000000 -1.463841E+02
28.000000 -16.000000 -1.042428E+02
28.000000 -18.000000 -7.556505E+01
28.000000 -20.000000 -5.822093E+01
28.000000 -22.000000 -3.932067E+01
28.000000 -24.000000 -7.592314E+00
28.000000 -26.000000 2.165538E+01
28.000000 -28.000000 2.776612E+01
28.000000 -30.000000 1.880036E+01
28.000000 -32.000000 6.944010E+00
28.000000 -34.000000 4.248890E+00
28.000000 -36.000000 1.659888E+01
28.000000 -38.000000 3.746668E+01
28.000000 -40.000000 5.807583E+01
30.000000 40.000000 -7.059228E+01
30.000000 38.000000 -4.806232E+01
30.000000 36.000000 -9.663197E+00
30.000000 34.000000 3.344179E+01
30.000000 32.000000 5.012017E+01
30.000000 30.000000 3.673020E+01
30.000000 28.000000 1.474523E+01
30.000000 26.000000 4.470383E+00
30.000000 24.000000 8.986795E+00
30.000000 22.000000 1.429450E+01
30.000000 20.000000 1.397311E+01
30.000000 18.000000 1.591169E+01
30.000000 16.000000 3.041491E+01
30.000000 14.000000 6.385817E+01
30.000000 12.000000 1.106005E+02
30.000000 10.000000 1.554509E+02
30.000000 8.000000 1.713566E+02
30.000000 6.000000 1.563163E+02
30.000000 4.000000 1.000319E+02
30.000000 2.000000 1.526201E+01
30.000000 0.000000 -6.960082E+01
30.000000 -2.000000 -1.300562E+02
30.000000 -4.000000 -1.611472E+02
30.000000 -6.000000 -1.766980E+02
30.000000 -8.000000 -1.938988E+02
30.000000 -10.000000 -2.105178E+02
30.000000 -12.000000 -1.958889E+02
30.000000 -14.000000 -1.572386E+02
30.000000 -16.000000 -1.173265E+02
30.000000 -18.000000 -9.185500E+01
30.000000 -20.000000 -7.402488E+01
30.000000 -22.000000 -5.151084E+01
30.000000 -24.000000 -1.527387E+01
30.000000 -26.000000 1.780328E+01
30.000000 -28.000000 2.744934E+01
30.000000 -30.000000 2.181785E+01
30.000000 -32.000000 1.123191E+01
30.000000 -34.000000 7.550550E+00
30.000000 -36.000000 1.661558E+01
30.000000 -38.000000 3.397102E+01
30.000000 -40.000000 5.203706E+01
32.000000 40.000000 -8.263837E+01
32.000000 38.000000 -6.138626E+01
32.000000 36.000000 -2.326313E+01
32.000000 34.000000 2.059777E+01
32.000000 32.000000 4.005784E+01
32.000000 30.000000 2.987210E+01
32.000000 28.000000 1.021578E+01
32.000000 26.000000 -3.303051E-01
32.000000 24.000000 3.340729E+00
32.000000 22.000000 8.782360E+00
32.000000 20.000000 9.585022E+00
32.000000 18.000000 1.408008E+01
32.000000 16.000000 3.391788E+01
32.000000 14.000000 7.365903E+01
32.000000 12.000000 1.232648E+02
32.000000 10.000000 1.652097E+02
32.000000 8.000000 1.676075E+02
32.000000 6.000000 1.350334E+02
32.000000 4.000000 6.132858E+01
32.000000 2.000000 -3.049284E+01
32.000000 0.000000 -1.088151E+02
32.000000 -2.000000 -1.493653E+02
32.000000 -4.000000 -1.583893E+02
32.000000 -6.000000 -1.624212E+02
32.000000 -8.000000 -1.820887E+02
32.000000 -10.000000 -2.083812E+02
32.000000 -12.000000 -1.997519E+02
32.000000 -14.000000 -1.626567E+02
32.000000 -16.000000 -1.210517E+02
32.000000 -18.000000 -9.233364E+01
32.000000 -20.000000 -7.135347E+01
32.000000 -22.000000 -4.738207E+01
32.000000 -24.000000 -1.391011E+01
32.000000 -26.000000 1.442766E+01
32.000000 -28.000000 2.159220E+01
32.000000 -30.000000 1.877731E+01
32.000000 -32.000000 1.343801E+01
32.000000 -34.000000 1.213208E+01
32.000000 -36.000000 1.858652E+01
32.000000 -38.000000 3.172960E+01
32.000000 -40.000000 4.594785E+01
34.000000 40.000000 -9.175384E+01
34.000000 38.000000 -7.209109E+01
34.000000 36.000000 -3.578871E+01
34.000000 34.000000 5.642395E+00
34.000000 32.000000 2.718859E+01
34.000000 30.000000 2.171357E+01
34.000000 28.000000 5.537626E+00
34.000000 26.000000 -5.114511E+00
34.000000 24.000000 -3.955938E+00
34.000000 22.000000 -6.168365E-03
34.000000 20.000000 7.281361E-01
34.000000 18.000000 6.236156E+00
34.000000 16.000000 3.045705E+01
34.000000 14.000000 7.451910E+01
34.000000 12.000000 1.239051E+02
34.000000 10.000000 1.573621E+02
34.000000 8.000000 1.426229E+02
34.000000 6.000000 9.159985E+01
34.000000 4.000000 7.082996E+00
34.000000 2.000000 -8.037994E+01
34.000000 0.000000 -1.431371E+02
34.000000 -2.000000 -1.583321E+02
34.000000 -4.000000 -1.414180E+02
34.000000 -6.000000 -1.293144E+02
34.000000 -8.000000 -1.482329E+02
34.000000 -10.000000 -1.826725E+02
34.000000 -12.000000 -1.851230E+02
34.000000 -14.000000 -1.544093E+02
34.000000 -16.000000 -1.131825E+02
34.000000 -18.000000 -8.018998E+01
34.000000 -20.000000 -5.626032E+01
34.000000 -22.000000 -3.372990E+01
34.000000 -24.000000 -7.876986E+00
34.000000 -26.000000 9.354630E+00
34.000000 -28.000000 1.053307E+01
34.000000 -30.000000 1.029613E+01
34.000000 -32.000000 1.250574E+01
34.000000 -34.000000 1.558054E+01
34.000000 -36.000000 2.120140E+01
34.000000 -38.000000 3.003408E+01
34.000000 -40.000000 3.925189E+01
36.000000 40.000000 -9.766735E+01
36.000000 38.000000 -8.105447E+01
36.000000 36.000000 -4.821322E+01
36.000000 34.000000 -9.689127E+00
36.000000 32.000000 1.461775E+01
36.000000 30.000000 1.502703E+01
36.000000 28.000000 3.210062E+00
36.000000 26.000000 -7.521925E+00
36.000000 24.000000 -9.697876E+00
36.000000 22.000000 -9.311287E+00
36.000000 20.000000 -1.105168E+01
36.000000 18.000000 -5.893082E+00
36.000000 16.000000 2.059565E+01
36.000000 14.000000 6.509787E+01
36.000000 12.000000 1.102368E+02
36.000000 10.000000 1.320093E+02
36.000000 8.000000 1.025347E+02
36.000000 6.000000 3.923808E+01
36.000000 4.000000 -4.516500E+01
36.000000 2.000000 -1.190365E+02
36.000000 0.000000 -1.617220E+02
36.000000 -2.000000 -1.536305E+02
36.000000 -4.000000 -1.153359E+02
36.000000 -6.000000 -8.580135E+01
36.000000 -8.000000 -9.954248E+01
36.000000 -10.000000 -1.372767E+02
36.000000 -12.000000 -1.540651E+02
36.000000 -14.000000 -1.354456E+02
36.000000 -16.000000 -1.004424E+02
36.000000 -18.000000 -6.787275E+01
36.000000 -20.000000 -4.288831E+01
36.000000 -22.000000 -2.279213E+01
36.000000 -24.000000 -4.994459E+00
36.000000 -26.000000 2.371078E+00
36.000000 -28.000000 -7.313499E-01
36.000000 -30.000000 1.092833E+00
36.000000 -32.000000 9.233114E+00
36.000000 -34.000000 1.672727E+01
36.000000 -36.000000 2.269141E+01
36.000000 -38.000000 2.737988E+01
36.000000 -40.000000 3.162397E+01
38.000000 40.000000 -1.020345E+02
38.000000 38.000000 -8.906226E+01
38.000000 36.000000 -6.037646E+01
38.000000 34.000000 -2.293367E+01
38.000000 32.000000 4.916561E+00
38.000000 30.000000 1.090758E+01
38.000000 28.000000 3.169214E+00
38.000000 26.000000 -7.198217E+00
38.000000 24.000000 -1.120124E+01
38.000000 22.000000 -1.426173E+01
38.000000 20.000000 -1.889306E+01
38.000000 18.000000 -1.600720E+01
38.000000 16.000000 8.185019E+00
38.000000 14.000000 4.881869E+01
38.000000 12.000000 8.682877E+01
38.000000 10.000000 9.850579E+01
38.000000 8.000000 6.187473E+01
38.000000 6.000000 -3.083927E+00
38.000000 4.000000 -7.730398E+01
38.000000 2.000000 -1.327409E+02
38.000000 0.000000 -1.561330E+02
38.000000 -2.000000 -1.332243E+02
38.000000 -4.000000 -8.520143E+01
38.000000 -6.000000 -4.763224E+01
38.000000 -8.000000 -5.743854E+01
38.000000 -10.000000 -9.575893E+01
38.000000 -12.000000 -1.226402E+02
38.000000 -14.000000 -1.159772E+02
38.000000 -16.000000 -9.178401E+01
38.000000 -18.000000 -6.570916E+01
38.000000 -20.000000 -4.243698E+01
38.000000 -22.000000 -2.310521E+01
38.000000 -24.000000 -8.597633E+00
38.000000 -26.000000 -4.478487E+00
38.000000 -28.000000 -8.670298E+00
38.000000 -30.000000 -6.241274E+00
38.000000 -32.000000 4.483986E+00
38.000000 -34.000000 1.489314E+01
38.000000 -36.000000 2.117984E+01
38.000000 -38.000000 2.260563E+01
38.000000 -40.000000 2.341178E+01
40.000000 40.000000 -1.057709E+02
40.000000 38.000000 -9.527793E+01
40.000000 36.000000 -6.975047E+01
40.000000 34.000000 -3.184365E+01
40.000000 32.000000 -1.362991E-02
40.000000 30.000000 1.015493E+01
40.000000 28.000000 4.663361E+00
40.000000 26.000000 -5.348497E+00
40.000000 24.000000 -9.432322E+00
40.000000 22.000000 -1.422833E+01
40.000000 20.000000 -2.149896E+01
40.000000 18.000000 -2.324228E+01
40.000000 16.000000 -5.796461E+00
40.000000 14.000000 2.800739E+01
40.000000 12.000000 5.889447E+01
40.000000 10.000000 6.446518E+01
40.000000 8.000000 2.925454E+01
40.000000 6.000000 -2.593995E+01
40.000000 4.000000 -8.156289E+01
40.000000 2.000000 -1.179463E+02
40.000000 0.000000 -1.266675E+02
40.000000 -2.000000 -9.821456E+01
40.000000 -4.000000 -5.275239E+01
40.000000 -6.000000 -2.353904E+01
40.000000 -8.000000 -3.596199E+01
40.000000 -10.000000 -7.183058E+01
40.000000 -12.000000 -9.980706E+01
40.000000 -14.000000 -1.014499E+02
40.000000 -16.000000 -9.016455E+01
40.000000 -18.000000 -7.520822E+01
40.000000 -20.000000 -5.638078E+01
40.000000 -22.000000 -3.617996E+01
40.000000 -24.000000 -1.891812E+01
40.000000 -26.000000 -1.196225E+01
40.000000 -28.000000 -1.510242E+01
40.000000 -30.000000 -1.320704E+01
40.000000 -32.000000 -2.569454E+00
40.000000 -34.000000 8.742025E+00
40.000000 -36.000000 1.542512E+01
40.000000 -38.000000 1.628434E+01
40.000000 -40.000000 1.671952E+01
42.000000 40.000000 -1.072244E+02
42.000000 38.000000 -9.730919E+01
42.000000 36.000000 -7.362510E+01
42.000000 34.000000 -3.593668E+01
42.000000 32.000000 -2.083870E+00
42.000000 30.000000 1.027804E+01
42.000000 28.000000 5.090370E+00
42.000000 26.000000 -4.466587E+00
42.000000 24.000000 -6.799627E+00
42.000000 22.000000 -1.203464E+01
42.000000 20.000000 -2.351582E+01
42.000000 18.000000 -3.299173E+01
42.000000 16.000000 -2.341670E+01
42.000000 14.000000 4.493954E+00
42.000000 12.000000 3.147714E+01
42.000000 10.000000 3.495031E+01
42.000000 8.000000 6.626738E+00
42.000000 6.000000 -3.278376E+01
42.000000 4.000000 -6.703043E+01
42.000000 2.000000 -8.737582E+01
42.000000 0.000000 -8.775742E+01
42.000000 -2.000000 -6.015246E+01
42.000000 -4.000000 -2.306324E+01
42.000000 -6.000000 -6.481054E+00
42.000000 -8.000000 -2.271726E+01
42.000000 -10.000000 -5.555133E+01
42.000000 -12.000000 -8.115648E+01
42.000000 -14.000000 -8.971030E+01
42.000000 -16.000000 -9.300996E+01
42.000000 -18.000000 -9.173038E+01
42.000000 -20.000000 -7.809716E+01
42.000000 -22.000000 -5.545217E+01
42.000000 -24.000000 -3.191447E+01
42.000000 -26.000000 -1.957752E+01
42.000000 -28.000000 -2.143031E+01
42.000000 -30.000000 -2.130104E+01
42.000000 -32.000000 -1.337730E+01
42.000000 -34.000000 -3.113825E+00
42.000000 -36.000000 4.596039E+00
42.000000 -38.000000 8.404882E+00
42.000000 -40.000000 1.175805E+01
44.000000 40.000000 -1.040493E+02
44.000000 38.000000 -9.369059E+01
44.000000 36.000000 -7.193831E+01
44.000000 34.000000 -3.710889E+01
44.000000 32.000000 -5.330782E+00
44.000000 30.000000 6.141432E+00
44.000000 28.000000 1.071062E+00
44.000000 26.000000 -6.599220E+00
44.000000 24.000000 -5.565420E+00
44.000000 22.000000 -9.392202E+00
44.000000 20.000000 -2.568786E+01
44.000000 18.000000 -4.550894E+01
44.000000 16.000000 -4.258173E+01
44.000000 14.000000 -1.663740E+01
44.000000 12.000000 1.015507E+01
44.000000 10.000000 1.460221E+01
44.000000 8.000000 -4.998606E+00
44.000000 6.000000 -2.969061E+01
44.000000 4.000000 -4.660045E+01
44.000000 2.000000 -5.365957E+01
44.000000 0.000000 -4.761417E+01
44.000000 -2.000000 -2.567637E+01
44.000000 -4.000000 3.775063E-01
44.000000 -6.000000 8.543663E+00
44.000000 -8.000000 -7.606712E+00
44.000000 -10.000000 -3.618150E+01
44.000000 -12.000000 -6.219921E+01
44.000000 -14.000000 -8.052224E+01
44.000000 -16.000000 -9.885527E+01
44.000000 -18.000000 -1.102543E+02
44.000000 -20.000000 -1.016847E+02
44.000000 -22.000000 -7.540713E+01
44.000000 -24.000000 -4.385664E+01
44.000000 -26.000000 -2.560168E+01
44.000000 -28.000000 -2.697248E+01
44.000000 -30.000000 -2.933189E+01
44.000000 -32.000000 -2.530509E+01
44.000000 -34.000000 -1.691378E+01
44.000000 -36.000000 -8.300426E+00
44.000000 -38.000000 -1.076153E+00
44.000000 -40.000000 5.636974E+00
46.000000 40.000000 -9.627578E+01
46.000000 38.000000 -8.517034E+01
46.000000 36.000000 -6.568047E+01
46.000000 34.000000 -3.717201E+01
46.000000 32.000000 -1.282339E+01
46.000000 30.000000 -5.557705E+00
46.000000 28.000000 -9.412919E+00
46.000000 26.000000 -1.274695E+01
46.000000 24.000000 -6.088408E+00
46.000000 22.000000 -4.705895E+00
46.000000 20.000000 -2.053862E+01
46.000000 18.000000 -4.535938E+01
46.000000 16.000000 -4.802385E+01
46.000000 14.000000 -2.696502E+01
46.000000 12.000000 -2.809406E+00
46.000000 10.000000 3.928408E+00
46.000000 8.000000 -6.842473E+00
46.000000 6.000000 -1.987695E+01
46.000000 4.000000 -2.480869E+01
46.000000 2.000000 -2.359891E+01
46.000000 0.000000 -1.562065E+01
46.000000 -2.000000 -2.209818E+00
46.000000 -4.000000 1.371286E+01
46.000000 -6.000000 1.926449E+01
46.000000 -8.000000 6.759531E+00
46.000000 -10.000000 -1.519907E+01
46.000000 -12.000000 -4.456664E+01
46.000000 -14.000000 -7.471707E+01
46.000000 -16.000000 -1.064736E+02
46.000000 -18.000000 -1.275427E+02
46.000000 -20.000000 -1.223313E+02
46.000000 -22.000000 -9.228811E+01
46.000000 -24.000000 -5.340306E+01
46.000000 -26.000000 -2.977758E+01
46.000000 -28.000000 -3.145687E+01
46.000000 -30.000000 -3.643095E+01
46.000000 -32.000000 -3.515253E+01
46.000000 -34.000000 -2.796759E+01
46.000000 -36.000000 -1.966256E+01
46.000000 -38.000000 -1.105123E+01
46.000000 -40.000000 -2.161123E+00
48.000000 40.000000 -8.686634E+01
48.000000 38.000000 -7.437899E+01
48.000000 36.000000 -5.586939E+01
48.000000 34.000000 -3.484548E+01
48.000000 32.000000 -2.181443E+01
48.000000 30.000000 -2.125314E+01
