-14.000000 -20.000000 1.985442E+01
-14.000000 -22.000000 3.362550E+01
-14.000000 -24.000000 3.894655E+01
-14.000000 -26.000000 3.299995E+01
-14.000000 -28.000000 2.392011E+01
-14.000000 -30.000000 1.753950E+01
-14.000000 -32.000000 2.349738E+01
-14.000000 -34.000000 3.065147E+01
-14.000000 -36.000000 2.968961E+01
-14.000000 -38.000000 2.410432E+01
-14.000000 -40.000000 1.643398E+01
-12.000000 40.000000 -6.781609E+01
-12.000000 38.000000 -7.566559E+01
-12.000000 36.000000 -7.609258E+01
-12.000000 34.000000 -6.185876E+01
-12.000000 32.000000 -3.882473E+01
-12.000000 30.000000 -3.503699E+01
-12.000000 28.000000 -4.759462E+01
-12.000000 26.000000 -6.230017E+01
-12.000000 24.000000 -6.368653E+01
-12.000000 22.000000 -4.603776E+01
-12.000000 20.000000 -2.480924E+01
-12.000000 18.000000 -1.986415E+01
-12.000000 16.000000 -4.078350E+01
-12.000000 14.000000 -7.959827E+01
-12.000000 12.000000 -1.174704E+02
-12.000000 10.000000 -1.296083E+02
-12.000000 8.000000 -9.396870E+01
-12.000000 6.000000 -3.834050E+01
-12.000000 4.000000 1.547713E+01
-12.000000 2.000000 3.796805E+01
-12.000000 0.000000 3.250709E+01
-12.000000 -2.000000 1.261907E+01
-12.000000 -4.000000 3.881609E+00
-12.000000 -6.000000 1.214844E+01
-12.000000 -8.000000 1.885367E+01
-12.000000 -10.000000 2.377149E+01
-12.000000 -12.000000 2.827134E+01
-12.000000 -14.000000 2.812852E+01
-12.000000 -16.000000 2.107781E+01
-12.000000 -18.000000 1.513590E+01
-12.000000 -20.000000 2.181781E+01
-12.000000 -22.000000 3.310160E+01
-12.000000 -24.000000 3.374865E+01
-12.000000 -26.000000 2.481656E+01
-12.000000 -28.000000 1.593894E+01
-12.000000 -30.000000 1.248951E+01
-12.000000 -32.000000 2.377006E+01
-12.000000 -34.000000 3.278055E+01
-12.000000 -36.000000 3.030814E+01
-12.000000 -38.000000 2.301798E+01
-12.000000 -40.000000 1.406237E+01
-10.000000 40.000000 -7.023020E+01
-10.000000 38.000000 -7.319316E+01
-10.000000 36.000000 -6.898638E+01
-10.000000 34.000000 -4.768945E+01
-10.000000 32.000000 -1.951566E+01
-10.000000 30.000000 -1.637333E+01
-10.000000 28.000000 -3.251312E+01
-10.000000 26.000000 -4.873318E+01
-10.000000 24.000000 -4.828442E+01
-10.000000 22.000000 -3.228481E+01
-10.000000 20.000000 -1.194977E+01
-10.000000 18.000000 -1.082855E+01
-10.000000 16.000000 -3.756085E+01
-10.000000 14.000000 -8.078841E+01
-10.000000 12.000000 -1.224667E+02
-10.000000 10.000000 -1.399304E+02
-10.000000 8.000000 -1.095507E+02
-10.000000 6.000000 -6.120163E+01
-10.000000 4.000000 -8.748629E+00
-10.000000 2.000000 1.611092E+01
-10.000000 0.000000 1.407399E+01
-10.000000 -2.000000 3.851101E+00
-10.000000 -4.000000 3.511022E+00
-10.000000 -6.000000 1.020253E+01
-10.000000 -8.000000 1.293399E+01
-10.000000 -10.000000 1.160503E+01
-10.000000 -12.000000 1.332374E+01
-10.000000 -14.000000 1.692656E+01
-10.000000 -16.000000 1.768679E+01
-10.000000 -18.000000 2.037513E+01
-10.000000 -20.000000 3.016764E+01
-10.000000 -22.000000 3.760233E+01
-10.000000 -24.000000 3.378552E+01
-10.000000 -26.000000 2.276646E+01
-10.000000 -28.000000 1.221712E+01
-10.000000 -30.000000 8.514935E+00
-10.000000 -32.000000 2.042481E+01
-10.000000 -34.000000 2.939297E+01
-10.000000 -36.000000 2.647291E+01
-10.000000 -38.000000 1.961437E+01
-10.000000 -40.000000 1.136899E+01
-8.000000 40.000000 -6.975318E+01
-8.000000 38.000000 -6.889110E+01
-8.000000 36.000000 -6.226267E+01
-8.000000 34.000000 -3.354322E+01
-8.000000 32.000000 1.063675E+00
-8.000000 30.000000 2.314041E+00
-8.000000 28.000000 -2.045179E+01
-8.000000 26.000000 -4.217319E+01
-8.000000 24.000000 -4.290168E+01
-8.000000 22.000000 -2.873071E+01
-8.000000 20.000000 -9.254534E+00
-8.000000 18.000000 -7.298283E+00
-8.000000 16.000000 -3.151116E+01
-8.000000 14.000000 -7.107682E+01
-8.000000 12.000000 -1.125060E+02
-8.000000 10.000000 -1.341501E+02
-8.000000 8.000000 -1.112010E+02
-8.000000 6.000000 -7.334544E+01
-8.000000 4.000000 -3.081328E+01
-8.000000 2.000000 -1.041909E+01
-8.000000 0.000000 -1.117904E+01
-8.000000 -2.000000 -1.393882E+01
-8.000000 -4.000000 -6.548788E+00
-8.000000 -6.000000 4.063455E+00
-8.000000 -8.000000 6.652572E+00
-8.000000 -10.000000 3.242445E+00
-8.000000 -12.000000 3.641506E+00
-8.000000 -14.000000 9.335846E+00
-8.000000 -16.000000 1.631042E+01
-8.000000 -18.000000 2.592644E+01
-8.000000 -20.000000 3.789922E+01
-8.000000 -22.000000 4.477291E+01
-8.000000 -24.000000 3.897801E+01
-8.000000 -26.000000 2.519420E+01
-8.000000 -28.000000 1.183690E+01
-8.000000 -30.000000 4.751307E+00
-8.000000 -32.000000 1.255477E+01
-8.000000 -34.000000 2.012792E+01
-8.000000 -36.000000 1.856598E+01
-8.000000 -38.000000 1.412643E+01
-8.000000 -40.000000 8.562234E+00
-6.000000 40.000000 -6.707869E+01
-6.000000 38.000000 -6.424791E+01
-6.000000 36.000000 -5.363668E+01
-6.000000 34.000000 -2.177915E+01
-6.000000 32.000000 1.333218E+01
-6.000000 30.000000 1.305024E+01
-6.000000 28.000000 -1.440779E+01
-6.000000 26.000000 -4.237440E+01
-6.000000 24.000000 -4.882250E+01
-6.000000 22.000000 -3.756801E+01
-6.000000 20.000000 -2.146733E+01
-6.000000 18.000000 -1.611897E+01
-6.000000 16.000000 -3.071698E+01
-6.000000 14.000000 -5.972183E+01
-6.000000 12.000000 -9.338596E+01
-6.000000 10.000000 -1.117215E+02
-6.000000 8.000000 -9.309694E+01
-6.000000 6.000000 -6.357834E+01
-6.000000 4.000000 -3.742781E+01
-6.000000 2.000000 -2.988110E+01
-6.000000 0.000000 -3.463801E+01
-6.000000 -2.000000 -3.501132E+01
-6.000000 -4.000000 -2.203138E+01
-6.000000 -6.000000 -3.372648E+00
-6.000000 -8.000000 2.034689E+00
-6.000000 -10.000000 -6.973400E-01
-6.000000 -12.000000 -5.394421E-01
-6.000000 -14.000000 6.151744E+00
-6.000000 -16.000000 1.518611E+01
-6.000000 -18.000000 2.784838E+01
-6.000000 -20.000000 4.136648E+01
-6.000000 -22.000000 5.062810E+01
-6.000000 -24.000000 4.558865E+01
-6.000000 -26.000000 2.966308E+01
-6.000000 -28.000000 1.137638E+01
-6.000000 -30.000000 -1.937190E+00
-6.000000 -32.000000 3.163294E+00
-6.000000 -34.000000 1.000592E+01
-6.000000 -36.000000 9.292487E+00
-6.000000 -38.000000 8.012742E+00
-6.000000 -40.000000 5.891470E+00
-4.000000 40.000000 -6.286810E+01
-4.000000 38.000000 -5.988512E+01
-4.000000 36.000000 -4.706227E+01
-4.000000 34.000000 -1.536221E+01
-4.000000 32.000000 1.714850E+01
-4.000000 30.000000 1.507002E+01
-4.000000 28.000000 -1.508754E+01
-4.000000 26.000000 -4.704201E+01
-4.000000 24.000000 -6.148559E+01
-4.000000 22.000000 -5.572473E+01
-4.000000 20.000000 -4.295505E+01
-4.000000 18.000000 -3.513541E+01
-4.000000 16.000000 -4.122102E+01
-4.000000 14.000000 -5.844588E+01
-4.000000 12.000000 -7.605194E+01
-4.000000 10.000000 -7.698190E+01
-4.000000 8.000000 -5.230624E+01
-4.000000 6.000000 -2.797353E+01
-4.000000 4.000000 -2.277349E+01
-4.000000 2.000000 -3.457166E+01
-4.000000 0.000000 -4.918816E+01
-4.000000 -2.000000 -4.952293E+01
-4.000000 -4.000000 -3.216940E+01
-4.000000 -6.000000 -9.920209E+00
-4.000000 -8.000000 -2.823392E+00
-4.000000 -10.000000 -5.956291E+00
-4.000000 -12.000000 -5.856781E+00
-4.000000 -14.000000 1.719071E+00
-4.000000 -16.000000 1.017469E+01
-4.000000 -18.000000 2.297190E+01
-4.000000 -20.000000 3.776946E+01
-4.000000 -22.000000 5.041532E+01
-4.000000 -24.000000 4.830073E+01
-4.000000 -26.000000 3.276426E+01
-4.000000 -28.000000 9.577015E+00
-4.000000 -30.000000 -1.001820E+01
-4.000000 -32.000000 -5.070402E+00
-4.000000 -34.000000 2.075005E+00
-4.000000 -36.000000 1.793432E+00
-4.000000 -38.000000 3.431759E+00
-4.000000 -40.000000 4.263052E+00
-2.000000 40.000000 -5.717706E+01
-2.000000 38.000000 -5.594414E+01
-2.000000 36.000000 -4.796824E+01
-2.000000 34.000000 -1.695676E+01
-2.000000 32.000000 1.654126E+01
-2.000000 30.000000 1.171049E+01
-2.000000 28.000000 -2.318144E+01
-2.000000 26.000000 -5.694095E+01
-2.000000 24.000000 -7.415371E+01
-2.000000 22.000000 -7.305229E+01
-2.000000 20.000000 -6.296264E+01
-2.000000 18.000000 -5.471232E+01
-2.000000 16.000000 -5.476694E+01
-2.000000 14.000000 -6.171681E+01
-2.000000 12.000000 -6.288347E+01
-2.000000 10.000000 -4.203202E+01
-2.000000 8.000000 -3.041136E+00
-2.000000 6.000000 2.132379E+01
-2.000000 4.000000 5.605272E+00
-2.000000 2.000000 -2.602264E+01
-2.000000 0.000000 -5.253293E+01
-2.000000 -2.000000 -5.449287E+01
-2.000000 -4.000000 -3.499252E+01
-2.000000 -6.000000 -1.497714E+01
-2.000000 -8.000000 -7.953070E+00
-2.000000 -10.000000 -1.200314E+01
-2.000000 -12.000000 -1.278002E+01
-2.000000 -14.000000 -6.949029E+00
-2.000000 -16.000000 -9.976930E-01
-2.000000 -18.000000 9.907909E+00
-2.000000 -20.000000 2.589112E+01
-2.000000 -22.000000 4.104080E+01
-2.000000 -24.000000 4.223404E+01
-2.000000 -26.000000 2.872077E+01
-2.000000 -28.000000 5.855055E+00
-2.000000 -30.000000 -1.401511E+01
-2.000000 -32.000000 -1.028237E+01
-2.000000 -34.000000 -2.643221E+00
-2.000000 -36.000000 -4.301300E-01
-2.000000 -38.000000 2.359581E+00
-2.000000 -40.000000 4.152481E+00
0.000000 40.000000 -5.086734E+01
0.000000 38.000000 -5.291456E+01
0.000000 36.000000 -5.385692E+01
0.000000 34.000000 -2.614006E+01
0.000000 32.000000 7.723858E+00
0.000000 30.000000 8.888474E-01
0.000000 28.000000 -3.594231E+01
0.000000 26.000000 -6.684645E+01
0.000000 24.000000 -8.002448E+01
0.000000 22.000000 -7.972322E+01
0.000000 20.000000 -7.162720E+01
0.000000 18.000000 -6.365232E+01
0.000000 16.000000 -5.951911E+01
0.000000 14.000000 -5.783217E+01
0.000000 12.000000 -4.763513E+01
0.000000 10.000000 -1.445523E+01
0.000000 8.000000 3.072586E+01
0.000000 6.000000 5.570855E+01
0.000000 4.000000 3.226251E+01
0.000000 2.000000 -1.006774E+01
0.000000 0.000000 -4.521624E+01
0.000000 -2.000000 -5.359000E+01
0.000000 -4.000000 -3.879316E+01
0.000000 -6.000000 -1.873940E+01
0.000000 -8.000000 -9.942204E+00
0.000000 -10.000000 -1.241967E+01
0.000000 -12.000000 -1.587923E+01
0.000000 -14.000000 -1.687715E+01
0.000000 -16.000000 -1.634487E+01
0.000000 -18.000000 -8.134161E+00
0.000000 -20.000000 8.201916E+00
0.000000 -22.000000 2.418078E+01
0.000000 -24.000000 2.754489E+01
0.000000 -26.000000 1.719201E+01
0.000000 -28.000000 -4.992008E-02
0.000000 -30.000000 -1.454234E+01
0.000000 -32.000000 -1.059354E+01
0.000000 -34.000000 -1.712029E+00
0.000000 -36.000000 3.037991E+00
0.000000 -38.000000 4.432377E+00
0.000000 -40.000000 5.345123E+00
2.000000 40.000000 -4.515429E+01
2.000000 38.000000 -5.099885E+01
2.000000 36.000000 -5.657161E+01
2.000000 34.000000 -3.923573E+01
2.000000 32.000000 -1.428086E+01
2.000000 30.000000 -1.949066E+01
2.000000 28.000000 -4.769443E+01
2.000000 26.000000 -7.079638E+01
2.000000 24.000000 -7.860729E+01
2.000000 22.000000 -7.448015E+01
2.000000 20.000000 -6.650174E+01
2.000000 18.000000 -5.846110E+01
2.000000 16.000000 -5.285202E+01
2.000000 14.000000 -4.617581E+01
2.000000 12.000000 -3.195602E+01
2.000000 10.000000 -9.178658E-01
2.000000 8.000000 3.583761E+01
2.000000 6.000000 5.870648E+01
2.000000 4.000000 4.362610E+01
2.000000 2.000000 5.479944E+00
2.000000 0.000000 -3.020933E+01
2.000000 -2.000000 -4.475241E+01
2.000000 -4.000000 -3.735351E+01
2.000000 -6.000000 -1.621443E+01
2.000000 -8.000000 -6.434084E+00
2.000000 -10.000000 -8.345075E+00
2.000000 -12.000000 -1.488512E+01
2.000000 -14.000000 -2.289983E+01
2.000000 -16.000000 -2.975211E+01
2.000000 -18.000000 -2.499557E+01
2.000000 -20.000000 -9.378081E+00
2.000000 -22.000000 6.003668E+00
2.000000 -24.000000 1.020559E+01
2.000000 -26.000000 4.959844E+00
2.000000 -28.000000 -6.050935E+00
2.000000 -30.000000 -1.545762E+01
2.000000 -32.000000 -6.952951E+00
2.000000 -34.000000 4.950108E+00
2.000000 -36.000000 9.518549E+00
2.000000 -38.000000 7.524452E+00
2.000000 -40.000000 7.178915E+00
4.000000 40.000000 -3.919286E+01
4.000000 38.000000 -4.772313E+01
4.000000 36.000000 -5.625228E+01
4.000000 34.000000 -5.246993E+01
4.000000 32.000000 -3.889171E+01
4.000000 30.000000 -4.043974E+01
4.000000 28.000000 -5.741414E+01
4.000000 26.000000 -7.250169E+01
4.000000 24.000000 -7.534459E+01
4.000000 22.000000 -6.522992E+01
4.000000 20.000000 -5.305745E+01
4.000000 18.000000 -4.491756E+01
4.000000 16.000000 -4.199359E+01
4.000000 14.000000 -3.738299E+01
4.000000 12.000000 -2.625882E+01
4.000000 10.000000 -4.855316E+00
4.000000 8.000000 1.799682E+01
4.000000 6.000000 3.503792E+01
4.000000 4.000000 3.389102E+01
4.000000 2.000000 1.493382E+01
4.000000 0.000000 -8.801729E+00
4.000000 -2.000000 -2.306747E+01
4.000000 -4.000000 -1.985252E+01
4.000000 -6.000000 -4.834340E+00
4.000000 -8.000000 -9.024334E-02
4.000000 -10.000000 -4.842918E+00
4.000000 -12.000000 -1.272995E+01
4.000000 -14.000000 -2.289896E+01
4.000000 -16.000000 -3.378668E+01
4.000000 -18.000000 -3.193364E+01
4.000000 -20.000000 -1.867925E+01
4.000000 -22.000000 -6.716827E+00
4.000000 -24.000000 -3.797868E+00
4.000000 -26.000000 -3.894968E+00
4.000000 -28.000000 -8.460417E+00
4.000000 -30.000000 -1.492117E+01
4.000000 -32.000000 -1.362875E+00
4.000000 -34.000000 1.296990E+01
4.000000 -36.000000 1.549551E+01
4.000000 -38.000000 1.006196E+01
4.000000 -40.000000 8.623188E+00
6.000000 40.000000 -3.182576E+01
6.000000 38.000000 -4.139171E+01
6.000000 36.000000 -5.627006E+01
6.000000 34.000000 -6.325119E+01
6.000000 32.000000 -5.487980E+01
6.000000 30.000000 -5.218820E+01
6.000000 28.000000 -6.311657E+01
6.000000 26.000000 -7.393810E+01
6.000000 24.000000 -7.171605E+01
6.000000 22.000000 -5.601768E+01
6.000000 20.000000 -3.911701E+01
6.000000 18.000000 -3.191330E+01
6.000000 16.000000 -3.483992E+01
6.000000 14.000000 -3.688041E+01
6.000000 12.000000 -3.303386E+01
6.000000 10.000000 -2.443388E+01
6.000000 8.000000 -1.620225E+01
6.000000 6.000000 -6.516842E+00
6.000000 4.000000 8.623901E+00
6.000000 2.000000 1.614679E+01
6.000000 0.000000 1.177980E+01
6.000000 -2.000000 3.285690E+00
6.000000 -4.000000 5.234903E+00
6.000000 -6.000000 9.357483E+00
6.000000 -8.000000 4.847215E+00
6.000000 -10.000000 -4.129912E+00
6.000000 -12.000000 -1.071024E+01
6.000000 -14.000000 -1.689836E+01
6.000000 -16.000000 -2.479200E+01
6.000000 -18.000000 -2.435036E+01
6.000000 -20.000000 -1.552252E+01
6.000000 -22.000000 -8.205750E+00
6.000000 -24.000000 -6.386150E+00
6.000000 -26.000000 -4.483974E+00
6.000000 -28.000000 -4.526166E+00
6.000000 -30.000000 -8.035847E+00
6.000000 -32.000000 4.779058E+00
6.000000 -34.000000 1.674631E+01
6.000000 -36.000000 1.731856E+01
6.000000 -38.000000 1.126532E+01
6.000000 -40.000000 8.986021E+00
8.000000 40.000000 -2.499374E+01
8.000000 38.000000 -3.416823E+01
8.000000 36.000000 -5.422075E+01
8.000000 34.000000 -6.628683E+01
8.000000 32.000000 -5.881448E+01
8.000000 30.000000 -5.181877E+01
8.000000 28.000000 -6.014896E+01
8.000000 26.000000 -7.169236E+01
8.000000 24.000000 -6.834412E+01
8.000000 22.000000 -4.891320E+01
8.000000 20.000000 -3.065514E+01
8.000000 18.000000 -2.633571E+01
8.000000 16.000000 -3.445894E+01
8.000000 14.000000 -4.269618E+01
8.000000 12.000000 -4.841680E+01
8.000000 10.000000 -5.435344E+01
8.000000 8.000000 -5.706257E+01
8.000000 6.000000 -5.024274E+01
8.000000 4.000000 -2.283669E+01
8.000000 2.000000 5.826694E+00
8.000000 0.000000 2.081952E+01
8.000000 -2.000000 2.182771E+01
8.000000 -4.000000 2.190174E+01
8.000000 -6.000000 1.759485E+01
8.000000 -8.000000 4.721790E+00
8.000000 -10.000000 -7.019105E+00
8.000000 -12.000000 -8.499219E+00
8.000000 -14.000000 -5.411912E+00
8.000000 -16.000000 -4.969193E+00
8.000000 -18.000000 -4.601954E+00
8.000000 -20.000000 -2.955980E-01
8.000000 -22.000000 5.528793E+00
8.000000 -24.000000 7.708449E+00
8.000000 -26.000000 7.315004E+00
8.000000 -28.000000 5.588111E+00
8.000000 -30.000000 2.857434E+00
8.000000 -32.000000 9.957152E+00
8.000000 -34.000000 1.642610E+01
8.000000 -36.000000 1.480799E+01
8.000000 -38.000000 1.001180E+01
8.000000 -40.000000 7.900391E+00
10.000000 40.000000 -2.092311E+01
10.000000 38.000000 -2.917754E+01
10.000000 36.000000 -4.667874E+01
10.000000 34.000000 -5.720525E+01
10.000000 32.000000 -5.059422E+01
10.000000 30.000000 -4.360936E+01
10.000000 28.000000 -5.077851E+01
10.000000 26.000000 -6.397459E+01
10.000000 24.000000 -6.415263E+01
10.000000 22.000000 -4.611319E+01
10.000000 20.000000 -3.019411E+01
10.000000 18.000000 -2.820660E+01
10.000000 16.000000 -3.792607E+01
10.000000 14.000000 -4.995944E+01
10.000000 12.000000 -6.454776E+01
10.000000 10.000000 -8.327121E+01
10.000000 8.000000 -9.550179E+01
10.000000 6.000000 -9.297859E+01
10.000000 4.000000 -6.207297E+01
10.000000 2.000000 -1.866876E+01
10.000000 0.000000 1.588142E+01
10.000000 -2.000000 3.123634E+01
10.000000 -4.000000 3.327711E+01
10.000000 -6.000000 2.222533E+01
10.000000 -8.000000 -2.051878E+00
10.000000 -10.000000 -1.866469E+01
10.000000 -12.000000 -8.968437E+00
10.000000 -14.000000 1.130477E+01
10.000000 -16.000000 2.515782E+01
10.000000 -18.000000 2.711041E+01
10.000000 -20.000000 2.692774E+01
10.000000 -22.000000 3.154857E+01
10.000000 -24.000000 3.127597E+01
10.000000 -26.000000 2.603976E+01
10.000000 -28.000000 1.824832E+01
10.000000 -30.000000 1.078851E+01
10.000000 -32.000000 1.268945E+01
10.000000 -34.000000 1.482930E+01
10.000000 -36.000000 9.782069E+00
10.000000 -38.000000 6.031343E+00
10.000000 -40.000000 5.498095E+00
12.000000 40.000000 -1.827142E+01
12.000000 38.000000 -2.435479E+01
12.000000 36.000000 -3.594116E+01
12.000000 34.000000 -4.119576E+01
12.000000 32.000000 -3.471060E+01
12.000000 30.000000 -3.142908E+01
12.000000 28.000000 -4.071369E+01
12.000000 26.000000 -5.485850E+01
12.000000 24.000000 -5.879179E+01
12.000000 22.000000 -4.659073E+01
12.000000 20.000000 -3.304133E+01
12.000000 18.000000 -2.988956E+01
12.000000 16.000000 -3.860505E+01
12.000000 14.000000 -5.380598E+01
12.000000 12.000000 -7.369532E+01
12.000000 10.000000 -9.996269E+01
12.000000 8.000000 -1.238568E+02
12.000000 6.000000 -1.350684E+02
12.000000 4.000000 -1.116924E+02
12.000000 2.000000 -5.837341E+01
12.000000 0.000000 -1.182848E+00
12.000000 -2.000000 3.910822E+01
12.000000 -4.000000 5.261803E+01
12.000000 -6.000000 2.848233E+01
12.000000 -8.000000 -1.595243E+01
12.000000 -10.000000 -4.188982E+01
12.000000 -12.000000 -1.462746E+01
12.000000 -14.000000 3.328259E+01
12.000000 -16.000000 6.652510E+01
12.000000 -18.000000 7.113619E+01
12.000000 -20.000000 6.334790E+01
12.000000 -22.000000 6.048235E+01
12.000000 -24.000000 5.228852E+01
12.000000 -26.000000 4.216571E+01
12.000000 -28.000000 2.721273E+01
12.000000 -30.000000 1.254443E+01
12.000000 -32.000000 1.146289E+01
12.000000 -34.000000 1.150752E+01
12.000000 -36.000000 4.030914E+00
12.000000 -38.000000 1.291847E+00
12.000000 -40.000000 2.693966E+00
14.000000 40.000000 -1.518778E+01
14.000000 38.000000 -1.773077E+01
14.000000 36.000000 -2.630031E+01
14.000000 34.000000 -2.665852E+01
14.000000 32.000000 -1.738351E+01
14.000000 30.000000 -1.636274E+01
14.000000 28.000000 -3.037946E+01
14.000000 26.000000 -4.791588E+01
14.000000 24.000000 -5.392265E+01
14.000000 22.000000 -4.543032E+01
14.000000 20.000000 -3.169349E+01
14.000000 18.000000 -2.496980E+01
14.000000 16.000000 -3.114654E+01
14.000000 14.000000 -4.833806E+01
14.000000 12.000000 -7.223285E+01
14.000000 10.000000 -1.051961E+02
14.000000 8.000000 -1.431733E+02
14.000000 6.000000 -1.728028E+02
14.000000 4.000000 -1.613335E+02
14.000000 2.000000 -1.009620E+02
14.000000 0.000000 -2.295879E+01
14.000000 -2.000000 4.266417E+01
14.000000 -4.000000 6.907093E+01
14.000000 -6.000000 2.983540E+01
14.000000 -8.000000 -3.435378E+01
14.000000 -10.000000 -6.531159E+01
14.000000 -12.000000 -1.441262E+01
14.000000 -14.000000 6.563767E+01
14.000000 -16.000000 1.180338E+02
14.000000 -18.000000 1.216912E+02
14.000000 -20.000000 9.986405E+01
14.000000 -22.000000 8.006918E+01
14.000000 -24.000000 6.008622E+01
14.000000 -26.000000 4.482909E+01
14.000000 -28.000000 2.623578E+01
14.000000 -30.000000 9.063070E+00
14.000000 -32.000000 6.081667E+00
14.000000 -34.000000 5.667353E+00
14.000000 -36.000000 2.116642E-01
14.000000 -38.000000 -1.108238E+00
14.000000 -40.000000 7.705173E-01
16.000000 40.000000 -1.103001E+01
16.000000 38.000000 -1.142178E+01
16.000000 36.000000 -1.936537E+01
16.000000 34.000000 -1.699242E+01
16.000000 32.000000 -4.482138E+00
16.000000 30.000000 -3.439732E+00
16.000000 28.000000 -2.092119E+01
16.000000 26.000000 -4.180449E+01
16.000000 24.000000 -4.794229E+01
16.000000 22.000000 -3.860823E+01
16.000000 20.000000 -2.308886E+01
16.000000 18.000000 -1.080322E+01
16.000000 16.000000 -1.224669E+01
16.000000 14.000000 -2.949223E+01
16.000000 12.000000 -6.146243E+01
16.000000 10.000000 -1.077695E+02
16.000000 8.000000 -1.609943E+02
16.000000 6.000000 -2.023389E+02
16.000000 4.000000 -1.959026E+02
16.000000 2.000000 -1.309198E+02
16.000000 0.000000 -4.137809E+01
16.000000 -2.000000 3.403270E+01
16.000000 -4.000000 6.184322E+01
16.000000 -6.000000 1.541760E+01
16.000000 -8.000000 -5.219390E+01
16.000000 -10.000000 -7.269163E+01
16.000000 -12.000000 5.766879E+00
16.000000 -14.000000 1.133086E+02
16.000000 -16.000000 1.757011E+02
16.000000 -18.000000 1.672093E+02
16.000000 -20.000000 1.227408E+02
16.000000 -22.000000 8.234740E+01
16.000000 -24.000000 5.163629E+01
16.000000 -26.000000 3.191349E+01
16.000000 -28.000000 1.474225E+01
16.000000 -30.000000 3.515148E-01
16.000000 -32.000000 -1.769428E+00
16.000000 -34.000000 6.788063E-02
16.000000 -36.000000 -1.067705E+00
16.000000 -38.000000 -8.582401E-01
16.000000 -40.000000 4.961109E-01
18.000000 40.000000 -5.683686E+00
18.000000 38.000000 -7.782625E+00
18.000000 36.000000 -1.399948E+01
18.000000 34.000000 -1.054918E+01
18.000000 32.000000 2.040752E+00
18.000000 30.000000 2.912823E+00
18.000000 28.000000 -1.360832E+01
18.000000 26.000000 -3.308874E+01
18.000000 24.000000 -3.892947E+01
18.000000 22.000000 -2.783380E+01
18.000000 20.000000 -1.024369E+01
18.000000 18.000000 8.743797E+00
18.000000 16.000000 1.360399E+01
18.000000 14.000000 -3.822012E+00
18.000000 12.000000 -4.826476E+01
18.000000 10.000000 -1.125692E+02
18.000000 8.000000 -1.788784E+02
18.000000 6.000000 -2.247114E+02
18.000000 4.000000 -2.170403E+02
18.000000 2.000000 -1.498314E+02
18.000000 0.000000 -5.744171E+01
18.000000 -2.000000 1.850938E+01
18.000000 -4.000000 4.629769E+01
18.000000 -6.000000 9.095554E-01
18.000000 -8.000000 -6.284961E+01
18.000000 -10.000000 -6.862020E+01
18.000000 -12.000000 3.897929E+01
18.000000 -14.000000 1.721882E+02
18.000000 -16.000000 2.337515E+02
18.000000 -18.000000 2.000861E+02
18.000000 -20.000000 1.266261E+02
18.000000 -22.000000 6.806451E+01
18.000000 -24.000000 3.039384E+01
18.000000 -26.000000 1.204819E+01
18.000000 -28.000000 -2.412542E+00
18.000000 -30.000000 -1.416310E+01
18.000000 -32.000000 -1.056571E+01
18.000000 -34.000000 -3.220554E+00
18.000000 -36.000000 -1.498079E+00
18.000000 -38.000000 2.192574E-01
18.000000 -40.000000 1.575411E+00
20.000000 40.000000 5.180187E-01
20.000000 38.000000 -4.945222E+00
20.000000 36.000000 -1.042990E+01
20.000000 34.000000 -6.000553E+00
20.000000 32.000000 6.176344E+00
20.000000 30.000000 5.876516E+00
20.000000 28.000000 -8.618826E+00
20.000000 26.000000 -2.362657E+01
20.000000 24.000000 -2.802432E+01
20.000000 22.000000 -1.800334E+01
20.000000 20.000000 1.403690E+00
20.000000 18.000000 2.686880E+01
20.000000 16.000000 3.815727E+01
20.000000 14.000000 1.826645E+01
20.000000 12.000000 -3.869999E+01
20.000000 10.000000 -1.185726E+02
20.000000 8.000000 -1.934744E+02
20.000000 6.000000 -2.400931E+02
20.000000 4.000000 -2.279849E+02
20.000000 2.000000 -1.592035E+02
20.000000 0.000000 -7.016980E+01
20.000000 -2.000000 4.743375E+00
20.000000 -4.000000 3.673925E+01
20.000000 -6.000000 -1.484667E+00
20.000000 -8.000000 -5.540412E+01
20.000000 -10.000000 -4.829035E+01
20.000000 -12.000000 7.705244E+01
20.000000 -14.000000 2.215715E+02
20.000000 -16.000000 2.728118E+02
20.000000 -18.000000 2.129725E+02
20.000000 -20.000000 1.150472E+02
20.000000 -22.000000 4.293594E+01
20.000000 -24.000000 3.571182E+00
20.000000 -26.000000 -8.264717E+00
20.000000 -28.000000 -1.929278E+01
20.000000 -30.000000 -2.839807E+01
20.000000 -32.000000 -1.805721E+01
20.000000 -34.000000 -5.451014E+00
20.000000 -36.000000 -2.093254E+00
20.000000 -38.000000 1.253054E+00
20.000000 -40.000000 3.222347E+00
22.000000 40.000000 7.800827E+00
22.000000 38.000000 -1.348905E+00
22.000000 36.000000 -1.023769E+01
22.000000 34.000000 -4.472683E+00
22.000000 32.000000 1.069774E+01
22.000000 30.000000 9.669633E+00
22.000000 28.000000 -5.498732E+00
22.000000 26.000000 -1.707619E+01
22.000000 24.000000 -1.892865E+01
22.000000 22.000000 -1.089169E+01
22.000000 20.000000 7.833360E+00
22.000000 18.000000 3.822944E+01
22.000000 16.000000 5.629665E+01
22.000000 14.000000 3.352572E+01
22.000000 12.000000 -3.380904E+01
22.000000 10.000000 -1.239194E+02
22.000000 8.000000 -2.004295E+02
22.000000 6.000000 -2.417981E+02
22.000000 4.000000 -2.216737E+02
22.000000 2.000000 -1.522712E+02
22.000000 0.000000 -7.191091E+01
22.000000 -2.000000 -2.842343E+00
22.000000 -4.000000 3.284459E+01
22.000000 -6.000000 7.780952E+00
22.000000 -8.000000 -2.909371E+01
22.000000 -10.000000 -9.505924E+00
22.000000 -12.000000 1.123184E+02
22.000000 -14.000000 2.401666E+02
22.000000 -16.000000 2.708904E+02
22.000000 -18.000000 1.951333E+02
22.000000 -20.000000 8.816875E+01
22.000000 -22.000000 1.241448E+01
22.000000 -24.000000 -2.148067E+01
22.000000 -26.000000 -2.574041E+01
22.000000 -28.000000 -2.968498E+01
22.000000 -30.000000 -3.226605E+01
22.000000 -32.000000 -2.028551E+01
22.000000 -34.000000 -7.105026E+00
22.000000 -36.000000 -1.614475E+00
22.000000 -38.000000 2.260914E+00
22.000000 -40.000000 4.466759E+00
24.000000 40.000000 1.484537E+01
24.000000 38.000000 2.324525E+00
24.000000 36.000000 -1.068332E+01
24.000000 34.000000 -4.774129E+00
24.000000 32.000000 1.334640E+01
24.000000 30.000000 1.388420E+01
24.000000 28.000000 -1.548095E+00
24.000000 26.000000 -1.404734E+01
24.000000 24.000000 -1.715616E+01
24.000000 22.000000 -9.620210E+00
24.000000 20.000000 9.985002E+00
24.000000 18.000000 4.221299E+01
24.000000 16.000000 6.086922E+01
24.000000 14.000000 3.742100E+01
24.000000 12.000000 -3.333224E+01
24.000000 10.000000 -1.265350E+02
24.000000 8.000000 -1.961815E+02
24.000000 6.000000 -2.223555E+02
24.000000 4.000000 -1.901602E+02
24.000000 2.000000 -1.233731E+02
24.000000 0.000000 -5.530338E+01
24.000000 -2.000000 -2.674065E-01
24.000000 -4.000000 2.936486E+01
24.000000 -6.000000 2.153749E+01
24.000000 -8.000000 8.165883E+00
24.000000 -10.000000 3.889444E+01
24.000000 -12.000000 1.355930E+02
24.000000 -14.000000 2.232203E+02
24.000000 -16.000000 2.261077E+02
24.000000 -18.000000 1.433412E+02
24.000000 -20.000000 4.175514E+01
24.000000 -22.000000 -2.255084E+01
24.000000 -24.000000 -4.113903E+01
24.000000 -26.000000 -3.443285E+01
24.000000 -28.000000 -2.951411E+01
24.000000 -30.000000 -2.476492E+01
24.000000 -32.000000 -1.478414E+01
24.000000 -34.000000 -4.205450E+00
24.000000 -36.000000 1.069761E+00
24.000000 -38.000000 3.639706E+00
24.000000 -40.000000 5.066278E+00
26.000000 40.000000 1.975082E+01
26.000000 38.000000 6.487576E+00
26.000000 36.000000 -6.237877E+00
26.000000 34.000000 -3.100678E+00
26.000000 32.000000 1.272284E+01
26.000000 30.000000 1.509818E+01
26.000000 28.000000 2.338095E-01
26.000000 26.000000 -1.798045E+01
26.000000 24.000000 -2.796749E+01
26.000000 22.000000 -1.988958E+01
26.000000 20.000000 5.322491E+00
26.000000 18.000000 3.890378E+01
26.000000 16.000000 5.304040E+01
26.000000 14.000000 2.964102E+01
26.000000 12.000000 -3.799492E+01
26.000000 10.000000 -1.261896E+02
26.000000 8.000000 -1.827368E+02
26.000000 6.000000 -1.894830E+02
26.000000 4.000000 -1.426391E+02
26.000000 2.000000 -7.660949E+01
26.000000 0.000000 -1.961362E+01
26.000000 -2.000000 1.974584E+01
26.000000 -4.000000 4.068772E+01
26.000000 -6.000000 4.383549E+01
26.000000 -8.000000 4.228198E+01
26.000000 -10.000000 7.102627E+01
26.000000 -12.000000 1.375685E+02
26.000000 -14.000000 1.851985E+02
26.000000 -16.000000 1.585873E+02
26.000000 -18.000000 7.013979E+01
26.000000 -20.000000 -1.796928E+01
26.000000 -22.000000 -5.947165E+01
26.000000 -24.000000 -5.456294E+01
26.000000 -26.000000 -3.161530E+01
26.000000 -28.000000 -1.932015E+01
26.000000 -30.000000 -1.040767E+01
26.000000 -32.000000 -2.288692E+00
26.000000 -34.000000 5.297306E+00
26.000000 -36.000000 6.035778E+00
26.000000 -38.000000 5.736126E+00
26.000000 -40.000000 5.508001E+00
28.000000 40.000000 2.371227E+01
28.000000 38.000000 1.212037E+01
28.000000 36.000000 -3.170538E-01
28.000000 34.000000 -6.570148E-01
28.000000 32.000000 1.116827E+01
28.000000 30.000000 1.202141E+01
28.000000 28.000000 -6.241787E+00
28.000000 26.000000 -3.231654E+01
28.000000 24.000000 -5.164296E+01
28.000000 22.000000 -4.333333E+01
28.000000 20.000000 -1.035469E+01
28.000000 18.000000 2.885021E+01
28.000000 16.000000 4.165592E+01
28.000000 14.000000 1.600479E+01
28.000000 12.000000 -4.796284E+01
28.000000 10.000000 -1.247549E+02
28.000000 8.000000 -1.646261E+02
28.000000 6.000000 -1.541607E+02
28.000000 4.000000 -9.325154E+01
28.000000 2.000000 -2.233760E+01
28.000000 0.000000 3.067231E+01
28.000000 -2.000000 6.025975E+01
28.000000 -4.000000 7.283579E+01
28.000000 -6.000000 6.942408E+01
28.000000 -8.000000 6.446913E+01
28.000000 -10.000000 8.091834E+01
28.000000 -12.000000 1.189358E+02
28.000000 -14.000000 1.334367E+02
28.000000 -16.000000 8.411160E+01
28.000000 -18.000000 -1.305724E+00
28.000000 -20.000000 -6.988064E+01
28.000000 -22.000000 -8.818696E+01
28.000000 -24.000000 -6.086479E+01
28.000000 -26.000000 -2.241118E+01
28.000000 -28.000000 -3.133215E+00
28.000000 -30.000000 8.992659E+00
28.000000 -32.000000 1.533011E+01
28.000000 -34.000000 1.959419E+01
28.000000 -36.000000 1.357327E+01
28.000000 -38.000000 8.911459E+00
28.000000 -40.000000 5.432058E+00
30.000000 40.000000 2.766749E+01
30.000000 38.000000 1.739548E+01
30.000000 36.000000 4.584148E-01
30.000000 34.000000 -3.136464E+00
30.000000 32.000000 6.476436E+00
30.000000 30.000000 5.034056E+00
30.000000 28.000000 -1.782926E+01
30.000000 26.000000 -5.288073E+01
30.000000 24.000000 -8.101614E+01
30.000000 22.000000 -7.142781E+01
30.000000 20.000000 -3.106897E+01
30.000000 18.000000 1.453323E+01
30.000000 16.000000 2.712480E+01
30.000000 14.000000 -6.160736E-02
30.000000 12.000000 -5.989033E+01
30.000000 10.000000 -1.252471E+02
30.000000 8.000000 -1.461737E+02
30.000000 6.000000 -1.173263E+02
30.000000 4.000000 -4.202245E+01
30.000000 2.000000 3.294384E+01
30.000000 0.000000 8.082518E+01
30.000000 -2.000000 9.878911E+01
30.000000 -4.000000 9.900949E+01
30.000000 -6.000000 8.205961E+01
30.000000 -8.000000 6.938981E+01
30.000000 -10.000000 7.353716E+01
30.000000 -12.000000 8.917297E+01
30.000000 -14.000000 8.073686E+01
30.000000 -16.000000 2.379989E+01
30.000000 -18.000000 -4.840757E+01
30.000000 -20.000000 -9.555156E+01
30.000000 -22.000000 -9.694837E+01
30.000000 -24.000000 -5.744636E+01
30.000000 -26.000000 -1.204587E+01
30.000000 -28.000000 1.297576E+01
30.000000 -30.000000 2.948511E+01
30.000000 -32.000000 3.500192E+01
30.000000 -34.000000 3.555503E+01
30.000000 -36.000000 2.340636E+01
30.000000 -38.000000 1.277126E+01
30.000000 -40.000000 3.696993E+00
32.000000 40.000000 2.987855E+01
32.000000 38.000000 1.805320E+01
32.000000 36.000000 -4.289507E+00
32.000000 34.000000 -1.261068E+01
32.000000 32.000000 -6.073344E+00
32.000000 30.000000 -8.930891E+00
32.000000 28.000000 -3.255561E+01
32.000000 26.000000 -7.090745E+01
32.000000 24.000000 -1.016510E+02
32.000000 22.000000 -8.946350E+01
32.000000 20.000000 -4.838277E+01
32.000000 18.000000 -2.434886E+00
32.000000 16.000000 9.569882E+00
32.000000 14.000000 -1.725899E+01
32.000000 12.000000 -7.266643E+01
32.000000 10.000000 -1.259698E+02
32.000000 8.000000 -1.248417E+02
32.000000 6.000000 -7.526645E+01
32.000000 4.000000 1.039248E+01
32.000000 2.000000 7.976829E+01
32.000000 0.000000 1.146305E+02
32.000000 -2.000000 1.134656E+02
32.000000 -4.000000 9.502587E+01
32.000000 -6.000000 7.129781E+01
32.000000 -8.000000 5.790418E+01
32.000000 -10.000000 5.681830E+01
32.000000 -12.000000 5.939650E+01
32.000000 -14.000000 4.117778E+01
32.000000 -16.000000 -8.667915E+00
32.000000 -18.000000 -6.415686E+01
32.000000 -20.000000 -9.358644E+01
32.000000 -22.000000 -8.428707E+01
32.000000 -24.000000 -4.288379E+01
32.000000 -26.000000 4.923706E-01
32.000000 -28.000000 2.622857E+01
32.000000 -30.000000 4.537302E+01
32.000000 -32.000000 5.216576E+01
32.000000 -34.000000 5.066428E+01
32.000000 -36.000000 3.313226E+01
32.000000 -38.000000 1.598746E+01
32.000000 -40.000000 -2.568321E-01
34.000000 40.000000 2.867823E+01
34.000000 38.000000 1.091458E+01
34.000000 36.000000 -1.367729E+01
34.000000 34.000000 -2.837990E+01
34.000000 32.000000 -2.611290E+01
34.000000 30.000000 -2.968208E+01
34.000000 28.000000 -4.945585E+01
34.000000 26.000000 -7.974917E+01
34.000000 24.000000 -1.031867E+02
34.000000 22.000000 -8.977758E+01
34.000000 20.000000 -5.569154E+01
34.000000 18.000000 -1.877593E+01
34.000000 16.000000 -1.009048E+01
34.000000 14.000000 -3.463963E+01
34.000000 12.000000 -8.116047E+01
34.000000 10.000000 -1.183140E+02
34.000000 8.000000 -9.818292E+01
34.000000 6.000000 -3.502346E+01
34.000000 4.000000 4.977312E+01
34.000000 2.000000 1.045138E+02
34.000000 0.000000 1.215713E+02
34.000000 -2.000000 1.036724E+02
34.000000 -4.000000 7.292488E+01
34.000000 -6.000000 4.916298E+01
34.000000 -8.000000 3.844566E+01
34.000000 -10.000000 3.462871E+01
34.000000 -12.000000 3.335132E+01
34.000000 -14.000000 1.641550E+01
34.000000 -16.000000 -2.137444E+01
34.000000 -18.000000 -5.865226E+01
34.000000 -20.000000 -7.250429E+01
34.000000 -22.000000 -5.695421E+01
34.000000 -24.000000 -2.042092E+01
34.000000 -26.000000 1.580628E+01
34.000000 -28.000000 3.663759E+01
34.000000 -30.000000 5.328556E+01
34.000000 -32.000000 6.298977E+01
34.000000 -34.000000 6.205394E+01
34.000000 -36.000000 4.001894E+01
34.000000 -38.000000 1.731047E+01
34.000000 -40.000000 -6.142292E+00
36.000000 40.000000 2.515861E+01
36.000000 38.000000 -7.743721E-01
36.000000 36.000000 -2.945112E+01
36.000000 34.000000 -4.873661E+01
36.000000 32.000000 -4.737296E+01
36.000000 30.000000 -4.950046E+01
36.000000 28.000000 -6.326226E+01
36.000000 26.000000 -8.101389E+01
36.000000 24.000000 -9.096908E+01
36.000000 22.000000 -7.709672E+01
36.000000 20.000000 -5.172480E+01
36.000000 18.000000 -2.882180E+01
36.000000 16.000000 -2.653437E+01
36.000000 14.000000 -4.769687E+01
36.000000 12.000000 -8.076024E+01
36.000000 10.000000 -9.905021E+01
36.000000 8.000000 -6.763396E+01
36.000000 6.000000 -3.573231E+00
36.000000 4.000000 6.603523E+01
36.000000 2.000000 1.005074E+02
36.000000 0.000000 1.001917E+02
36.000000 -2.000000 7.767250E+01
36.000000 -4.000000 5.152830E+01
36.000000 -6.000000 3.317445E+01
36.000000 -8.000000 2.215177E+01
36.000000 -10.000000 1.285390E+01
36.000000 -12.000000 8.941407E+00
36.000000 -14.000000 -3.169029E+00
36.000000 -16.000000 -2.670509E+01
36.000000 -18.000000 -4.464188E+01
36.000000 -20.000000 -4.369831E+01
36.000000 -22.000000 -2.498149E+01
36.000000 -24.000000 3.771493E+00
36.000000 -26.000000 3.000012E+01
36.000000 -28.000000 4.274213E+01
36.000000 -30.000000 5.345380E+01
36.000000 -32.000000 6.502832E+01
36.000000 -34.000000 6.541698E+01
36.000000 -36.000000 4.107625E+01
36.000000 -38.000000 1.533261E+01
36.000000 -40.000000 -1.221510E+01
38.000000 40.000000 2.101181E+01
38.000000 38.000000 -1.297177E+01
38.000000 36.000000 -4.935855E+01
38.000000 34.000000 -6.928685E+01
38.000000 32.000000 -6.302696E+01
38.000000 30.000000 -6.138429E+01
38.000000 28.000000 -6.990052E+01
38.000000 26.000000 -7.824205E+01
38.000000 24.000000 -7.455862E+01
38.000000 22.000000 -5.874088E+01
38.000000 20.000000 -4.120470E+01
38.000000 18.000000 -3.068505E+01
38.000000 16.000000 -3.339343E+01
38.000000 14.000000 -4.938918E+01
38.000000 12.000000 -7.042977E+01
38.000000 10.000000 -7.579004E+01
38.000000 8.000000 -4.098355E+01
38.000000 6.000000 1.521735E+01
38.000000 4.000000 6.415888E+01
38.000000 2.000000 7.784076E+01
38.000000 0.000000 6.432728E+01
38.000000 -2.000000 4.438015E+01
38.000000 -4.000000 3.119247E+01
38.000000 -6.000000 2.413651E+01
38.000000 -8.000000 1.473928E+01
38.000000 -10.000000 1.492105E+00
38.000000 -12.000000 -8.160484E+00
38.000000 -14.000000 -2.006994E+01
38.000000 -16.000000 -3.312851E+01
38.000000 -18.000000 -3.537805E+01
38.000000 -20.000000 -2.191902E+01
38.000000 -22.000000 4.084511E-01
38.000000 -24.000000 2.324880E+01
38.000000 -26.000000 3.812304E+01
38.000000 -28.000000 4.270308E+01
38.000000 -30.000000 4.905517E+01
38.000000 -32.000000 5.850073E+01
38.000000 -34.000000 5.859683E+01
38.000000 -36.000000 3.469336E+01
38.000000 -38.000000 9.133757E+00
38.000000 -40.000000 -1.709554E+01
40.000000 40.000000 1.447356E+01
40.000000 38.000000 -2.374529E+01
40.000000 36.000000 -6.365437E+01
40.000000 34.000000 -8.129569E+01
40.000000 32.000000 -6.935372E+01
40.000000 30.000000 -6.346217E+01
40.000000 28.000000 -6.801595E+01
40.000000 26.000000 -7.221171E+01
40.000000 24.000000 -6.091183E+01
40.000000 22.000000 -4.198272E+01
40.000000 20.000000 -2.986246E+01
40.000000 18.000000 -2.536948E+01
40.000000 16.000000 -2.940143E+01
40.000000 14.000000 -3.954627E+01
40.000000 12.000000 -5.068220E+01
40.000000 10.000000 -5.015654E+01
40.000000 8.000000 -2.165238E+01
40.000000 6.000000 2.031033E+01
40.000000 4.000000 5.092356E+01
40.000000 2.000000 4.913440E+01
40.000000 0.000000 2.982702E+01
40.000000 -2.000000 1.264788E+01
40.000000 -4.000000 1.026648E+01
40.000000 -6.000000 1.719407E+01
40.000000 -8.000000 1.361813E+01
40.000000 -10.000000 1.573196E+00
40.000000 -12.000000 -1.501066E+01
40.000000 -14.000000 -3.239590E+01
40.000000 -16.000000 -4.193976E+01
40.000000 -18.000000 -3.549055E+01
40.000000 -20.000000 -1.430811E+01
40.000000 -22.000000 1.295893E+01
40.000000 -24.000000 3.240607E+01
40.000000 -26.000000 3.799796E+01
40.000000 -28.000000 3.508383E+01
40.000000 -30.000000 3.784387E+01
40.000000 -32.000000 4.602419E+01
40.000000 -34.000000 4.630197E+01
40.000000 -36.000000 2.396580E+01
40.000000 -38.000000 7.477932E-01
40.000000 -40.000000 -2.176588E+01
42.000000 40.000000 4.699195E+00
42.000000 38.000000 -3.138116E+01
42.000000 36.000000 -6.487469E+01
42.000000 34.000000 -7.885019E+01
42.000000 32.000000 -6.497040E+01
42.000000 30.000000 -5.635617E+01
42.000000 28.000000 -5.831244E+01
42.000000 26.000000 -6.253248E+01
42.000000 24.000000 -5.198016E+01
42.000000 22.000000 -3.178555E+01
42.000000 20.000000 -1.964212E+01
42.000000 18.000000 -1.597195E+01
42.000000 16.000000 -1.937048E+01
42.000000 14.000000 -2.415958E+01
42.000000 12.000000 -2.718391E+01
42.000000 10.000000 -2.372595E+01
42.000000 8.000000 -6.603937E+00
42.000000 6.000000 1.798001E+01
42.000000 4.000000 3.294157E+01
42.000000 2.000000 2.287486E+01
42.000000 0.000000 2.653336E+00
42.000000 -2.000000 -1.108624E+01
42.000000 -4.000000 -5.742814E+00
42.000000 -6.000000 1.039541E+01
42.000000 -8.000000 1.049054E+01
42.000000 -10.000000 1.199603E-02
42.000000 -12.000000 -1.837959E+01
42.000000 -14.000000 -3.853090E+01
42.000000 -16.000000 -4.834295E+01
42.000000 -18.000000 -3.992621E+01
42.000000 -20.000000 -1.741643E+01
42.000000 -22.000000 1.177643E+01
42.000000 -24.000000 2.854021E+01
42.000000 -26.000000 2.911828E+01
42.000000 -28.000000 1.944343E+01
42.000000 -30.000000 1.785887E+01
42.000000 -32.000000 3.039316E+01
42.000000 -34.000000 3.379826E+01
42.000000 -36.000000 1.329770E+01
42.000000 -38.000000 -6.592766E+00
42.000000 -40.000000 -2.569023E+01
44.000000 40.000000 -3.199425E+00
44.000000 38.000000 -3.459069E+01
44.000000 36.000000 -5.945164E+01
44.000000 34.000000 -6.640327E+01
44.000000 32.000000 -4.922769E+01
44.000000 30.000000 -3.949394E+01
44.000000 28.000000 -4.327595E+01
44.000000 26.000000 -5.207953E+01
44.000000 24.000000 -4.565055E+01
44.000000 22.000000 -2.560797E+01
44.000000 20.000000 -1.108033E+01
44.000000 18.000000 -6.889156E+00
44.000000 16.000000 -1.018469E+01
44.000000 14.000000 -1.132930E+01
44.000000 12.000000 -7.627533E+00
44.000000 10.000000 -1.344293E+00
44.000000 8.000000 4.654715E+00
44.000000 6.000000 1.115697E+01
44.000000 4.000000 1.254071E+01
44.000000 2.000000 2.453509E+00
44.000000 0.000000 -1.465767E+01
44.000000 -2.000000 -2.240844E+01
44.000000 -4.000000 -1.305586E+01
44.000000 -6.000000 5.043936E-01
44.000000 -8.000000 -3.755269E-01
44.000000 -10.000000 -1.153214E+01
44.000000 -12.000000 -2.462091E+01
44.000000 -14.000000 -3.713572E+01
44.000000 -16.000000 -4.624488E+01
44.000000 -18.000000 -4.193524E+01
44.000000 -20.000000 -2.456738E+01
44.000000 -22.000000 -1.773628E+00
44.000000 -24.000000 1.254105E+01
44.000000 -26.000000 1.214868E+01
44.000000 -28.000000 2.050209E-02
44.000000 -30.000000 -3.703611E+00
44.000000 -32.000000 1.337012E+01
44.000000 -34.000000 2.101491E+01
44.000000 -36.000000 4.970091E+00
44.000000 -38.000000 -1.065287E+01
44.000000 -40.000000 -2.681035E+01
46.000000 40.000000 -5.571843E+00
46.000000 38.000000 -3.372309E+01
46.000000 36.000000 -5.351762E+01
46.000000 34.000000 -5.085599E+01
46.000000 32.000000 -2.667978E+01
46.000000 30.000000 -1.603475E+01
46.000000 28.000000 -2.552071E+01
46.000000 26.000000 -4.226533E+01
46.000000 24.000000 -3.914853E+01
46.000000 22.000000 -1.889001E+01
46.000000 20.000000 -4.556298E+00
46.000000 18.000000 -1.004983E+00
46.000000 16.000000 -5.204445E+00
46.000000 14.000000 -4.360133E+00
46.000000 12.000000 2.991091E+00
46.000000 10.000000 8.119267E+00
46.000000 8.000000 5.010087E+00
46.000000 6.000000 -8.984995E-01
46.000000 4.000000 -5.958725E+00
46.000000 2.000000 -1.281485E+01
46.000000 0.000000 -2.540725E+01
46.000000 -2.000000 -2.875523E+01
46.000000 -4.000000 -1.909740E+01
46.000000 -6.000000 -1.036162E+01
46.000000 -8.000000 -1.216743E+01
46.000000 -10.000000 -2.129631E+01
46.000000 -12.000000 -2.760163E+01
46.000000 -14.000000 -3.314976E+01
46.000000 -16.000000 -4.166470E+01
46.000000 -18.000000 -4.310661E+01
46.000000 -20.000000 -3.253371E+01
46.000000 -22.000000 -1.690987E+01
46.000000 -24.000000 -5.284711E+00
46.000000 -26.000000 -5.451658E+00
46.000000 -28.000000 -1.421022E+01
46.000000 -30.000000 -1.713058E+01
46.000000 -32.000000 -2.682930E+00
46.000000 -34.000000 7.054561E+00
46.000000 -36.000000 -1.475185E+00
46.000000 -38.000000 -1.282263E+01
46.000000 -40.000000 -2.597272E+01
48.000000 40.000000 -3.664877E+00
48.000000 38.000000 -2.860572E+01
48.000000 36.000000 -4.444907E+01
48.000000 34.000000 -3.521239E+01
48.000000 32.000000 -7.209723E+00
48.000000 30.000000 3.294704E+00
48.000000 28.000000 -9.234084E+00
48.000000 26.000000 -2.946443E+01
48.000000 24.000000 -2.871529E+01
48.000000 22.000000 -1.187939E+01
48.000000 20.000000 -1.484114E+00
48.000000 18.000000 -6.741679E-01
48.000000 16.000000 -4.221222E+00
48.000000 14.000000 -1.905957E+00
48.000000 12.000000 2.728191E+00
48.000000 10.000000 5.270538E-01
48.000000 8.000000 -7.723147E+00
48.000000 6.000000 -1.504904E+01
48.000000 4.000000 -1.817280E+01
48.000000 2.000000 -2.291621E+01
48.000000 0.000000 -3.008779E+01
48.000000 -2.000000 -3.149453E+01
48.000000 -4.000000 -2.500866E+01
48.000000 -6.000000 -1.778128E+01
48.000000 -8.000000 -1.776099E+01
48.000000 -10.000000 -2.128616E+01
48.000000 -12.000000 -2.376634E+01
48.000000 -14.000000 -2.895097E+01
48.000000 -16.000000 -3.907492E+01
48.000000 -18.000000 -4.568293E+01
48.000000 -20.000000 -3.928522E+01
48.000000 -22.000000 -2.483083E+01
48.000000 -24.000000 -1.497784E+01
48.000000 -26.000000 -1.454006E+01
48.000000 -28.000000 -2.046128E+01
48.000000 -30.000000 -2.372342E+01
48.000000 -32.000000 -1.433291E+01
48.000000 -34.000000 -3.889599E+00
48.000000 -36.000000 -5.821836E+00
48.000000 -38.000000 -1.403563E+01
48.000000 -40.000000 -2.480733E+01
50.000000 40.000000 1.094855E+00
50.000000 38.000000 -1.873699E+01
50.000000 36.000000 -2.980932E+01
50.000000 34.000000 -2.078109E+01
50.000000 32.000000 2.718021E+00
50.000000 30.000000 9.808582E+00
50.000000 28.000000 -1.374457E+00
50.000000 26.000000 -1.815318E+01
50.000000 24.000000 -1.895930E+01
50.000000 22.000000 -8.560147E+00
50.000000 20.000000 -1.691686E+00
50.000000 18.000000 -2.308988E+00
50.000000 16.000000 -5.073341E+00
50.000000 14.000000 -3.889770E+00
50.000000 12.000000 -3.458042E+00
50.000000 10.000000 -1.034938E+01
50.000000 8.000000 -1.953618E+01
50.000000 6.000000 -2.485138E+01
50.000000 4.000000 -2.310512E+01
50.000000 2.000000 -2.367432E+01
50.000000 0.000000 -2.631375E+01
50.000000 -2.000000 -2.686714E+01
50.000000 -4.000000 -2.285787E+01
50.000000 -6.000000 -1.845342E+01
50.000000 -8.000000 -1.932534E+01
50.000000 -10.000000 -2.054049E+01
50.000000 -12.000000 -2.100931E+01
50.000000 -14.000000 -2.631940E+01
50.000000 -16.000000 -3.841827E+01
50.000000 -18.000000 -4.826426E+01
50.000000 -20.000000 -4.218702E+01
50.000000 -22.000000 -2.536898E+01
50.000000 -24.000000 -1.587183E+01
50.000000 -26.000000 -1.467840E+01
50.000000 -28.000000 -2.091248E+01
50.000000 -30.000000 -2.684549E+01
50.000000 -32.000000 -2.021237E+01
50.000000 -34.000000 -8.405270E+00
50.000000 -36.000000 -6.379705E+00
50.000000 -38.000000 -1.321571E+01
50.000000 -40.000000 -2.305984E+01
52.000000 40.000000 9.356411E+00
52.000000 38.000000 -6.042922E+00
52.000000 36.000000 -1.577858E+01
52.000000 34.000000 -1.006710E+01
52.000000 32.000000 5.954737E+00
52.000000 30.000000 6.237028E+00
52.000000 28.000000 -5.096738E+00
52.000000 26.000000 -1.711724E+01
52.000000 24.000000 -1.658423E+01
52.000000 22.000000 -9.480472E+00
52.000000 20.000000 -3.233176E+00
52.000000 18.000000 -2.760908E+00
52.000000 16.000000 -5.386202E+00
52.000000 14.000000 -6.947339E+00
52.000000 12.000000 -8.344908E+00
52.000000 10.000000 -1.381435E+01
52.000000 8.000000 -2.058950E+01
52.000000 6.000000 -2.445182E+01
52.000000 4.000000 -1.943680E+01
52.000000 2.000000 -1.511986E+01
52.000000 0.000000 -1.596979E+01
52.000000 -2.000000 -1.649308E+01
52.000000 -4.000000 -1.393549E+01
52.000000 -6.000000 -1.629305E+01
52.000000 -8.000000 -2.090899E+01
52.000000 -10.000000 -2.307030E+01
52.000000 -12.000000 -2.298366E+01
52.000000 -14.000000 -2.797504E+01
52.000000 -16.000000 -3.987789E+01
52.000000 -18.000000 -4.788408E+01
52.000000 -20.000000 -3.952682E+01
52.000000 -22.000000 -2.118103E+01
52.000000 -24.000000 -1.126997E+01
52.000000 -26.000000 -1.062266E+01
52.000000 -28.000000 -1.834451E+01
52.000000 -30.000000 -2.635069E+01
52.000000 -32.000000 -1.986589E+01
52.000000 -34.000000 -6.758617E+00
52.000000 -36.000000 -3.652081E+00
52.000000 -38.000000 -1.045226E+01
52.000000 -40.000000 -2.055431E+01
54.000000 40.000000 1.993989E+01
54.000000 38.000000 6.695674E+00
54.000000 36.000000 -6.200299E+00
54.000000 34.000000 -4.061170E+00
54.000000 32.000000 5.115728E+00
54.000000 30.000000 -3.330940E+00
54.000000 28.000000 -1.771786E+01
54.000000 26.000000 -2.556887E+01
54.000000 24.000000 -2.041141E+01
54.000000 22.000000 -1.182268E+01
54.000000 20.000000 -4.292669E+00
54.000000 18.000000 -1.532154E+00
54.000000 16.000000 -3.542919E+00
54.000000 14.000000 -6.220487E+00
54.000000 12.000000 -7.908371E+00
54.000000 10.000000 -1.089072E+01
54.000000 8.000000 -1.340748E+01
54.000000 6.000000 -1.296913E+01
54.000000 4.000000 -4.738861E+00
54.000000 2.000000 -1.040275E+00
54.000000 0.000000 -6.963878E+00
54.000000 -2.000000 -1.389182E+01
54.000000 -4.000000 -1.532564E+01
54.000000 -6.000000 -1.920814E+01
54.000000 -8.000000 -2.267009E+01
54.000000 -10.000000 -2.321111E+01
54.000000 -12.000000 -2.248670E+01
54.000000 -14.000000 -2.803910E+01
54.000000 -16.000000 -3.998522E+01
54.000000 -18.000000 -4.523900E+01
54.000000 -20.000000 -3.398862E+01
54.000000 -22.000000 -1.440538E+01
54.000000 -24.000000 -4.163256E+00
54.000000 -26.000000 -6.163040E+00
54.000000 -28.000000 -1.495424E+01
54.000000 -30.000000 -2.165426E+01
54.000000 -32.000000 -1.441560E+01
54.000000 -34.000000 -1.716080E+00
54.000000 -36.000000 2.780275E-01
54.000000 -38.000000 -6.873056E+00
54.000000 -40.000000 -1.762381E+01
56.000000 40.000000 2.547369E+01
56.000000 38.000000 1.303594E+01
56.000000 36.000000 4.566693E-01
56.000000 34.000000 -2.668885E+00
56.000000 32.000000 -1.264264E+00
56.000000 30.000000 -1.549132E+01
56.000000 28.000000 -3.120300E+01
56.000000 26.000000 -3.621145E+01
56.000000 24.000000 -2.786575E+01
56.000000 22.000000 -1.320419E+01
56.000000 20.000000 -3.804453E+00
56.000000 18.000000 1.014707E+00
56.000000 16.000000 1.314022E+00
56.000000 14.000000 4.401493E-02
