-10.000000 0.000000 1.654170E+01
-10.000000 -2.000000 2.899662E+01
-10.000000 -4.000000 2.563632E+01
-10.000000 -6.000000 6.853624E+00
-10.000000 -8.000000 2.662277E-02
-10.000000 -10.000000 1.008593E+01
-10.000000 -12.000000 1.819464E+01
-10.000000 -14.000000 5.818995E+00
-10.000000 -16.000000 -2.250846E+01
-10.000000 -18.000000 -3.850870E+01
-10.000000 -20.000000 -3.027116E+01
-10.000000 -22.000000 -1.834382E+01
-10.000000 -24.000000 -1.062206E+01
-10.000000 -26.000000 -5.855256E+00
-10.000000 -28.000000 -4.036932E+00
-10.000000 -30.000000 -9.851996E+00
-10.000000 -32.000000 -1.963063E+01
-10.000000 -34.000000 -2.672135E+01
-10.000000 -36.000000 -2.793824E+01
-10.000000 -38.000000 -1.878623E+01
-10.000000 -40.000000 -6.610148E+00
-8.000000 40.000000 -3.352823E+01
-8.000000 38.000000 -2.672829E+01
-8.000000 36.000000 -2.265068E+01
-8.000000 34.000000 -2.037370E+01
-8.000000 32.000000 -1.895063E+01
-8.000000 30.000000 -2.595492E+01
-8.000000 28.000000 -3.119337E+01
-8.000000 26.000000 -2.330202E+01
-8.000000 24.000000 -1.397561E+01
-8.000000 22.000000 -1.503560E+01
-8.000000 20.000000 -2.330925E+01
-8.000000 18.000000 -2.295957E+01
-8.000000 16.000000 -1.946322E+00
-8.000000 14.000000 3.815047E+01
-8.000000 12.000000 7.974444E+01
-8.000000 10.000000 1.012894E+02
-8.000000 8.000000 8.129112E+01
-8.000000 6.000000 4.152462E+01
-8.000000 4.000000 4.778625E+00
-8.000000 2.000000 -2.251154E+00
-8.000000 0.000000 1.056944E+01
-8.000000 -2.000000 2.240374E+01
-8.000000 -4.000000 2.005884E+01
-8.000000 -6.000000 4.828402E+00
-8.000000 -8.000000 2.716665E+00
-8.000000 -10.000000 1.704381E+01
-8.000000 -12.000000 2.726656E+01
-8.000000 -14.000000 1.594954E+01
-8.000000 -16.000000 -1.080519E+01
-8.000000 -18.000000 -2.575670E+01
-8.000000 -20.000000 -1.959475E+01
-8.000000 -22.000000 -8.414087E+00
-8.000000 -24.000000 9.897270E-01
-8.000000 -26.000000 6.142366E+00
-8.000000 -28.000000 5.006114E+00
-8.000000 -30.000000 -1.791256E+00
-8.000000 -32.000000 -1.063029E+01
-8.000000 -34.000000 -1.819561E+01
-8.000000 -36.000000 -2.027020E+01
-8.000000 -38.000000 -1.243941E+01
-8.000000 -40.000000 -1.809068E+00
-6.000000 40.000000 -4.199197E+01
-6.000000 38.000000 -3.873331E+01
-6.000000 36.000000 -3.572638E+01
-6.000000 34.000000 -3.285129E+01
-6.000000 32.000000 -2.961601E+01
-6.000000 30.000000 -3.156163E+01
-6.000000 28.000000 -3.267595E+01
-6.000000 26.000000 -2.534305E+01
-6.000000 24.000000 -1.639982E+01
-6.000000 22.000000 -1.399192E+01
-6.000000 20.000000 -1.782351E+01
-6.000000 18.000000 -1.242622E+01
-6.000000 16.000000 1.187094E+01
-6.000000 14.000000 4.715355E+01
-6.000000 12.000000 7.649730E+01
-6.000000 10.000000 8.409453E+01
-6.000000 8.000000 6.021245E+01
-6.000000 6.000000 2.347062E+01
-6.000000 4.000000 -5.452280E+00
-6.000000 2.000000 -6.541948E+00
-6.000000 0.000000 8.119681E+00
-6.000000 -2.000000 2.007457E+01
-6.000000 -4.000000 1.878758E+01
-6.000000 -6.000000 7.831928E+00
-6.000000 -8.000000 8.795548E+00
-6.000000 -10.000000 2.317818E+01
-6.000000 -12.000000 3.158382E+01
-6.000000 -14.000000 2.215496E+01
-6.000000 -16.000000 1.877451E+00
-6.000000 -18.000000 -8.220511E+00
-6.000000 -20.000000 -3.388375E+00
-6.000000 -22.000000 5.665158E+00
-6.000000 -24.000000 1.348496E+01
-6.000000 -26.000000 1.670004E+01
-6.000000 -28.000000 1.343190E+01
-6.000000 -30.000000 5.387148E+00
-6.000000 -32.000000 -2.968436E+00
-6.000000 -34.000000 -9.210897E+00
-6.000000 -36.000000 -1.011047E+01
-6.000000 -38.000000 -4.079873E+00
-6.000000 -40.000000 4.045909E+00
-4.000000 40.000000 -4.996350E+01
-4.000000 38.000000 -4.761619E+01
-4.000000 36.000000 -4.420953E+01
-4.000000 34.000000 -3.912086E+01
-4.000000 32.000000 -3.257228E+01
-4.000000 30.000000 -2.873833E+01
-4.000000 28.000000 -2.602949E+01
-4.000000 26.000000 -1.976118E+01
-4.000000 24.000000 -1.267730E+01
-4.000000 22.000000 -8.633902E+00
-4.000000 20.000000 -8.099761E+00
-4.000000 18.000000 1.893635E-01
-4.000000 16.000000 2.190098E+01
-4.000000 14.000000 4.812246E+01
-4.000000 12.000000 6.443571E+01
-4.000000 10.000000 5.992419E+01
-4.000000 8.000000 3.504208E+01
-4.000000 6.000000 4.519925E+00
-4.000000 4.000000 -1.204881E+01
-4.000000 2.000000 -4.652555E+00
-4.000000 0.000000 1.222249E+01
-4.000000 -2.000000 2.390457E+01
-4.000000 -4.000000 2.346981E+01
-4.000000 -6.000000 1.630376E+01
-4.000000 -8.000000 1.709999E+01
-4.000000 -10.000000 2.630528E+01
-4.000000 -12.000000 2.961860E+01
-4.000000 -14.000000 2.227552E+01
-4.000000 -16.000000 1.050361E+01
-4.000000 -18.000000 7.530190E+00
-4.000000 -20.000000 1.314945E+01
-4.000000 -22.000000 1.876588E+01
-4.000000 -24.000000 2.171378E+01
-4.000000 -26.000000 2.154750E+01
-4.000000 -28.000000 1.854817E+01
-4.000000 -30.000000 1.129910E+01
-4.000000 -32.000000 3.721486E+00
-4.000000 -34.000000 -1.248335E+00
-4.000000 -36.000000 1.041520E-01
-4.000000 -38.000000 5.157406E+00
-4.000000 -40.000000 1.092592E+01
-2.000000 40.000000 -5.426721E+01
-2.000000 38.000000 -5.136359E+01
-2.000000 36.000000 -4.802580E+01
-2.000000 34.000000 -4.050606E+01
-2.000000 32.000000 -2.952158E+01
-2.000000 30.000000 -1.987044E+01
-2.000000 28.000000 -1.441142E+01
-2.000000 26.000000 -9.937348E+00
-2.000000 24.000000 -5.839265E+00
-2.000000 22.000000 -2.053457E+00
-2.000000 20.000000 1.444419E+00
-2.000000 18.000000 9.295364E+00
-2.000000 16.000000 2.412219E+01
-2.000000 14.000000 4.043562E+01
-2.000000 12.000000 4.773034E+01
-2.000000 10.000000 3.900907E+01
-2.000000 8.000000 1.890149E+01
-2.000000 6.000000 -2.002155E+00
-2.000000 4.000000 -7.768377E+00
-2.000000 2.000000 4.147923E+00
-2.000000 0.000000 2.122794E+01
-2.000000 -2.000000 3.143760E+01
-2.000000 -4.000000 2.995151E+01
-2.000000 -6.000000 2.159782E+01
-2.000000 -8.000000 1.890480E+01
-2.000000 -10.000000 2.257754E+01
-2.000000 -12.000000 2.234078E+01
-2.000000 -14.000000 1.670782E+01
-2.000000 -16.000000 1.155545E+01
-2.000000 -18.000000 1.487389E+01
-2.000000 -20.000000 2.319368E+01
-2.000000 -22.000000 2.692238E+01
-2.000000 -24.000000 2.519741E+01
-2.000000 -26.000000 2.211871E+01
-2.000000 -28.000000 1.978934E+01
-2.000000 -30.000000 1.425204E+01
-2.000000 -32.000000 8.552111E+00
-2.000000 -34.000000 5.693258E+00
-2.000000 -36.000000 9.370384E+00
-2.000000 -38.000000 1.385357E+01
-2.000000 -40.000000 1.791960E+01
0.000000 40.000000 -5.500109E+01
0.000000 38.000000 -4.963204E+01
0.000000 36.000000 -4.555058E+01
0.000000 34.000000 -3.616476E+01
0.000000 32.000000 -2.148660E+01
0.000000 30.000000 -7.682360E+00
0.000000 28.000000 -1.410795E+00
0.000000 26.000000 6.555741E-01
0.000000 24.000000 1.371195E+00
0.000000 22.000000 2.662974E+00
0.000000 20.000000 5.682915E+00
0.000000 18.000000 1.042915E+01
0.000000 16.000000 1.900655E+01
0.000000 14.000000 2.884225E+01
0.000000 12.000000 3.347010E+01
0.000000 10.000000 2.757371E+01
0.000000 8.000000 1.580744E+01
0.000000 6.000000 4.080746E+00
0.000000 4.000000 3.694279E+00
0.000000 2.000000 1.431143E+01
0.000000 0.000000 2.808994E+01
0.000000 -2.000000 3.490474E+01
0.000000 -4.000000 3.005548E+01
0.000000 -6.000000 1.768337E+01
0.000000 -8.000000 1.205815E+01
0.000000 -10.000000 1.347141E+01
0.000000 -12.000000 1.281311E+01
0.000000 -14.000000 8.042408E+00
0.000000 -16.000000 5.987289E+00
0.000000 -18.000000 1.315980E+01
0.000000 -20.000000 2.454345E+01
0.000000 -22.000000 2.872546E+01
0.000000 -24.000000 2.474282E+01
0.000000 -26.000000 2.009115E+01
0.000000 -28.000000 1.783475E+01
0.000000 -30.000000 1.376727E+01
0.000000 -32.000000 1.062578E+01
0.000000 -34.000000 1.080247E+01
0.000000 -36.000000 1.628470E+01
0.000000 -38.000000 2.055370E+01
0.000000 -40.000000 2.416782E+01
2.000000 40.000000 -5.398791E+01
2.000000 38.000000 -4.392417E+01
2.000000 36.000000 -3.688857E+01
2.000000 34.000000 -2.554789E+01
2.000000 32.000000 -9.218690E+00
2.000000 30.000000 5.496689E+00
2.000000 28.000000 1.067095E+01
2.000000 26.000000 1.023650E+01
2.000000 24.000000 7.773679E+00
2.000000 22.000000 3.870312E+00
2.000000 20.000000 2.055976E+00
2.000000 18.000000 3.356160E+00
2.000000 16.000000 9.450006E+00
2.000000 14.000000 1.772403E+01
2.000000 12.000000 2.492458E+01
2.000000 10.000000 2.730272E+01
2.000000 8.000000 2.455786E+01
2.000000 6.000000 1.788493E+01
2.000000 4.000000 1.394447E+01
2.000000 2.000000 1.659491E+01
2.000000 0.000000 2.320305E+01
2.000000 -2.000000 2.532186E+01
2.000000 -4.000000 1.742411E+01
2.000000 -6.000000 3.692632E+00
2.000000 -8.000000 -4.312201E-01
2.000000 -10.000000 4.463579E+00
2.000000 -12.000000 6.594554E+00
2.000000 -14.000000 8.306770E-01
2.000000 -16.000000 -2.830542E+00
2.000000 -18.000000 6.289768E+00
2.000000 -20.000000 2.018126E+01
2.000000 -22.000000 2.491016E+01
2.000000 -24.000000 2.024304E+01
2.000000 -26.000000 1.513133E+01
2.000000 -28.000000 1.371117E+01
2.000000 -30.000000 1.131798E+01
2.000000 -32.000000 1.027575E+01
2.000000 -34.000000 1.305710E+01
2.000000 -36.000000 1.976595E+01
2.000000 -38.000000 2.405542E+01
2.000000 -40.000000 2.809211E+01
4.000000 40.000000 -5.372221E+01
4.000000 38.000000 -3.787061E+01
4.000000 36.000000 -2.610071E+01
4.000000 34.000000 -1.137218E+01
4.000000 32.000000 6.217130E+00
4.000000 30.000000 1.915787E+01
4.000000 28.000000 2.142158E+01
4.000000 26.000000 1.889813E+01
4.000000 24.000000 1.412553E+01
4.000000 22.000000 3.335621E+00
4.000000 20.000000 -6.421531E+00
4.000000 18.000000 -8.417761E+00
4.000000 16.000000 -1.013930E+00
4.000000 14.000000 9.730797E+00
4.000000 12.000000 2.140419E+01
4.000000 10.000000 3.316943E+01
4.000000 8.000000 3.808250E+01
4.000000 6.000000 3.213449E+01
4.000000 4.000000 1.774590E+01
4.000000 2.000000 8.070064E+00
4.000000 0.000000 5.077540E+00
4.000000 -2.000000 2.697658E+00
4.000000 -4.000000 -5.401899E+00
4.000000 -6.000000 -1.588423E+01
4.000000 -8.000000 -1.369721E+01
4.000000 -10.000000 -9.717903E-01
4.000000 -12.000000 5.261127E+00
4.000000 -14.000000 -2.607025E+00
4.000000 -16.000000 -1.119650E+01
4.000000 -18.000000 -2.986878E+00
4.000000 -20.000000 1.170622E+01
4.000000 -22.000000 1.625255E+01
4.000000 -24.000000 1.155354E+01
4.000000 -26.000000 7.086493E+00
4.000000 -28.000000 7.699993E+00
4.000000 -30.000000 7.234333E+00
4.000000 -32.000000 7.431997E+00
4.000000 -34.000000 1.244743E+01
4.000000 -36.000000 1.997590E+01
4.000000 -38.000000 2.356916E+01
4.000000 -40.000000 2.830286E+01
6.000000 40.000000 -5.551912E+01
6.000000 38.000000 -3.396072E+01
6.000000 36.000000 -1.705813E+01
6.000000 34.000000 1.922016E+00
6.000000 32.000000 2.040267E+01
6.000000 30.000000 2.990324E+01
6.000000 28.000000 2.868277E+01
6.000000 26.000000 2.650698E+01
6.000000 24.000000 2.167723E+01
6.000000 22.000000 4.297918E+00
6.000000 20.000000 -1.430369E+01
6.000000 18.000000 -2.007273E+01
6.000000 16.000000 -1.031263E+01
6.000000 14.000000 4.958561E+00
6.000000 12.000000 2.157879E+01
6.000000 10.000000 3.996031E+01
6.000000 8.000000 4.985470E+01
6.000000 6.000000 4.330436E+01
6.000000 4.000000 2.056362E+01
6.000000 2.000000 -5.214138E-01
6.000000 0.000000 -1.412533E+01
6.000000 -2.000000 -2.176836E+01
6.000000 -4.000000 -2.995324E+01
6.000000 -6.000000 -3.566903E+01
6.000000 -8.000000 -2.623656E+01
6.000000 -10.000000 -6.252347E+00
6.000000 -12.000000 2.468399E+00
6.000000 -14.000000 -7.032140E+00
6.000000 -16.000000 -2.019351E+01
6.000000 -18.000000 -1.618925E+01
6.000000 -20.000000 -2.219245E+00
6.000000 -22.000000 3.094213E+00
6.000000 -24.000000 -2.063398E-01
6.000000 -26.000000 -2.576841E+00
6.000000 -28.000000 3.653523E-01
6.000000 -30.000000 1.501792E+00
6.000000 -32.000000 2.189980E+00
6.000000 -34.000000 7.640764E+00
6.000000 -36.000000 1.516697E+01
6.000000 -38.000000 1.933122E+01
6.000000 -40.000000 2.634754E+01
8.000000 40.000000 -5.973722E+01
8.000000 38.000000 -3.377833E+01
8.000000 36.000000 -1.284686E+01
8.000000 34.000000 9.242407E+00
8.000000 32.000000 2.719467E+01
8.000000 30.000000 3.339300E+01
8.000000 28.000000 3.065164E+01
8.000000 26.000000 3.081825E+01
8.000000 24.000000 2.850024E+01
8.000000 22.000000 8.434515E+00
8.000000 20.000000 -1.487012E+01
8.000000 18.000000 -2.308910E+01
8.000000 16.000000 -1.365213E+01
8.000000 14.000000 2.475843E+00
8.000000 12.000000 2.224176E+01
8.000000 10.000000 4.530068E+01
8.000000 8.000000 6.004498E+01
8.000000 6.000000 5.546468E+01
8.000000 4.000000 2.805722E+01
8.000000 2.000000 -1.311059E+00
8.000000 0.000000 -2.261089E+01
8.000000 -2.000000 -3.555604E+01
8.000000 -4.000000 -4.707541E+01
8.000000 -6.000000 -5.288778E+01
8.000000 -8.000000 -4.017306E+01
8.000000 -10.000000 -1.647406E+01
8.000000 -12.000000 -6.163706E+00
8.000000 -14.000000 -1.704655E+01
8.000000 -16.000000 -3.452740E+01
8.000000 -18.000000 -3.536268E+01
8.000000 -20.000000 -2.139281E+01
8.000000 -22.000000 -1.291711E+01
8.000000 -24.000000 -1.219781E+01
8.000000 -26.000000 -1.097282E+01
8.000000 -28.000000 -5.893172E+00
8.000000 -30.000000 -4.462430E+00
8.000000 -32.000000 -5.502199E+00
8.000000 -34.000000 -2.826042E+00
8.000000 -36.000000 4.650487E+00
8.000000 -38.000000 1.248661E+01
8.000000 -40.000000 2.360777E+01
10.000000 40.000000 -6.532968E+01
10.000000 38.000000 -3.765520E+01
10.000000 36.000000 -1.617440E+01
10.000000 34.000000 5.352846E+00
10.000000 32.000000 2.201891E+01
10.000000 30.000000 2.816735E+01
10.000000 28.000000 2.698647E+01
10.000000 26.000000 2.887787E+01
10.000000 24.000000 2.965803E+01
10.000000 22.000000 1.343882E+01
10.000000 20.000000 -6.256652E+00
10.000000 18.000000 -1.359641E+01
10.000000 16.000000 -6.538460E+00
10.000000 14.000000 5.996536E+00
10.000000 12.000000 2.388009E+01
10.000000 10.000000 4.754485E+01
10.000000 8.000000 6.552660E+01
10.000000 6.000000 6.388620E+01
10.000000 4.000000 3.644463E+01
10.000000 2.000000 5.763842E+00
10.000000 0.000000 -1.741135E+01
10.000000 -2.000000 -3.469726E+01
10.000000 -4.000000 -5.201140E+01
10.000000 -6.000000 -6.404311E+01
10.000000 -8.000000 -5.378247E+01
10.000000 -10.000000 -3.045048E+01
10.000000 -12.000000 -1.974321E+01
10.000000 -14.000000 -3.190549E+01
10.000000 -16.000000 -5.262871E+01
10.000000 -18.000000 -5.683456E+01
10.000000 -20.000000 -4.203761E+01
10.000000 -22.000000 -2.760627E+01
10.000000 -24.000000 -1.933831E+01
10.000000 -26.000000 -1.334432E+01
10.000000 -28.000000 -7.808174E+00
10.000000 -30.000000 -9.418346E+00
10.000000 -32.000000 -1.618806E+01
10.000000 -34.000000 -1.764475E+01
10.000000 -36.000000 -8.676324E+00
10.000000 -38.000000 3.701632E+00
10.000000 -40.000000 1.912135E+01
12.000000 40.000000 -6.996347E+01
12.000000 38.000000 -4.395343E+01
12.000000 36.000000 -2.567014E+01
12.000000 34.000000 -8.478962E+00
12.000000 32.000000 6.413309E+00
12.000000 30.000000 1.509974E+01
12.000000 28.000000 1.762147E+01
12.000000 26.000000 2.152166E+01
12.000000 24.000000 2.427674E+01
12.000000 22.000000 1.432751E+01
12.000000 20.000000 1.279873E+00
12.000000 18.000000 -2.892080E+00
12.000000 16.000000 3.415734E+00
12.000000 14.000000 1.339624E+01
12.000000 12.000000 2.686253E+01
12.000000 10.000000 4.553836E+01
12.000000 8.000000 6.209321E+01
12.000000 6.000000 6.285474E+01
12.000000 4.000000 4.310141E+01
12.000000 2.000000 1.753483E+01
12.000000 0.000000 -4.106625E+00
12.000000 -2.000000 -2.385003E+01
12.000000 -4.000000 -4.509240E+01
12.000000 -6.000000 -6.367668E+01
12.000000 -8.000000 -6.008239E+01
12.000000 -10.000000 -4.242412E+01
12.000000 -12.000000 -3.486698E+01
12.000000 -14.000000 -4.758284E+01
12.000000 -16.000000 -6.758278E+01
12.000000 -18.000000 -7.184190E+01
12.000000 -20.000000 -5.452037E+01
12.000000 -22.000000 -3.311533E+01
12.000000 -24.000000 -1.737996E+01
12.000000 -26.000000 -8.123572E+00
12.000000 -28.000000 -5.628351E+00
12.000000 -30.000000 -1.458783E+01
12.000000 -32.000000 -3.008263E+01
12.000000 -34.000000 -3.595454E+01
12.000000 -36.000000 -2.422001E+01
12.000000 -38.000000 -5.814190E+00
12.000000 -40.000000 1.519022E+01
14.000000 40.000000 -7.387458E+01
14.000000 38.000000 -5.111455E+01
14.000000 36.000000 -3.622304E+01
14.000000 34.000000 -2.340536E+01
14.000000 32.000000 -1.092313E+01
14.000000 30.000000 -7.363129E-01
14.000000 28.000000 4.481525E+00
14.000000 26.000000 9.333494E+00
14.000000 24.000000 1.224973E+01
14.000000 22.000000 7.575001E+00
14.000000 20.000000 -4.096851E-01
14.000000 18.000000 -1.698375E+00
14.000000 16.000000 5.927440E+00
14.000000 14.000000 1.792824E+01
14.000000 12.000000 3.098187E+01
14.000000 10.000000 4.445504E+01
14.000000 8.000000 5.428181E+01
14.000000 6.000000 5.310464E+01
14.000000 4.000000 4.147553E+01
14.000000 2.000000 2.421797E+01
14.000000 0.000000 6.760597E+00
14.000000 -2.000000 -1.246745E+01
14.000000 -4.000000 -3.357007E+01
14.000000 -6.000000 -5.383395E+01
14.000000 -8.000000 -5.675407E+01
14.000000 -10.000000 -4.745215E+01
14.000000 -12.000000 -4.518770E+01
14.000000 -14.000000 -5.716002E+01
14.000000 -16.000000 -7.180014E+01
14.000000 -18.000000 -7.095295E+01
14.000000 -20.000000 -4.986739E+01
14.000000 -22.000000 -2.502249E+01
14.000000 -24.000000 -7.085311E+00
14.000000 -26.000000 6.429219E-01
14.000000 -28.000000 -2.689245E+00
14.000000 -30.000000 -2.021299E+01
14.000000 -32.000000 -4.429922E+01
14.000000 -34.000000 -5.491724E+01
14.000000 -36.000000 -4.064327E+01
14.000000 -38.000000 -1.358018E+01
14.000000 -40.000000 1.443436E+01
16.000000 40.000000 -7.847139E+01
16.000000 38.000000 -5.871619E+01
16.000000 36.000000 -4.568256E+01
16.000000 34.000000 -3.426813E+01
16.000000 32.000000 -2.280381E+01
16.000000 30.000000 -1.262168E+01
16.000000 28.000000 -8.189990E+00
16.000000 26.000000 -5.482932E+00
16.000000 24.000000 -4.116382E+00
16.000000 22.000000 -4.288382E+00
16.000000 20.000000 -7.634113E+00
16.000000 18.000000 -6.778389E+00
16.000000 16.000000 2.906541E+00
16.000000 14.000000 1.967639E+01
16.000000 12.000000 3.657773E+01
16.000000 10.000000 4.888176E+01
16.000000 8.000000 5.125297E+01
16.000000 6.000000 4.436667E+01
16.000000 4.000000 3.371942E+01
16.000000 2.000000 2.140664E+01
16.000000 0.000000 7.654897E+00
16.000000 -2.000000 -8.728947E+00
16.000000 -4.000000 -2.556975E+01
16.000000 -6.000000 -4.256935E+01
16.000000 -8.000000 -4.961590E+01
16.000000 -10.000000 -4.869602E+01
16.000000 -12.000000 -5.130734E+01
16.000000 -14.000000 -6.029668E+01
16.000000 -16.000000 -6.596510E+01
16.000000 -18.000000 -5.573761E+01
16.000000 -20.000000 -3.139102E+01
16.000000 -22.000000 -8.081023E+00
16.000000 -24.000000 6.982433E+00
16.000000 -26.000000 9.824725E+00
16.000000 -28.000000 -1.747513E-02
16.000000 -30.000000 -2.393683E+01
16.000000 -32.000000 -5.263849E+01
16.000000 -34.000000 -6.538524E+01
16.000000 -36.000000 -4.994599E+01
16.000000 -38.000000 -1.775605E+01
16.000000 -40.000000 1.394546E+01
18.000000 40.000000 -8.383499E+01
18.000000 38.000000 -6.630823E+01
18.000000 36.000000 -5.367321E+01
18.000000 34.000000 -4.035394E+01
18.000000 32.000000 -2.746240E+01
18.000000 30.000000 -1.737675E+01
18.000000 28.000000 -1.529466E+01
18.000000 26.000000 -1.554126E+01
18.000000 24.000000 -1.593204E+01
18.000000 22.000000 -1.312417E+01
18.000000 20.000000 -1.290792E+01
18.000000 18.000000 -1.005776E+01
18.000000 16.000000 1.660750E+00
18.000000 14.000000 2.120010E+01
18.000000 12.000000 4.095167E+01
18.000000 10.000000 5.503226E+01
18.000000 8.000000 5.532962E+01
18.000000 6.000000 4.548735E+01
18.000000 4.000000 3.091680E+01
18.000000 2.000000 1.633759E+01
18.000000 0.000000 1.677390E+00
18.000000 -2.000000 -1.250895E+01
18.000000 -4.000000 -2.499402E+01
18.000000 -6.000000 -3.735303E+01
18.000000 -8.000000 -4.621203E+01
18.000000 -10.000000 -5.158666E+01
18.000000 -12.000000 -5.706773E+01
18.000000 -14.000000 -6.136120E+01
18.000000 -16.000000 -5.708797E+01
18.000000 -18.000000 -3.805100E+01
18.000000 -20.000000 -1.231755E+01
18.000000 -22.000000 7.152210E+00
18.000000 -24.000000 1.689634E+01
18.000000 -26.000000 1.494638E+01
18.000000 -28.000000 1.475206E+00
18.000000 -30.000000 -2.346632E+01
18.000000 -32.000000 -5.050675E+01
18.000000 -34.000000 -6.148833E+01
18.000000 -36.000000 -4.651271E+01
18.000000 -38.000000 -1.685968E+01
18.000000 -40.000000 1.263134E+01
20.000000 40.000000 -8.840468E+01
20.000000 38.000000 -7.233835E+01
20.000000 36.000000 -5.885619E+01
20.000000 34.000000 -4.209563E+01
20.000000 32.000000 -2.698412E+01
20.000000 30.000000 -1.648242E+01
20.000000 28.000000 -1.437994E+01
20.000000 26.000000 -1.497871E+01
20.000000 24.000000 -1.497220E+01
20.000000 22.000000 -1.112701E+01
20.000000 20.000000 -9.595838E+00
20.000000 18.000000 -6.983501E+00
20.000000 16.000000 2.855649E+00
20.000000 14.000000 2.032496E+01
20.000000 12.000000 4.029297E+01
20.000000 10.000000 5.721356E+01
20.000000 8.000000 6.172248E+01
20.000000 6.000000 5.431843E+01
20.000000 4.000000 3.735280E+01
20.000000 2.000000 1.823388E+01
20.000000 0.000000 -7.841449E-01
20.000000 -2.000000 -1.653557E+01
20.000000 -4.000000 -2.878179E+01
20.000000 -6.000000 -3.943688E+01
20.000000 -8.000000 -4.894388E+01
20.000000 -10.000000 -5.646906E+01
20.000000 -12.000000 -6.150573E+01
20.000000 -14.000000 -6.196107E+01
20.000000 -16.000000 -5.188160E+01
20.000000 -18.000000 -2.898982E+01
20.000000 -20.000000 -4.052830E+00
20.000000 -22.000000 1.093030E+01
20.000000 -24.000000 1.520251E+01
20.000000 -26.000000 1.091101E+01
20.000000 -28.000000 2.812815E-02
20.000000 -30.000000 -1.924335E+01
20.000000 -32.000000 -4.027705E+01
20.000000 -34.000000 -4.776452E+01
20.000000 -36.000000 -3.384426E+01
20.000000 -38.000000 -9.883220E+00
20.000000 -40.000000 1.462230E+01
22.000000 40.000000 -9.029700E+01
22.000000 38.000000 -7.460359E+01
22.000000 36.000000 -6.051713E+01
22.000000 34.000000 -4.115873E+01
22.000000 32.000000 -2.358844E+01
22.000000 30.000000 -1.148950E+01
22.000000 28.000000 -7.506021E+00
22.000000 26.000000 -6.144834E+00
22.000000 24.000000 -2.641011E+00
22.000000 22.000000 1.206630E+00
22.000000 20.000000 1.877177E+00
22.000000 18.000000 7.374134E-01
22.000000 16.000000 4.191823E+00
22.000000 14.000000 1.617217E+01
22.000000 12.000000 3.598614E+01
22.000000 10.000000 5.754926E+01
22.000000 8.000000 6.991121E+01
22.000000 6.000000 6.839955E+01
22.000000 4.000000 5.189942E+01
22.000000 2.000000 2.834681E+01
22.000000 0.000000 4.062650E+00
22.000000 -2.000000 -1.602131E+01
22.000000 -4.000000 -3.244241E+01
22.000000 -6.000000 -4.647968E+01
22.000000 -8.000000 -5.571741E+01
22.000000 -10.000000 -6.021115E+01
22.000000 -12.000000 -6.118245E+01
22.000000 -14.000000 -5.999355E+01
22.000000 -16.000000 -5.134646E+01
22.000000 -18.000000 -3.177185E+01
22.000000 -20.000000 -1.015437E+01
22.000000 -22.000000 1.036006E+00
22.000000 -24.000000 1.906592E+00
22.000000 -26.000000 -1.927683E+00
22.000000 -28.000000 -6.560711E+00
22.000000 -30.000000 -1.672864E+01
22.000000 -32.000000 -2.892793E+01
22.000000 -34.000000 -3.090525E+01
22.000000 -36.000000 -1.701537E+01
22.000000 -38.000000 2.086109E+00
22.000000 -40.000000 2.194170E+01
24.000000 40.000000 -8.790256E+01
24.000000 38.000000 -7.181264E+01
24.000000 36.000000 -5.824777E+01
24.000000 34.000000 -3.854470E+01
24.000000 32.000000 -1.907220E+01
24.000000 30.000000 -4.696136E+00
24.000000 28.000000 9.592705E-01
24.000000 26.000000 4.476475E+00
24.000000 24.000000 1.232421E+01
24.000000 22.000000 1.503048E+01
24.000000 20.000000 1.274499E+01
24.000000 18.000000 6.058852E+00
24.000000 16.000000 3.428408E+00
24.000000 14.000000 1.124440E+01
24.000000 12.000000 3.222615E+01
24.000000 10.000000 6.004816E+01
24.000000 8.000000 8.143565E+01
24.000000 6.000000 8.720111E+01
24.000000 4.000000 7.285378E+01
24.000000 2.000000 4.589820E+01
24.000000 0.000000 1.591712E+01
24.000000 -2.000000 -1.079413E+01
24.000000 -4.000000 -3.443434E+01
24.000000 -6.000000 -5.475332E+01
24.000000 -8.000000 -6.247080E+01
24.000000 -10.000000 -5.971354E+01
24.000000 -12.000000 -5.450214E+01
24.000000 -14.000000 -5.399364E+01
24.000000 -16.000000 -5.285060E+01
24.000000 -18.000000 -4.168133E+01
24.000000 -20.000000 -2.516591E+01
24.000000 -22.000000 -1.710539E+01
24.000000 -24.000000 -1.790674E+01
24.000000 -26.000000 -1.995458E+01
24.000000 -28.000000 -1.861095E+01
24.000000 -30.000000 -1.965603E+01
24.000000 -32.000000 -2.091534E+01
24.000000 -34.000000 -1.556287E+01
24.000000 -36.000000 -1.869802E-01
24.000000 -38.000000 1.602969E+01
24.000000 -40.000000 3.255177E+01
26.000000 40.000000 -8.021669E+01
26.000000 38.000000 -6.360536E+01
26.000000 36.000000 -5.175194E+01
26.000000 34.000000 -3.407653E+01
26.000000 32.000000 -1.470923E+01
26.000000 30.000000 3.788242E-01
26.000000 28.000000 6.289782E+00
26.000000 26.000000 1.004834E+01
26.000000 24.000000 1.923748E+01
26.000000 22.000000 1.951389E+01
26.000000 20.000000 1.354607E+01
26.000000 18.000000 3.027945E+00
26.000000 16.000000 -3.924351E-01
26.000000 14.000000 8.841772E+00
26.000000 12.000000 3.334684E+01
26.000000 10.000000 6.681130E+01
26.000000 8.000000 9.416110E+01
26.000000 6.000000 1.064510E+02
26.000000 4.000000 9.573058E+01
26.000000 2.000000 6.812163E+01
26.000000 0.000000 3.363956E+01
26.000000 -2.000000 -1.642029E+00
26.000000 -4.000000 -3.505907E+01
26.000000 -6.000000 -6.138961E+01
26.000000 -8.000000 -6.552327E+01
26.000000 -10.000000 -5.370269E+01
26.000000 -12.000000 -4.197355E+01
26.000000 -14.000000 -4.392948E+01
26.000000 -16.000000 -5.282907E+01
26.000000 -18.000000 -5.045020E+01
26.000000 -20.000000 -3.893980E+01
26.000000 -22.000000 -3.442421E+01
26.000000 -24.000000 -3.752815E+01
26.000000 -26.000000 -3.826054E+01
26.000000 -28.000000 -3.179366E+01
26.000000 -30.000000 -2.582206E+01
26.000000 -32.000000 -1.768056E+01
26.000000 -34.000000 -5.214490E+00
26.000000 -36.000000 1.255120E+01
26.000000 -38.000000 2.771180E+01
26.000000 -40.000000 4.241933E+01
28.000000 40.000000 -6.797247E+01
28.000000 38.000000 -5.035628E+01
28.000000 36.000000 -4.085242E+01
28.000000 34.000000 -2.720756E+01
28.000000 32.000000 -1.043122E+01
28.000000 30.000000 2.119247E+00
28.000000 28.000000 5.035835E+00
28.000000 26.000000 5.583160E+00
28.000000 24.000000 1.090229E+01
28.000000 22.000000 8.890032E+00
28.000000 20.000000 2.159837E+00
28.000000 18.000000 -6.056157E+00
28.000000 16.000000 -4.188724E+00
28.000000 14.000000 1.008291E+01
28.000000 12.000000 3.792845E+01
28.000000 10.000000 7.273532E+01
28.000000 8.000000 1.002397E+02
28.000000 6.000000 1.159157E+02
28.000000 4.000000 1.108755E+02
28.000000 2.000000 8.829965E+01
28.000000 0.000000 5.460615E+01
28.000000 -2.000000 1.329245E+01
28.000000 -4.000000 -2.933322E+01
28.000000 -6.000000 -6.168254E+01
28.000000 -8.000000 -6.319172E+01
28.000000 -10.000000 -4.371171E+01
28.000000 -12.000000 -2.634396E+01
28.000000 -14.000000 -3.037438E+01
28.000000 -16.000000 -4.733925E+01
28.000000 -18.000000 -5.144383E+01
28.000000 -20.000000 -4.345371E+01
28.000000 -22.000000 -4.280555E+01
28.000000 -24.000000 -4.976703E+01
28.000000 -26.000000 -5.061501E+01
28.000000 -28.000000 -4.054425E+01
28.000000 -30.000000 -3.203226E+01
28.000000 -32.000000 -2.026822E+01
28.000000 -34.000000 -2.351625E+00
28.000000 -36.000000 1.862609E+01
28.000000 -38.000000 3.382666E+01
28.000000 -40.000000 4.803083E+01
30.000000 40.000000 -5.403705E+01
30.000000 38.000000 -3.425164E+01
30.000000 36.000000 -2.570492E+01
30.000000 34.000000 -1.701697E+01
30.000000 32.000000 -5.584499E+00
30.000000 30.000000 1.238636E+00
30.000000 28.000000 -2.487684E+00
30.000000 26.000000 -7.322607E+00
30.000000 24.000000 -9.063051E+00
30.000000 22.000000 -1.241092E+01
30.000000 20.000000 -1.640332E+01
30.000000 18.000000 -1.703129E+01
30.000000 16.000000 -5.738656E+00
30.000000 14.000000 1.446982E+01
30.000000 12.000000 4.202015E+01
30.000000 10.000000 7.058573E+01
30.000000 8.000000 9.200451E+01
30.000000 6.000000 1.057365E+02
30.000000 4.000000 1.086720E+02
30.000000 2.000000 9.933659E+01
30.000000 0.000000 7.568684E+01
30.000000 -2.000000 3.525534E+01
30.000000 -4.000000 -1.301272E+01
30.000000 -6.000000 -5.106870E+01
30.000000 -8.000000 -5.400303E+01
30.000000 -10.000000 -3.159566E+01
30.000000 -12.000000 -1.162212E+01
30.000000 -14.000000 -1.569018E+01
30.000000 -16.000000 -3.617961E+01
30.000000 -18.000000 -4.390981E+01
30.000000 -20.000000 -3.698474E+01
30.000000 -22.000000 -3.880860E+01
30.000000 -24.000000 -4.990065E+01
30.000000 -26.000000 -5.328350E+01
30.000000 -28.000000 -4.395116E+01
30.000000 -30.000000 -3.720548E+01
30.000000 -32.000000 -2.718121E+01
30.000000 -34.000000 -7.903251E+00
30.000000 -36.000000 1.631419E+01
30.000000 -38.000000 3.363817E+01
30.000000 -40.000000 4.904603E+01
32.000000 40.000000 -4.204382E+01
32.000000 38.000000 -1.976812E+01
32.000000 36.000000 -1.023674E+01
32.000000 34.000000 -4.571051E+00
32.000000 32.000000 1.550184E+00
32.000000 30.000000 1.332689E+00
32.000000 28.000000 -1.155194E+01
32.000000 26.000000 -2.354112E+01
32.000000 24.000000 -3.356086E+01
32.000000 22.000000 -3.647090E+01
32.000000 20.000000 -3.500828E+01
32.000000 18.000000 -2.545569E+01
32.000000 16.000000 -3.641955E+00
32.000000 14.000000 2.306320E+01
32.000000 12.000000 4.788333E+01
32.000000 10.000000 6.490004E+01
32.000000 8.000000 7.372612E+01
32.000000 6.000000 7.909370E+01
32.000000 4.000000 8.822366E+01
32.000000 2.000000 9.601742E+01
32.000000 0.000000 8.907744E+01
32.000000 -2.000000 5.706143E+01
32.000000 -4.000000 8.596114E+00
32.000000 -6.000000 -3.358056E+01
32.000000 -8.000000 -4.100016E+01
32.000000 -10.000000 -2.079350E+01
32.000000 -12.000000 -6.986351E-01
32.000000 -14.000000 -3.047622E+00
32.000000 -16.000000 -2.240651E+01
32.000000 -18.000000 -3.028428E+01
32.000000 -20.000000 -2.300473E+01
32.000000 -22.000000 -2.543015E+01
32.000000 -24.000000 -3.894417E+01
32.000000 -26.000000 -4.663992E+01
32.000000 -28.000000 -4.243174E+01
32.000000 -30.000000 -3.976794E+01
32.000000 -32.000000 -3.491003E+01
32.000000 -34.000000 -1.928097E+01
32.000000 -36.000000 6.331984E+00
32.000000 -38.000000 2.770887E+01
32.000000 -40.000000 4.579366E+01
34.000000 40.000000 -3.431722E+01
34.000000 38.000000 -1.068750E+01
34.000000 36.000000 -1.973515E-01
34.000000 34.000000 5.533981E+00
34.000000 32.000000 9.783003E+00
34.000000 30.000000 5.500498E+00
34.000000 28.000000 -1.450641E+01
34.000000 26.000000 -3.498240E+01
34.000000 24.000000 -5.349627E+01
34.000000 22.000000 -5.480332E+01
34.000000 20.000000 -4.703299E+01
34.000000 18.000000 -2.818313E+01
34.000000 16.000000 6.683979E-01
34.000000 14.000000 3.100917E+01
34.000000 12.000000 5.379698E+01
34.000000 10.000000 6.351832E+01
34.000000 8.000000 6.067750E+01
34.000000 6.000000 5.563771E+01
34.000000 4.000000 6.230555E+01
34.000000 2.000000 7.839641E+01
34.000000 0.000000 8.465810E+01
34.000000 -2.000000 6.546065E+01
34.000000 -4.000000 2.594191E+01
34.000000 -6.000000 -1.584376E+01
34.000000 -8.000000 -2.960296E+01
34.000000 -10.000000 -1.619058E+01
34.000000 -12.000000 2.232837E+00
34.000000 -14.000000 3.483120E+00
34.000000 -16.000000 -9.615971E+00
34.000000 -18.000000 -1.509204E+01
34.000000 -20.000000 -9.079124E+00
34.000000 -22.000000 -1.087747E+01
34.000000 -24.000000 -2.336842E+01
34.000000 -26.000000 -3.357190E+01
34.000000 -28.000000 -3.446237E+01
34.000000 -30.000000 -3.708127E+01
34.000000 -32.000000 -3.967926E+01
34.000000 -34.000000 -3.057363E+01
34.000000 -36.000000 -7.041608E+00
34.000000 -38.000000 1.712208E+01
34.000000 -40.000000 3.807429E+01
36.000000 40.000000 -3.121959E+01
36.000000 38.000000 -7.719263E+00
36.000000 36.000000 3.535635E+00
36.000000 34.000000 1.047283E+01
36.000000 32.000000 1.486951E+01
36.000000 30.000000 1.091022E+01
36.000000 28.000000 -9.908084E+00
36.000000 26.000000 -3.418845E+01
36.000000 24.000000 -5.750568E+01
36.000000 22.000000 -6.020846E+01
36.000000 20.000000 -5.075572E+01
36.000000 18.000000 -2.693202E+01
36.000000 16.000000 6.112355E+00
36.000000 14.000000 3.765272E+01
36.000000 12.000000 5.893568E+01
36.000000 10.000000 6.656295E+01
36.000000 8.000000 5.849852E+01
36.000000 6.000000 4.622781E+01
36.000000 4.000000 4.439183E+01
36.000000 2.000000 5.640158E+01
36.000000 0.000000 6.551908E+01
36.000000 -2.000000 5.609021E+01
36.000000 -4.000000 2.950744E+01
36.000000 -6.000000 -6.589766E+00
36.000000 -8.000000 -2.446332E+01
36.000000 -10.000000 -1.825866E+01
36.000000 -12.000000 -3.049774E+00
36.000000 -14.000000 9.067502E-01
36.000000 -16.000000 -5.914526E+00
36.000000 -18.000000 -8.705739E+00
36.000000 -20.000000 -3.987145E+00
36.000000 -22.000000 -3.205922E+00
36.000000 -24.000000 -1.038850E+01
36.000000 -26.000000 -1.815442E+01
36.000000 -28.000000 -2.102949E+01
36.000000 -30.000000 -2.867901E+01
36.000000 -32.000000 -3.799894E+01
36.000000 -34.000000 -3.677938E+01
36.000000 -36.000000 -1.974773E+01
36.000000 -38.000000 4.861656E+00
36.000000 -40.000000 2.818471E+01
38.000000 40.000000 -3.232734E+01
38.000000 38.000000 -1.066142E+01
38.000000 36.000000 1.370470E+00
38.000000 34.000000 9.491625E+00
38.000000 32.000000 1.487326E+01
38.000000 30.000000 1.404347E+01
38.000000 28.000000 -9.982147E-01
38.000000 26.000000 -1.977450E+01
38.000000 24.000000 -3.920444E+01
38.000000 22.000000 -4.587000E+01
38.000000 20.000000 -4.132946E+01
38.000000 18.000000 -2.052750E+01
38.000000 16.000000 1.156420E+01
38.000000 14.000000 4.220257E+01
38.000000 12.000000 6.289471E+01
38.000000 10.000000 7.110041E+01
38.000000 8.000000 6.262835E+01
38.000000 6.000000 4.791567E+01
38.000000 4.000000 3.769039E+01
38.000000 2.000000 3.902948E+01
38.000000 0.000000 4.134600E+01
38.000000 -2.000000 3.272193E+01
38.000000 -4.000000 1.340657E+01
38.000000 -6.000000 -1.359710E+01
38.000000 -8.000000 -2.812586E+01
38.000000 -10.000000 -2.455589E+01
38.000000 -12.000000 -1.286084E+01
38.000000 -14.000000 -9.535150E+00
38.000000 -16.000000 -1.493830E+01
38.000000 -18.000000 -1.645614E+01
38.000000 -20.000000 -9.834451E+00
38.000000 -22.000000 -3.187893E+00
38.000000 -24.000000 -1.505537E+00
38.000000 -26.000000 -3.145566E+00
38.000000 -28.000000 -6.374938E+00
38.000000 -30.000000 -1.822718E+01
38.000000 -32.000000 -3.224498E+01
38.000000 -34.000000 -3.774663E+01
38.000000 -36.000000 -2.839441E+01
38.000000 -38.000000 -5.188591E+00
38.000000 -40.000000 1.885331E+01
40.000000 40.000000 -3.580101E+01
40.000000 38.000000 -1.800004E+01
40.000000 36.000000 -6.797976E+00
40.000000 34.000000 1.847340E+00
40.000000 32.000000 9.138828E+00
40.000000 30.000000 1.472347E+01
40.000000 28.000000 1.154962E+01
40.000000 26.000000 5.576835E+00
40.000000 24.000000 -3.347755E+00
40.000000 22.000000 -1.443648E+01
40.000000 20.000000 -1.924221E+01
40.000000 18.000000 -8.126707E+00
40.000000 16.000000 1.737394E+01
40.000000 14.000000 4.395719E+01
40.000000 12.000000 6.239313E+01
40.000000 10.000000 7.070832E+01
40.000000 8.000000 6.558626E+01
40.000000 6.000000 5.404567E+01
40.000000 4.000000 4.028053E+01
40.000000 2.000000 3.003007E+01
40.000000 0.000000 1.939986E+01
40.000000 -2.000000 4.118318E+00
40.000000 -4.000000 -1.373217E+01
40.000000 -6.000000 -3.072654E+01
40.000000 -8.000000 -3.606006E+01
40.000000 -10.000000 -2.961031E+01
40.000000 -12.000000 -2.046534E+01
40.000000 -14.000000 -2.100639E+01
40.000000 -16.000000 -2.997856E+01
40.000000 -18.000000 -3.263435E+01
40.000000 -20.000000 -2.257598E+01
40.000000 -22.000000 -8.412290E+00
40.000000 -24.000000 2.601226E+00
40.000000 -26.000000 6.711021E+00
40.000000 -28.000000 2.740832E+00
40.000000 -30.000000 -1.196093E+01
40.000000 -32.000000 -2.799338E+01
40.000000 -34.000000 -3.569393E+01
40.000000 -36.000000 -2.996617E+01
40.000000 -38.000000 -1.026680E+01
40.000000 -40.000000 1.133113E+01
42.000000 40.000000 -3.953358E+01
42.000000 38.000000 -2.616901E+01
42.000000 36.000000 -1.734649E+01
42.000000 34.000000 -9.064514E+00
42.000000 32.000000 6.112823E-01
42.000000 30.000000 1.375885E+01
42.000000 28.000000 2.348513E+01
42.000000 26.000000 3.056401E+01
42.000000 24.000000 3.275198E+01
42.000000 22.000000 2.017356E+01
42.000000 20.000000 8.364925E+00
42.000000 18.000000 9.613708E+00
42.000000 16.000000 2.620163E+01
42.000000 14.000000 4.598997E+01
42.000000 12.000000 5.886849E+01
42.000000 10.000000 6.356544E+01
42.000000 8.000000 6.119551E+01
42.000000 6.000000 5.579008E+01
42.000000 4.000000 4.597984E+01
42.000000 2.000000 2.978046E+01
42.000000 0.000000 7.172388E+00
42.000000 -2.000000 -1.715576E+01
42.000000 -4.000000 -3.685351E+01
42.000000 -6.000000 -4.455638E+01
42.000000 -8.000000 -3.784606E+01
42.000000 -10.000000 -2.611724E+01
42.000000 -12.000000 -2.020503E+01
42.000000 -14.000000 -2.816385E+01
42.000000 -16.000000 -4.349088E+01
42.000000 -18.000000 -4.846579E+01
42.000000 -20.000000 -3.584102E+01
42.000000 -22.000000 -1.520624E+01
42.000000 -24.000000 1.912121E+00
42.000000 -26.000000 7.397702E+00
42.000000 -28.000000 6.492424E-01
42.000000 -30.000000 -1.500073E+01
42.000000 -32.000000 -2.916341E+01
42.000000 -34.000000 -3.367893E+01
42.000000 -36.000000 -2.578881E+01
42.000000 -38.000000 -9.724548E+00
42.000000 -40.000000 7.098904E+00
44.000000 40.000000 -4.206610E+01
44.000000 38.000000 -3.232388E+01
44.000000 36.000000 -2.598356E+01
44.000000 34.000000 -1.814579E+01
44.000000 32.000000 -6.254790E+00
44.000000 30.000000 1.144780E+01
44.000000 28.000000 2.902068E+01
44.000000 26.000000 4.329781E+01
44.000000 24.000000 5.243894E+01
44.000000 22.000000 4.324366E+01
44.000000 20.000000 3.207235E+01
44.000000 18.000000 2.857404E+01
44.000000 16.000000 3.722876E+01
44.000000 14.000000 4.955516E+01
44.000000 12.000000 5.597548E+01
44.000000 10.000000 5.541899E+01
44.000000 8.000000 5.287043E+01
44.000000 6.000000 5.137740E+01
44.000000 4.000000 4.721511E+01
44.000000 2.000000 3.244714E+01
44.000000 0.000000 7.275598E+00
44.000000 -2.000000 -1.995771E+01
44.000000 -4.000000 -3.976154E+01
44.000000 -6.000000 -4.158871E+01
44.000000 -8.000000 -2.733996E+01
44.000000 -10.000000 -1.275354E+01
44.000000 -12.000000 -1.240794E+01
44.000000 -14.000000 -3.029027E+01
44.000000 -16.000000 -5.374849E+01
44.000000 -18.000000 -6.109597E+01
44.000000 -20.000000 -4.592857E+01
44.000000 -22.000000 -2.143486E+01
44.000000 -24.000000 -3.249042E+00
44.000000 -26.000000 -1.587410E-01
44.000000 -28.000000 -1.044944E+01
44.000000 -30.000000 -2.531732E+01
44.000000 -32.000000 -3.483116E+01
44.000000 -34.000000 -3.287501E+01
44.000000 -36.000000 -1.973225E+01
44.000000 -38.000000 -5.714270E+00
44.000000 -40.000000 6.220274E+00
46.000000 40.000000 -4.237184E+01
46.000000 38.000000 -3.458713E+01
46.000000 36.000000 -3.067823E+01
46.000000 34.000000 -2.421353E+01
46.000000 32.000000 -1.132862E+01
46.000000 30.000000 7.337027E+00
46.000000 28.000000 2.704234E+01
46.000000 26.000000 4.359093E+01
46.000000 24.000000 5.533449E+01
46.000000 22.000000 5.084703E+01
46.000000 20.000000 4.356367E+01
46.000000 18.000000 4.000922E+01
46.000000 16.000000 4.458023E+01
46.000000 14.000000 5.264429E+01
46.000000 12.000000 5.507489E+01
46.000000 10.000000 5.033405E+01
46.000000 8.000000 4.539181E+01
46.000000 6.000000 4.352958E+01
46.000000 4.000000 4.242695E+01
46.000000 2.000000 3.396500E+01
46.000000 0.000000 1.726254E+01
46.000000 -2.000000 -2.844370E+00
46.000000 -4.000000 -1.806183E+01
46.000000 -6.000000 -1.865458E+01
46.000000 -8.000000 -5.596388E+00
46.000000 -10.000000 7.056360E+00
46.000000 -12.000000 -4.991922E-01
46.000000 -14.000000 -2.872447E+01
46.000000 -16.000000 -6.032594E+01
46.000000 -18.000000 -6.978643E+01
46.000000 -20.000000 -5.233960E+01
46.000000 -22.000000 -2.715596E+01
46.000000 -24.000000 -1.206435E+01
46.000000 -26.000000 -1.267903E+01
46.000000 -28.000000 -2.376899E+01
46.000000 -30.000000 -3.544120E+01
46.000000 -32.000000 -3.942410E+01
46.000000 -34.000000 -3.126715E+01
46.000000 -36.000000 -1.456227E+01
46.000000 -38.000000 -2.054949E+00
46.000000 -40.000000 6.809927E+00
48.000000 40.000000 -4.066182E+01
48.000000 38.000000 -3.270375E+01
48.000000 36.000000 -3.056227E+01
48.000000 34.000000 -2.676763E+01
48.000000 32.000000 -1.538192E+01
48.000000 30.000000 1.048204E+00
48.000000 28.000000 1.977774E+01
48.000000 26.000000 3.729867E+01
48.000000 24.000000 4.932596E+01
48.000000 22.000000 4.750391E+01
48.000000 20.000000 4.162404E+01
48.000000 18.000000 3.899973E+01
48.000000 16.000000 4.342107E+01
48.000000 14.000000 5.239906E+01
48.000000 12.000000 5.551097E+01
48.000000 10.000000 4.890568E+01
48.000000 8.000000 4.031133E+01
48.000000 6.000000 3.600017E+01
48.000000 4.000000 3.705008E+01
48.000000 2.000000 3.624538E+01
48.000000 0.000000 3.070431E+01
48.000000 -2.000000 2.047322E+01
48.000000 -4.000000 1.177473E+01
48.000000 -6.000000 1.085301E+01
48.000000 -8.000000 1.945826E+01
48.000000 -10.000000 2.777047E+01
48.000000 -12.000000 1.203660E+01
48.000000 -14.000000 -2.485165E+01
48.000000 -16.000000 -6.213125E+01
48.000000 -18.000000 -7.122125E+01
48.000000 -20.000000 -5.199010E+01
48.000000 -22.000000 -2.967242E+01
48.000000 -24.000000 -1.977125E+01
48.000000 -26.000000 -2.323601E+01
48.000000 -28.000000 -3.205956E+01
48.000000 -30.000000 -3.851088E+01
48.000000 -32.000000 -3.764582E+01
48.000000 -34.000000 -2.668442E+01
48.000000 -36.000000 -1.114617E+01
48.000000 -38.000000 -1.176659E+00
48.000000 -40.000000 6.566452E+00
50.000000 40.000000 -3.845137E+01
50.000000 38.000000 -2.978738E+01
50.000000 36.000000 -2.755097E+01
50.000000 34.000000 -2.547868E+01
50.000000 32.000000 -1.730475E+01
50.000000 30.000000 -5.035885E+00
50.000000 28.000000 1.187417E+01
50.000000 26.000000 2.980330E+01
50.000000 24.000000 4.212155E+01
50.000000 22.000000 4.089495E+01
50.000000 20.000000 3.209987E+01
50.000000 18.000000 2.808503E+01
50.000000 16.000000 3.417456E+01
50.000000 14.000000 4.716042E+01
50.000000 12.000000 5.513979E+01
50.000000 10.000000 5.026553E+01
50.000000 8.000000 3.758505E+01
50.000000 6.000000 2.994920E+01
50.000000 4.000000 3.234983E+01
50.000000 2.000000 3.739340E+01
50.000000 0.000000 3.919773E+01
50.000000 -2.000000 3.578710E+01
50.000000 -4.000000 3.234063E+01
50.000000 -6.000000 3.161001E+01
50.000000 -8.000000 3.749321E+01
50.000000 -10.000000 4.286351E+01
50.000000 -12.000000 2.320761E+01
50.000000 -14.000000 -1.683207E+01
50.000000 -16.000000 -5.467641E+01
50.000000 -18.000000 -6.097917E+01
50.000000 -20.000000 -4.151929E+01
50.000000 -22.000000 -2.486914E+01
50.000000 -24.000000 -2.026091E+01
50.000000 -26.000000 -2.433336E+01
50.000000 -28.000000 -2.954726E+01
50.000000 -30.000000 -3.172006E+01
50.000000 -32.000000 -2.976927E+01
50.000000 -34.000000 -1.974870E+01
50.000000 -36.000000 -8.683182E+00
50.000000 -38.000000 -2.717560E+00
50.000000 -40.000000 3.741211E+00
52.000000 40.000000 -3.640814E+01
52.000000 38.000000 -2.785728E+01
52.000000 36.000000 -2.452934E+01
52.000000 34.000000 -2.221856E+01
52.000000 32.000000 -1.644363E+01
52.000000 30.000000 -8.060937E+00
52.000000 28.000000 6.512458E+00
52.000000 26.000000 2.462091E+01
52.000000 24.000000 3.905585E+01
52.000000 22.000000 3.727806E+01
52.000000 20.000000 2.362922E+01
52.000000 18.000000 1.608275E+01
52.000000 16.000000 2.246319E+01
52.000000 14.000000 3.767810E+01
52.000000 12.000000 4.979172E+01
52.000000 10.000000 4.797271E+01
52.000000 8.000000 3.328397E+01
52.000000 6.000000 2.340452E+01
52.000000 4.000000 2.662429E+01
52.000000 2.000000 3.433511E+01
52.000000 0.000000 3.967085E+01
52.000000 -2.000000 3.939473E+01
52.000000 -4.000000 3.751590E+01
52.000000 -6.000000 3.560589E+01
52.000000 -8.000000 4.148405E+01
52.000000 -10.000000 4.852817E+01
52.000000 -12.000000 3.293777E+01
52.000000 -14.000000 -1.840674E+00
52.000000 -16.000000 -3.445428E+01
52.000000 -18.000000 -3.899214E+01
52.000000 -20.000000 -2.270664E+01
52.000000 -22.000000 -1.193658E+01
52.000000 -24.000000 -1.108485E+01
52.000000 -26.000000 -1.379322E+01
52.000000 -28.000000 -1.484259E+01
52.000000 -30.000000 -1.622063E+01
52.000000 -32.000000 -1.839763E+01
52.000000 -34.000000 -1.286224E+01
52.000000 -36.000000 -7.399904E+00
52.000000 -38.000000 -5.606731E+00
52.000000 -40.000000 -1.355284E+00
54.000000 40.000000 -3.411005E+01
54.000000 38.000000 -2.582205E+01
54.000000 36.000000 -2.186418E+01
54.000000 34.000000 -1.898714E+01
54.000000 32.000000 -1.392888E+01
54.000000 30.000000 -7.919634E+00
54.000000 28.000000 4.633941E+00
54.000000 26.000000 2.430559E+01
54.000000 24.000000 4.220961E+01
54.000000 22.000000 3.943356E+01
54.000000 20.000000 2.217775E+01
54.000000 18.000000 1.080532E+01
54.000000 16.000000 1.440967E+01
54.000000 14.000000 2.661130E+01
54.000000 12.000000 3.855620E+01
54.000000 10.000000 3.785377E+01
54.000000 8.000000 2.456191E+01
54.000000 6.000000 1.573396E+01
54.000000 4.000000 2.043864E+01
54.000000 2.000000 2.843071E+01
54.000000 0.000000 3.312397E+01
54.000000 -2.000000 3.309825E+01
54.000000 -4.000000 3.105186E+01
54.000000 -6.000000 2.785597E+01
54.000000 -8.000000 3.412269E+01
54.000000 -10.000000 4.456976E+01
54.000000 -12.000000 3.876440E+01
54.000000 -14.000000 1.534113E+01
54.000000 -16.000000 -8.561702E+00
54.000000 -18.000000 -1.183193E+01
54.000000 -20.000000 1.443701E-01
54.000000 -22.000000 6.209978E+00
54.000000 -24.000000 5.495062E+00
54.000000 -26.000000 4.797781E+00
54.000000 -28.000000 5.992491E+00
54.000000 -30.000000 2.772739E+00
54.000000 -32.000000 -5.025458E+00
54.000000 -34.000000 -7.025369E+00
54.000000 -36.000000 -8.158796E+00
54.000000 -38.000000 -8.582697E+00
54.000000 -40.000000 -6.122612E+00
56.000000 40.000000 -3.271601E+01
56.000000 38.000000 -2.394798E+01
56.000000 36.000000 -1.951007E+01
56.000000 34.000000 -1.513695E+01
56.000000 32.000000 -9.479083E+00
56.000000 30.000000 -2.974907E+00
56.000000 28.000000 9.191900E+00
56.000000 26.000000 2.903658E+01
56.000000 24.000000 4.820403E+01
56.000000 22.000000 4.447037E+01
56.000000 20.000000 2.716455E+01
56.000000 18.000000 1.493246E+01
56.000000 16.000000 1.608243E+01
56.000000 14.000000 2.289361E+01
56.000000 12.000000 2.922078E+01
56.000000 10.000000 2.522895E+01
56.000000 8.000000 1.452869E+01
56.000000 6.000000 9.703100E+00
56.000000 4.000000 1.484748E+01
56.000000 2.000000 1.953870E+01
56.000000 0.000000 1.849914E+01
56.000000 -2.000000 1.607275E+01
56.000000 -4.000000 1.495781E+01
56.000000 -6.000000 1.400790E+01
56.000000 -8.000000 2.287906E+01
56.000000 -10.000000 3.814760E+01
56.000000 -12.000000 4.220622E+01
56.000000 -14.000000 2.947746E+01
56.000000 -16.000000 1.337919E+01
56.000000 -18.000000 1.244573E+01
56.000000 -20.000000 2.324878E+01
56.000000 -22.000000 2.836197E+01
56.000000 -24.000000 2.801621E+01
56.000000 -26.000000 2.468271E+01
56.000000 -28.000000 2.361334E+01
56.000000 -30.000000 1.729154E+01
56.000000 -32.000000 5.781248E+00
56.000000 -34.000000 -2.192921E+00
56.000000 -36.000000 -8.672152E+00
56.000000 -38.000000 -1.009966E+01
56.000000 -40.000000 -8.986979E+00
58.000000 40.000000 -3.360077E+01
58.000000 38.000000 -2.401193E+01
58.000000 36.000000 -1.698097E+01
58.000000 34.000000 -1.056287E+01
58.000000 32.000000 -3.392625E+00
58.000000 30.000000 4.755122E+00
58.000000 28.000000 1.669903E+01
58.000000 26.000000 3.302697E+01
58.000000 24.000000 4.821847E+01
58.000000 22.000000 4.490663E+01
58.000000 20.000000 3.232275E+01
58.000000 18.000000 2.408639E+01
58.000000 16.000000 2.566814E+01
58.000000 14.000000 2.920908E+01
58.000000 12.000000 2.891272E+01
58.000000 10.000000 2.036391E+01
58.000000 8.000000 1.108530E+01
58.000000 6.000000 7.907246E+00
58.000000 4.000000 1.188619E+01
58.000000 2.000000 1.299176E+01
58.000000 0.000000 7.355822E+00
58.000000 -2.000000 2.156269E+00
58.000000 -4.000000 2.547441E+00
58.000000 -6.000000 5.766567E+00
58.000000 -8.000000 1.783966E+01
58.000000 -10.000000 3.483389E+01
58.000000 -12.000000 4.225854E+01
58.000000 -14.000000 3.636116E+01
58.000000 -16.000000 2.607585E+01
58.000000 -18.000000 2.680253E+01
58.000000 -20.000000 3.692937E+01
58.000000 -22.000000 4.316806E+01
58.000000 -24.000000 4.287258E+01
58.000000 -26.000000 3.947407E+01
58.000000 -28.000000 3.266312E+01
58.000000 -30.000000 2.310719E+01
58.000000 -32.000000 9.697382E+00
58.000000 -34.000000 7.944679E-02
58.000000 -36.000000 -8.542780E+00
58.000000 -38.000000 -1.124362E+01
58.000000 -40.000000 -1.073192E+01
60.000000 40.000000 -3.259695E+01
60.000000 38.000000 -2.315210E+01
60.000000 36.000000 -1.496390E+01
60.000000 34.000000 -6.457458E+00
60.000000 32.000000 2.290891E+00
60.000000 30.000000 1.152877E+01
60.000000 28.000000 2.301338E+01
60.000000 26.000000 3.479517E+01
60.000000 24.000000 4.516402E+01
60.000000 22.000000 4.324325E+01
60.000000 20.000000 3.508647E+01
