-10.000000 -30.000000 -2.445677E+00
-10.000000 -32.000000 -1.114726E+01
-10.000000 -34.000000 -1.248600E+01
-10.000000 -36.000000 -7.472744E+00
-10.000000 -38.000000 -3.938124E+00
-10.000000 -40.000000 -5.759855E+00
-8.000000 40.000000 4.136916E+01
-8.000000 38.000000 3.541706E+01
-8.000000 36.000000 2.593013E+01
-8.000000 34.000000 1.539824E+01
-8.000000 32.000000 6.468441E+00
-8.000000 30.000000 1.692074E+00
-8.000000 28.000000 1.205667E+00
-8.000000 26.000000 -8.619156E-01
-8.000000 24.000000 -4.732307E+00
-8.000000 22.000000 -1.054041E+01
-8.000000 20.000000 -1.244822E+01
-8.000000 18.000000 -1.034923E+01
-8.000000 16.000000 -2.228096E+01
-8.000000 14.000000 -5.097009E+01
-8.000000 12.000000 -8.122089E+01
-8.000000 10.000000 -8.946659E+01
-8.000000 8.000000 -6.996700E+01
-8.000000 6.000000 -4.777734E+01
-8.000000 4.000000 -3.468240E+01
-8.000000 2.000000 -3.125349E+01
-8.000000 0.000000 -2.564788E+01
-8.000000 -2.000000 -1.746392E+01
-8.000000 -4.000000 -1.628643E+01
-8.000000 -6.000000 -2.011966E+01
-8.000000 -8.000000 -2.513985E+01
-8.000000 -10.000000 -3.419240E+01
-8.000000 -12.000000 -3.659391E+01
-8.000000 -14.000000 -2.721002E+01
-8.000000 -16.000000 -7.105652E+00
-8.000000 -18.000000 1.380645E+01
-8.000000 -20.000000 2.610882E+01
-8.000000 -22.000000 3.143118E+01
-8.000000 -24.000000 3.314835E+01
-8.000000 -26.000000 2.782255E+01
-8.000000 -28.000000 1.552341E+01
-8.000000 -30.000000 4.009674E+00
-8.000000 -32.000000 -2.739147E+00
-8.000000 -34.000000 -3.137798E+00
-8.000000 -36.000000 1.004601E-02
-8.000000 -38.000000 6.131382E-01
-8.000000 -40.000000 -4.105150E+00
-6.000000 40.000000 4.493757E+01
-6.000000 38.000000 3.926783E+01
-6.000000 36.000000 2.883744E+01
-6.000000 34.000000 1.480601E+01
-6.000000 32.000000 3.713140E+00
-6.000000 30.000000 -2.688372E+00
-6.000000 28.000000 -5.901663E+00
-6.000000 26.000000 -9.837065E+00
-6.000000 24.000000 -1.654387E+01
-6.000000 22.000000 -2.469494E+01
-6.000000 20.000000 -3.009381E+01
-6.000000 18.000000 -3.092854E+01
-6.000000 16.000000 -4.010989E+01
-6.000000 14.000000 -6.032315E+01
-6.000000 12.000000 -7.871912E+01
-6.000000 10.000000 -7.714648E+01
-6.000000 8.000000 -5.790495E+01
-6.000000 6.000000 -3.980338E+01
-6.000000 4.000000 -3.304843E+01
-6.000000 2.000000 -3.346959E+01
-6.000000 0.000000 -2.890238E+01
-6.000000 -2.000000 -1.976890E+01
-6.000000 -4.000000 -1.828211E+01
-6.000000 -6.000000 -1.952990E+01
-6.000000 -8.000000 -1.996558E+01
-6.000000 -10.000000 -2.424634E+01
-6.000000 -12.000000 -2.450058E+01
-6.000000 -14.000000 -1.363234E+01
-6.000000 -16.000000 6.461010E+00
-6.000000 -18.000000 2.718682E+01
-6.000000 -20.000000 3.697979E+01
-6.000000 -22.000000 3.767184E+01
-6.000000 -24.000000 3.625628E+01
-6.000000 -26.000000 2.905533E+01
-6.000000 -28.000000 1.669996E+01
-6.000000 -30.000000 6.642523E+00
-6.000000 -32.000000 2.351278E+00
-6.000000 -34.000000 3.145132E+00
-6.000000 -36.000000 5.350569E+00
-6.000000 -38.000000 3.902695E+00
-6.000000 -40.000000 -3.119732E+00
-4.000000 40.000000 4.600710E+01
-4.000000 38.000000 3.994511E+01
-4.000000 36.000000 2.811753E+01
-4.000000 34.000000 1.106199E+01
-4.000000 32.000000 -1.044775E+00
-4.000000 30.000000 -7.923470E+00
-4.000000 28.000000 -1.336242E+01
-4.000000 26.000000 -1.819723E+01
-4.000000 24.000000 -2.539510E+01
-4.000000 22.000000 -3.362631E+01
-4.000000 20.000000 -4.027728E+01
-4.000000 18.000000 -4.327304E+01
-4.000000 16.000000 -5.293834E+01
-4.000000 14.000000 -7.154883E+01
-4.000000 12.000000 -8.551086E+01
-4.000000 10.000000 -7.788049E+01
-4.000000 8.000000 -5.529966E+01
-4.000000 6.000000 -3.610233E+01
-4.000000 4.000000 -2.931477E+01
-4.000000 2.000000 -2.945864E+01
-4.000000 0.000000 -2.312550E+01
-4.000000 -2.000000 -1.179373E+01
-4.000000 -4.000000 -8.441984E+00
-4.000000 -6.000000 -8.739525E+00
-4.000000 -8.000000 -8.668282E+00
-4.000000 -10.000000 -1.138891E+01
-4.000000 -12.000000 -1.283240E+01
-4.000000 -14.000000 -5.290525E+00
-4.000000 -16.000000 1.062225E+01
-4.000000 -18.000000 2.715237E+01
-4.000000 -20.000000 3.398331E+01
-4.000000 -22.000000 3.302307E+01
-4.000000 -24.000000 3.071313E+01
-4.000000 -26.000000 2.488859E+01
-4.000000 -28.000000 1.528960E+01
-4.000000 -30.000000 7.294590E+00
-4.000000 -32.000000 4.088686E+00
-4.000000 -34.000000 5.415892E+00
-4.000000 -36.000000 7.270700E+00
-4.000000 -38.000000 4.821558E+00
-4.000000 -40.000000 -3.128757E+00
-2.000000 40.000000 4.471672E+01
-2.000000 38.000000 3.634887E+01
-2.000000 36.000000 2.265796E+01
-2.000000 34.000000 4.453901E+00
-2.000000 32.000000 -7.674759E+00
-2.000000 30.000000 -1.420566E+01
-2.000000 28.000000 -1.950812E+01
-2.000000 26.000000 -2.329513E+01
-2.000000 24.000000 -2.896636E+01
-2.000000 22.000000 -3.514260E+01
-2.000000 20.000000 -3.947562E+01
-2.000000 18.000000 -4.137815E+01
-2.000000 16.000000 -5.200469E+01
-2.000000 14.000000 -7.357163E+01
-2.000000 12.000000 -9.107605E+01
-2.000000 10.000000 -8.725597E+01
-2.000000 8.000000 -6.338592E+01
-2.000000 6.000000 -3.886393E+01
-2.000000 4.000000 -2.551400E+01
-2.000000 2.000000 -2.148473E+01
-2.000000 0.000000 -1.324224E+01
-2.000000 -2.000000 -1.785881E+00
-2.000000 -4.000000 3.361553E+00
-2.000000 -6.000000 3.960854E+00
-2.000000 -8.000000 2.680490E+00
-2.000000 -10.000000 -1.942707E+00
-2.000000 -12.000000 -7.883741E+00
-2.000000 -14.000000 -6.901924E+00
-2.000000 -16.000000 3.530853E+00
-2.000000 -18.000000 1.507566E+01
-2.000000 -20.000000 1.955956E+01
-2.000000 -22.000000 1.963247E+01
-2.000000 -24.000000 1.968718E+01
-2.000000 -26.000000 1.842822E+01
-2.000000 -28.000000 1.230816E+01
-2.000000 -30.000000 5.415674E+00
-2.000000 -32.000000 1.829268E+00
-2.000000 -34.000000 3.661119E+00
-2.000000 -36.000000 6.172581E+00
-2.000000 -38.000000 3.428720E+00
-2.000000 -40.000000 -4.996239E+00
0.000000 40.000000 4.114826E+01
0.000000 38.000000 2.875688E+01
0.000000 36.000000 1.360875E+01
0.000000 34.000000 -3.440052E+00
0.000000 32.000000 -1.397047E+01
0.000000 30.000000 -1.859748E+01
0.000000 28.000000 -2.153939E+01
0.000000 26.000000 -2.375168E+01
0.000000 24.000000 -2.825014E+01
0.000000 22.000000 -3.201608E+01
0.000000 20.000000 -3.084580E+01
0.000000 18.000000 -2.766482E+01
0.000000 16.000000 -3.810227E+01
0.000000 14.000000 -6.523130E+01
0.000000 12.000000 -9.378844E+01
0.000000 10.000000 -1.025956E+02
0.000000 8.000000 -8.194616E+01
0.000000 6.000000 -5.185693E+01
0.000000 4.000000 -2.876822E+01
0.000000 2.000000 -1.844655E+01
0.000000 0.000000 -6.543562E+00
0.000000 -2.000000 8.061348E+00
0.000000 -4.000000 1.634739E+01
0.000000 -6.000000 1.781715E+01
0.000000 -8.000000 1.355300E+01
0.000000 -10.000000 4.322611E+00
0.000000 -12.000000 -7.430780E+00
0.000000 -14.000000 -1.294133E+01
0.000000 -16.000000 -7.835093E+00
0.000000 -18.000000 -1.099649E+00
0.000000 -20.000000 1.053925E+00
0.000000 -22.000000 2.543663E+00
0.000000 -24.000000 6.543417E+00
0.000000 -26.000000 9.916313E+00
0.000000 -28.000000 5.978344E+00
0.000000 -30.000000 -8.478699E-01
0.000000 -32.000000 -5.289557E+00
0.000000 -34.000000 -2.720179E+00
0.000000 -36.000000 1.631392E+00
0.000000 -38.000000 -1.156158E-01
0.000000 -40.000000 -8.426451E+00
2.000000 40.000000 3.611057E+01
2.000000 38.000000 2.010614E+01
2.000000 36.000000 4.130922E+00
2.000000 34.000000 -1.076401E+01
2.000000 32.000000 -1.818548E+01
2.000000 30.000000 -1.993177E+01
2.000000 28.000000 -2.092179E+01
2.000000 26.000000 -2.227465E+01
2.000000 24.000000 -2.673716E+01
2.000000 22.000000 -2.939194E+01
2.000000 20.000000 -2.227184E+01
2.000000 18.000000 -1.074062E+01
2.000000 16.000000 -1.826845E+01
2.000000 14.000000 -5.032437E+01
2.000000 12.000000 -9.305024E+01
2.000000 10.000000 -1.187691E+02
2.000000 8.000000 -1.055378E+02
2.000000 6.000000 -7.419801E+01
2.000000 4.000000 -4.189145E+01
2.000000 2.000000 -2.218383E+01
2.000000 0.000000 -2.099270E+00
2.000000 -2.000000 1.957159E+01
2.000000 -4.000000 3.285909E+01
2.000000 -6.000000 3.361522E+01
2.000000 -8.000000 2.335348E+01
2.000000 -10.000000 7.185621E+00
2.000000 -12.000000 -1.009694E+01
2.000000 -14.000000 -1.939967E+01
2.000000 -16.000000 -1.824977E+01
2.000000 -18.000000 -1.511554E+01
2.000000 -20.000000 -1.442094E+01
2.000000 -22.000000 -1.191843E+01
2.000000 -24.000000 -5.418389E+00
2.000000 -26.000000 -1.528034E-01
2.000000 -28.000000 -3.632706E+00
2.000000 -30.000000 -1.107038E+01
2.000000 -32.000000 -1.609463E+01
2.000000 -34.000000 -1.260279E+01
2.000000 -36.000000 -6.384575E+00
2.000000 -38.000000 -5.977623E+00
2.000000 -40.000000 -1.293909E+01
4.000000 40.000000 3.075597E+01
4.000000 38.000000 1.330064E+01
4.000000 36.000000 -2.515554E+00
4.000000 34.000000 -1.523169E+01
4.000000 32.000000 -1.959853E+01
4.000000 30.000000 -1.956043E+01
4.000000 28.000000 -2.037729E+01
4.000000 26.000000 -2.249092E+01
4.000000 24.000000 -2.834328E+01
4.000000 22.000000 -3.112518E+01
4.000000 20.000000 -2.063868E+01
4.000000 18.000000 -2.236687E+00
4.000000 16.000000 -3.465595E+00
4.000000 14.000000 -3.377498E+01
4.000000 12.000000 -8.402161E+01
4.000000 10.000000 -1.242685E+02
4.000000 8.000000 -1.234651E+02
4.000000 6.000000 -9.883541E+01
4.000000 4.000000 -6.257282E+01
4.000000 2.000000 -3.050946E+01
4.000000 0.000000 1.880783E+00
4.000000 -2.000000 3.068695E+01
4.000000 -4.000000 4.742470E+01
4.000000 -6.000000 4.488718E+01
4.000000 -8.000000 2.823047E+01
4.000000 -10.000000 6.622343E+00
4.000000 -12.000000 -1.395774E+01
4.000000 -14.000000 -2.424975E+01
4.000000 -16.000000 -2.343210E+01
4.000000 -18.000000 -2.123854E+01
4.000000 -20.000000 -2.173727E+01
4.000000 -22.000000 -1.976246E+01
4.000000 -24.000000 -1.282997E+01
4.000000 -26.000000 -8.042809E+00
4.000000 -28.000000 -1.306580E+01
4.000000 -30.000000 -2.240831E+01
4.000000 -32.000000 -2.834720E+01
4.000000 -34.000000 -2.373150E+01
4.000000 -36.000000 -1.574874E+01
4.000000 -38.000000 -1.316980E+01
4.000000 -40.000000 -1.872961E+01
6.000000 40.000000 2.635735E+01
6.000000 38.000000 9.184096E+00
6.000000 36.000000 -5.576025E+00
6.000000 34.000000 -1.606192E+01
6.000000 32.000000 -1.841082E+01
6.000000 30.000000 -1.807234E+01
6.000000 28.000000 -2.020208E+01
6.000000 26.000000 -2.515251E+01
6.000000 24.000000 -3.430090E+01
6.000000 22.000000 -3.905863E+01
6.000000 20.000000 -2.999006E+01
6.000000 18.000000 -7.798071E+00
6.000000 16.000000 7.714844E-01
6.000000 14.000000 -2.019561E+01
6.000000 12.000000 -6.765161E+01
6.000000 10.000000 -1.141283E+02
6.000000 8.000000 -1.288911E+02
6.000000 6.000000 -1.166925E+02
6.000000 4.000000 -8.299677E+01
6.000000 2.000000 -4.244610E+01
6.000000 0.000000 1.426125E-02
6.000000 -2.000000 3.456662E+01
6.000000 -4.000000 5.069682E+01
6.000000 -6.000000 4.456859E+01
6.000000 -8.000000 2.554152E+01
6.000000 -10.000000 3.367538E+00
6.000000 -12.000000 -1.470347E+01
6.000000 -14.000000 -2.163990E+01
6.000000 -16.000000 -1.807562E+01
6.000000 -18.000000 -1.598203E+01
6.000000 -20.000000 -1.826048E+01
6.000000 -22.000000 -1.814034E+01
6.000000 -24.000000 -1.289473E+01
6.000000 -26.000000 -1.072332E+01
6.000000 -28.000000 -1.912165E+01
6.000000 -30.000000 -3.157079E+01
6.000000 -32.000000 -3.921003E+01
6.000000 -34.000000 -3.407531E+01
6.000000 -36.000000 -2.491392E+01
6.000000 -38.000000 -2.076123E+01
6.000000 -40.000000 -2.523750E+01
8.000000 40.000000 2.421208E+01
8.000000 38.000000 7.031060E+00
8.000000 36.000000 -7.304161E+00
8.000000 34.000000 -1.574162E+01
8.000000 32.000000 -1.648981E+01
8.000000 30.000000 -1.621497E+01
8.000000 28.000000 -2.010064E+01
8.000000 26.000000 -2.806996E+01
8.000000 24.000000 -4.074388E+01
8.000000 22.000000 -4.906132E+01
8.000000 20.000000 -4.414024E+01
8.000000 18.000000 -1.982075E+01
8.000000 16.000000 -1.962217E+00
8.000000 14.000000 -1.304234E+01
8.000000 12.000000 -5.501276E+01
8.000000 10.000000 -1.023751E+02
8.000000 8.000000 -1.285904E+02
8.000000 6.000000 -1.273665E+02
8.000000 4.000000 -9.831590E+01
8.000000 2.000000 -5.333798E+01
8.000000 0.000000 -4.036402E+00
8.000000 -2.000000 3.420159E+01
8.000000 -4.000000 4.719589E+01
8.000000 -6.000000 3.721995E+01
8.000000 -8.000000 1.870735E+01
8.000000 -10.000000 -9.268570E-02
8.000000 -12.000000 -1.101123E+01
8.000000 -14.000000 -1.242845E+01
8.000000 -16.000000 -6.603426E+00
8.000000 -18.000000 -4.058045E+00
8.000000 -20.000000 -6.400887E+00
8.000000 -22.000000 -7.468317E+00
8.000000 -24.000000 -5.596013E+00
8.000000 -26.000000 -7.499104E+00
8.000000 -28.000000 -1.964241E+01
8.000000 -30.000000 -3.502281E+01
8.000000 -32.000000 -4.456186E+01
8.000000 -34.000000 -4.079107E+01
8.000000 -36.000000 -3.276226E+01
8.000000 -38.000000 -2.823780E+01
8.000000 -40.000000 -3.157641E+01
10.000000 40.000000 2.395681E+01
10.000000 38.000000 6.447585E+00
10.000000 36.000000 -8.476898E+00
10.000000 34.000000 -1.645212E+01
10.000000 32.000000 -1.625430E+01
10.000000 30.000000 -1.550572E+01
10.000000 28.000000 -1.990287E+01
10.000000 26.000000 -2.942025E+01
10.000000 24.000000 -4.398077E+01
10.000000 22.000000 -5.454722E+01
10.000000 20.000000 -5.140467E+01
10.000000 18.000000 -2.813222E+01
10.000000 16.000000 -9.075855E+00
10.000000 14.000000 -1.764414E+01
10.000000 12.000000 -5.701382E+01
10.000000 10.000000 -1.043493E+02
10.000000 8.000000 -1.333206E+02
10.000000 6.000000 -1.356354E+02
10.000000 4.000000 -1.073725E+02
10.000000 2.000000 -5.741418E+01
10.000000 0.000000 -1.224541E+00
10.000000 -2.000000 4.020614E+01
10.000000 -4.000000 5.137266E+01
10.000000 -6.000000 3.693040E+01
10.000000 -8.000000 1.811873E+01
10.000000 -10.000000 2.497440E+00
10.000000 -12.000000 -3.215380E+00
10.000000 -14.000000 -2.352870E+00
10.000000 -16.000000 4.210760E+00
10.000000 -18.000000 7.538141E+00
10.000000 -20.000000 6.221545E+00
10.000000 -22.000000 5.383056E+00
10.000000 -24.000000 5.557693E+00
10.000000 -26.000000 9.857149E-01
10.000000 -28.000000 -1.408624E+01
10.000000 -30.000000 -3.177290E+01
10.000000 -32.000000 -4.338162E+01
10.000000 -34.000000 -4.207231E+01
10.000000 -36.000000 -3.685666E+01
10.000000 -38.000000 -3.356615E+01
10.000000 -40.000000 -3.701464E+01
12.000000 40.000000 2.493313E+01
12.000000 38.000000 7.504437E+00
12.000000 36.000000 -8.183914E+00
12.000000 34.000000 -1.794497E+01
12.000000 32.000000 -1.854526E+01
12.000000 30.000000 -1.696230E+01
12.000000 28.000000 -2.043814E+01
12.000000 26.000000 -3.032234E+01
12.000000 24.000000 -4.519547E+01
12.000000 22.000000 -5.542206E+01
12.000000 20.000000 -5.173874E+01
12.000000 18.000000 -3.178810E+01
12.000000 16.000000 -1.839290E+01
12.000000 14.000000 -3.163247E+01
12.000000 12.000000 -7.212678E+01
12.000000 10.000000 -1.194758E+02
12.000000 8.000000 -1.452254E+02
12.000000 6.000000 -1.438328E+02
12.000000 4.000000 -1.094993E+02
12.000000 2.000000 -5.319058E+01
12.000000 0.000000 1.006366E+01
12.000000 -2.000000 5.603280E+01
12.000000 -4.000000 6.794226E+01
12.000000 -6.000000 5.071721E+01
12.000000 -8.000000 3.098903E+01
12.000000 -10.000000 1.625828E+01
12.000000 -12.000000 1.152494E+01
12.000000 -14.000000 1.054073E+01
12.000000 -16.000000 1.444296E+01
12.000000 -18.000000 1.554624E+01
12.000000 -20.000000 1.368356E+01
12.000000 -22.000000 1.399166E+01
12.000000 -24.000000 1.500026E+01
12.000000 -26.000000 1.044566E+01
12.000000 -28.000000 -5.382311E+00
12.000000 -30.000000 -2.383001E+01
12.000000 -32.000000 -3.687753E+01
12.000000 -34.000000 -3.792011E+01
12.000000 -36.000000 -3.605051E+01
12.000000 -38.000000 -3.533073E+01
12.000000 -40.000000 -4.049240E+01
14.000000 40.000000 2.821441E+01
14.000000 38.000000 1.036691E+01
14.000000 36.000000 -7.317445E+00
14.000000 34.000000 -2.052129E+01
14.000000 32.000000 -2.302150E+01
14.000000 30.000000 -2.086610E+01
14.000000 28.000000 -2.338170E+01
14.000000 26.000000 -3.311655E+01
14.000000 24.000000 -4.666247E+01
14.000000 22.000000 -5.362553E+01
14.000000 20.000000 -4.790464E+01
14.000000 18.000000 -3.070623E+01
14.000000 16.000000 -2.331760E+01
14.000000 14.000000 -4.287064E+01
14.000000 12.000000 -8.667709E+01
14.000000 10.000000 -1.343040E+02
14.000000 8.000000 -1.561163E+02
14.000000 6.000000 -1.518024E+02
14.000000 4.000000 -1.138941E+02
14.000000 2.000000 -5.472064E+01
14.000000 0.000000 1.549766E+01
14.000000 -2.000000 6.971299E+01
14.000000 -4.000000 8.873629E+01
14.000000 -6.000000 7.504185E+01
14.000000 -8.000000 5.645659E+01
14.000000 -10.000000 4.326892E+01
14.000000 -12.000000 3.899800E+01
14.000000 -14.000000 3.529505E+01
14.000000 -16.000000 3.006865E+01
14.000000 -18.000000 2.119633E+01
14.000000 -20.000000 1.396639E+01
14.000000 -22.000000 1.426768E+01
14.000000 -24.000000 1.768874E+01
14.000000 -26.000000 1.592112E+01
14.000000 -28.000000 2.774171E+00
14.000000 -30.000000 -1.343521E+01
14.000000 -32.000000 -2.605313E+01
14.000000 -34.000000 -2.936612E+01
14.000000 -36.000000 -3.149578E+01
14.000000 -38.000000 -3.420098E+01
14.000000 -40.000000 -4.128291E+01
16.000000 40.000000 3.430606E+01
16.000000 38.000000 1.533875E+01
16.000000 36.000000 -5.980218E+00
16.000000 34.000000 -2.387584E+01
16.000000 32.000000 -2.855944E+01
16.000000 30.000000 -2.681925E+01
16.000000 28.000000 -2.977751E+01
16.000000 26.000000 -3.880944E+01
16.000000 24.000000 -5.022484E+01
16.000000 22.000000 -5.141548E+01
16.000000 20.000000 -4.018988E+01
16.000000 18.000000 -2.226484E+01
16.000000 16.000000 -1.828654E+01
16.000000 14.000000 -4.137381E+01
16.000000 12.000000 -8.629299E+01
16.000000 10.000000 -1.332072E+02
16.000000 8.000000 -1.547302E+02
16.000000 6.000000 -1.547458E+02
16.000000 4.000000 -1.260026E+02
16.000000 2.000000 -7.244456E+01
16.000000 0.000000 1.703978E-01
16.000000 -2.000000 6.500456E+01
16.000000 -4.000000 9.956529E+01
16.000000 -6.000000 9.907883E+01
16.000000 -8.000000 8.689273E+01
16.000000 -10.000000 8.028835E+01
16.000000 -12.000000 7.899299E+01
16.000000 -14.000000 7.270601E+01
16.000000 -16.000000 5.528384E+01
16.000000 -18.000000 3.004255E+01
16.000000 -20.000000 1.042447E+01
16.000000 -22.000000 6.707677E+00
16.000000 -24.000000 1.250632E+01
16.000000 -26.000000 1.545748E+01
16.000000 -28.000000 7.510330E+00
16.000000 -30.000000 -3.973680E+00
16.000000 -32.000000 -1.428662E+01
16.000000 -34.000000 -1.888343E+01
16.000000 -36.000000 -2.456142E+01
16.000000 -38.000000 -3.084528E+01
16.000000 -40.000000 -3.945910E+01
18.000000 40.000000 4.243728E+01
18.000000 38.000000 2.227339E+01
18.000000 36.000000 -3.152726E+00
18.000000 34.000000 -2.619676E+01
18.000000 32.000000 -3.286952E+01
18.000000 30.000000 -3.190151E+01
18.000000 28.000000 -3.678225E+01
18.000000 26.000000 -4.593992E+01
18.000000 24.000000 -5.582322E+01
18.000000 22.000000 -5.088430E+01
18.000000 20.000000 -3.164717E+01
18.000000 18.000000 -5.871507E+00
18.000000 16.000000 -6.672287E-02
18.000000 14.000000 -2.249164E+01
18.000000 12.000000 -6.686576E+01
18.000000 10.000000 -1.129400E+02
18.000000 8.000000 -1.406592E+02
18.000000 6.000000 -1.525814E+02
18.000000 4.000000 -1.426153E+02
18.000000 2.000000 -1.031652E+02
18.000000 0.000000 -3.479912E+01
18.000000 -2.000000 4.026016E+01
18.000000 -4.000000 9.302324E+01
18.000000 -6.000000 1.119055E+02
18.000000 -8.000000 1.123020E+02
18.000000 -10.000000 1.162884E+02
18.000000 -12.000000 1.204990E+02
18.000000 -14.000000 1.137132E+02
18.000000 -16.000000 8.681552E+01
18.000000 -18.000000 4.586254E+01
18.000000 -20.000000 1.125648E+01
18.000000 -22.000000 -1.009951E+00
18.000000 -24.000000 2.868460E+00
18.000000 -26.000000 8.877671E+00
18.000000 -28.000000 7.077171E+00
18.000000 -30.000000 1.476135E+00
18.000000 -32.000000 -5.473101E+00
18.000000 -34.000000 -1.032501E+01
18.000000 -36.000000 -1.758905E+01
18.000000 -38.000000 -2.598056E+01
18.000000 -40.000000 -3.535618E+01
20.000000 40.000000 5.127065E+01
20.000000 38.000000 3.096503E+01
20.000000 36.000000 1.826795E+00
20.000000 34.000000 -2.567006E+01
20.000000 32.000000 -3.318159E+01
20.000000 30.000000 -3.196209E+01
20.000000 28.000000 -3.862643E+01
20.000000 26.000000 -4.832771E+01
20.000000 24.000000 -5.654979E+01
20.000000 22.000000 -4.679992E+01
20.000000 20.000000 -2.048987E+01
20.000000 18.000000 1.440333E+01
20.000000 16.000000 2.311436E+01
20.000000 14.000000 2.697480E+00
20.000000 12.000000 -4.166466E+01
20.000000 10.000000 -8.830920E+01
20.000000 8.000000 -1.258877E+02
20.000000 6.000000 -1.524632E+02
20.000000 4.000000 -1.613969E+02
20.000000 2.000000 -1.359500E+02
20.000000 0.000000 -7.273402E+01
20.000000 -2.000000 9.460559E+00
20.000000 -4.000000 7.462716E+01
20.000000 -6.000000 1.097161E+02
20.000000 -8.000000 1.247818E+02
20.000000 -10.000000 1.401708E+02
20.000000 -12.000000 1.508142E+02
20.000000 -14.000000 1.469456E+02
20.000000 -16.000000 1.168716E+02
20.000000 -18.000000 6.820405E+01
20.000000 -20.000000 2.339280E+01
20.000000 -22.000000 7.246828E-02
20.000000 -24.000000 -4.035386E+00
20.000000 -26.000000 6.036282E-01
20.000000 -28.000000 3.459997E+00
20.000000 -30.000000 2.462398E+00
20.000000 -32.000000 -1.975686E+00
20.000000 -34.000000 -7.522621E+00
20.000000 -36.000000 -1.418595E+01
20.000000 -38.000000 -2.135126E+01
20.000000 -40.000000 -2.988443E+01
22.000000 40.000000 5.784015E+01
22.000000 38.000000 4.016233E+01
22.000000 36.000000 1.122741E+01
22.000000 34.000000 -1.763501E+01
22.000000 32.000000 -2.684234E+01
22.000000 30.000000 -2.613051E+01
22.000000 28.000000 -3.198090E+01
22.000000 26.000000 -3.986134E+01
22.000000 24.000000 -4.567467E+01
22.000000 22.000000 -3.331219E+01
22.000000 20.000000 -4.594997E+00
22.000000 18.000000 2.981649E+01
22.000000 16.000000 3.609167E+01
22.000000 14.000000 1.385664E+01
22.000000 12.000000 -3.212125E+01
22.000000 10.000000 -8.152992E+01
22.000000 8.000000 -1.258354E+02
22.000000 6.000000 -1.600953E+02
22.000000 4.000000 -1.753649E+02
22.000000 2.000000 -1.518293E+02
22.000000 0.000000 -8.922342E+01
22.000000 -2.000000 -5.292189E+00
22.000000 -4.000000 6.214758E+01
22.000000 -6.000000 1.013778E+02
22.000000 -8.000000 1.245899E+02
22.000000 -10.000000 1.469204E+02
22.000000 -12.000000 1.616830E+02
22.000000 -14.000000 1.619524E+02
22.000000 -16.000000 1.360739E+02
22.000000 -18.000000 8.961314E+01
22.000000 -20.000000 4.274460E+01
22.000000 -22.000000 1.170510E+01
22.000000 -24.000000 -1.698824E+00
22.000000 -26.000000 -2.531863E+00
22.000000 -28.000000 1.976314E-01
22.000000 -30.000000 1.076608E-01
22.000000 -32.000000 -4.117537E+00
22.000000 -34.000000 -1.090746E+01
22.000000 -36.000000 -1.553787E+01
22.000000 -38.000000 -1.862241E+01
22.000000 -40.000000 -2.495691E+01
24.000000 40.000000 6.083542E+01
24.000000 38.000000 4.905381E+01
24.000000 36.000000 2.531845E+01
24.000000 34.000000 -1.845800E+00
24.000000 32.000000 -1.416681E+01
24.000000 30.000000 -1.503970E+01
24.000000 28.000000 -1.842500E+01
24.000000 26.000000 -2.390440E+01
24.000000 24.000000 -2.815692E+01
24.000000 22.000000 -1.625982E+01
24.000000 20.000000 1.059750E+01
24.000000 18.000000 3.850435E+01
24.000000 16.000000 3.599878E+01
24.000000 14.000000 3.630670E+00
24.000000 12.000000 -4.856531E+01
24.000000 10.000000 -1.020026E+02
24.000000 8.000000 -1.417927E+02
24.000000 6.000000 -1.681671E+02
24.000000 4.000000 -1.705284E+02
24.000000 2.000000 -1.371546E+02
24.000000 0.000000 -7.156494E+01
24.000000 -2.000000 9.412309E+00
24.000000 -4.000000 7.058186E+01
24.000000 -6.000000 1.018603E+02
24.000000 -8.000000 1.202700E+02
24.000000 -10.000000 1.379001E+02
24.000000 -12.000000 1.502917E+02
24.000000 -14.000000 1.525429E+02
24.000000 -16.000000 1.350371E+02
24.000000 -18.000000 9.862280E+01
24.000000 -20.000000 5.885386E+01
24.000000 -22.000000 2.860213E+01
24.000000 -24.000000 9.952118E+00
24.000000 -26.000000 2.314935E+00
24.000000 -28.000000 -3.784924E-01
24.000000 -30.000000 -3.740196E+00
24.000000 -32.000000 -9.534952E+00
24.000000 -34.000000 -1.710621E+01
24.000000 -36.000000 -1.957924E+01
24.000000 -38.000000 -1.867681E+01
24.000000 -40.000000 -2.213063E+01
26.000000 40.000000 6.302159E+01
26.000000 38.000000 5.730546E+01
26.000000 36.000000 3.838686E+01
26.000000 34.000000 1.306581E+01
26.000000 32.000000 -6.189120E-01
26.000000 30.000000 -1.484237E+00
26.000000 28.000000 -2.801599E+00
26.000000 26.000000 -7.393170E+00
26.000000 24.000000 -1.203800E+01
26.000000 22.000000 -4.733352E+00
26.000000 20.000000 1.710293E+01
26.000000 18.000000 3.937135E+01
26.000000 16.000000 2.561928E+01
26.000000 14.000000 -1.994450E+01
26.000000 12.000000 -7.833448E+01
26.000000 10.000000 -1.314483E+02
26.000000 8.000000 -1.557265E+02
26.000000 6.000000 -1.630256E+02
26.000000 4.000000 -1.432756E+02
26.000000 2.000000 -9.647840E+01
26.000000 0.000000 -2.760811E+01
26.000000 -2.000000 4.582015E+01
26.000000 -4.000000 9.535486E+01
26.000000 -6.000000 1.134288E+02
26.000000 -8.000000 1.193562E+02
26.000000 -10.000000 1.235233E+02
26.000000 -12.000000 1.257343E+02
26.000000 -14.000000 1.238377E+02
26.000000 -16.000000 1.135418E+02
26.000000 -18.000000 9.148486E+01
26.000000 -20.000000 6.519471E+01
26.000000 -22.000000 4.302482E+01
26.000000 -24.000000 2.495465E+01
26.000000 -26.000000 1.238709E+01
26.000000 -28.000000 2.507410E+00
26.000000 -30.000000 -6.372720E+00
26.000000 -32.000000 -1.458268E+01
26.000000 -34.000000 -2.183098E+01
26.000000 -36.000000 -2.312611E+01
26.000000 -38.000000 -2.066868E+01
26.000000 -40.000000 -2.116733E+01
28.000000 40.000000 6.672007E+01
28.000000 38.000000 6.263861E+01
28.000000 36.000000 4.493712E+01
28.000000 34.000000 2.127043E+01
28.000000 32.000000 8.346029E+00
28.000000 30.000000 9.076641E+00
28.000000 28.000000 9.866405E+00
28.000000 26.000000 5.527528E+00
28.000000 24.000000 -1.673140E+00
28.000000 22.000000 -2.488646E+00
28.000000 20.000000 1.038934E+01
28.000000 18.000000 2.506211E+01
28.000000 16.000000 5.372911E+00
28.000000 14.000000 -4.464699E+01
28.000000 12.000000 -1.007853E+02
28.000000 10.000000 -1.427533E+02
28.000000 8.000000 -1.467156E+02
28.000000 6.000000 -1.336439E+02
28.000000 4.000000 -9.884688E+01
28.000000 2.000000 -4.662708E+01
28.000000 0.000000 2.051988E+01
28.000000 -2.000000 8.273459E+01
28.000000 -4.000000 1.192321E+02
28.000000 -6.000000 1.262588E+02
28.000000 -8.000000 1.226259E+02
28.000000 -10.000000 1.153548E+02
28.000000 -12.000000 1.047338E+02
28.000000 -14.000000 9.401855E+01
28.000000 -16.000000 8.717362E+01
28.000000 -18.000000 7.641077E+01
28.000000 -20.000000 6.258746E+01
28.000000 -22.000000 5.050696E+01
28.000000 -24.000000 3.712515E+01
28.000000 -26.000000 2.244510E+01
28.000000 -28.000000 6.866230E+00
28.000000 -30.000000 -6.531704E+00
28.000000 -32.000000 -1.657020E+01
28.000000 -34.000000 -2.358787E+01
28.000000 -36.000000 -2.467603E+01
28.000000 -38.000000 -2.193682E+01
28.000000 -40.000000 -2.015304E+01
30.000000 40.000000 7.134912E+01
30.000000 38.000000 6.480648E+01
30.000000 36.000000 4.497958E+01
30.000000 34.000000 2.101978E+01
30.000000 32.000000 8.921390E+00
30.000000 30.000000 1.306716E+01
30.000000 28.000000 1.730953E+01
30.000000 26.000000 1.293105E+01
30.000000 24.000000 1.828814E+00
30.000000 22.000000 -7.160664E+00
30.000000 20.000000 -5.469597E+00
30.000000 18.000000 -9.522438E-02
30.000000 16.000000 -1.786318E+01
30.000000 14.000000 -6.015059E+01
30.000000 12.000000 -1.038871E+02
30.000000 10.000000 -1.263288E+02
30.000000 8.000000 -1.112061E+02
30.000000 6.000000 -8.320782E+01
30.000000 4.000000 -4.664576E+01
30.000000 2.000000 -3.477612E+00
30.000000 0.000000 5.198068E+01
30.000000 -2.000000 1.013052E+02
30.000000 -4.000000 1.266789E+02
30.000000 -6.000000 1.295975E+02
30.000000 -8.000000 1.266260E+02
30.000000 -10.000000 1.190628E+02
30.000000 -12.000000 1.017203E+02
30.000000 -14.000000 8.280331E+01
30.000000 -16.000000 7.282520E+01
30.000000 -18.000000 6.422439E+01
30.000000 -20.000000 5.652902E+01
30.000000 -22.000000 5.180329E+01
30.000000 -24.000000 4.331068E+01
30.000000 -26.000000 2.890320E+01
30.000000 -28.000000 1.122964E+01
30.000000 -30.000000 -4.068451E+00
30.000000 -32.000000 -1.499857E+01
30.000000 -34.000000 -2.226004E+01
30.000000 -36.000000 -2.339095E+01
30.000000 -38.000000 -2.019784E+01
30.000000 -40.000000 -1.719775E+01
32.000000 40.000000 7.640091E+01
32.000000 38.000000 6.563163E+01
32.000000 36.000000 4.074938E+01
32.000000 34.000000 1.200158E+01
32.000000 32.000000 -1.209379E+00
32.000000 30.000000 7.329152E+00
32.000000 28.000000 1.671085E+01
32.000000 26.000000 1.435318E+01
32.000000 24.000000 2.119445E+00
32.000000 22.000000 -1.030287E+01
32.000000 20.000000 -1.495961E+01
32.000000 18.000000 -1.251945E+01
32.000000 16.000000 -2.539981E+01
32.000000 14.000000 -5.823599E+01
32.000000 12.000000 -8.867341E+01
32.000000 10.000000 -9.234079E+01
32.000000 8.000000 -6.274786E+01
32.000000 6.000000 -2.799871E+01
32.000000 4.000000 -1.379238E+00
32.000000 2.000000 2.238680E+01
32.000000 0.000000 5.894265E+01
32.000000 -2.000000 9.403149E+01
32.000000 -4.000000 1.118255E+02
32.000000 -6.000000 1.191798E+02
32.000000 -8.000000 1.265199E+02
32.000000 -10.000000 1.287183E+02
32.000000 -12.000000 1.142594E+02
32.000000 -14.000000 9.237652E+01
32.000000 -16.000000 7.399331E+01
32.000000 -18.000000 6.010044E+01
32.000000 -20.000000 5.272737E+01
32.000000 -22.000000 5.042821E+01
32.000000 -24.000000 4.462086E+01
32.000000 -26.000000 3.248470E+01
32.000000 -28.000000 1.709642E+01
32.000000 -30.000000 2.049524E+00
32.000000 -32.000000 -9.714100E+00
32.000000 -34.000000 -1.707434E+01
32.000000 -36.000000 -1.784478E+01
32.000000 -38.000000 -1.404703E+01
32.000000 -40.000000 -1.137444E+01
34.000000 40.000000 8.286660E+01
34.000000 38.000000 6.621112E+01
34.000000 36.000000 3.532102E+01
34.000000 34.000000 -5.184917E-01
34.000000 32.000000 -1.784778E+01
34.000000 30.000000 -8.558445E+00
34.000000 28.000000 5.585198E+00
34.000000 26.000000 9.368120E+00
34.000000 24.000000 2.373660E+00
34.000000 22.000000 -5.585912E+00
34.000000 20.000000 -6.353900E+00
34.000000 18.000000 -1.282113E+00
34.000000 16.000000 -1.165753E+01
34.000000 14.000000 -4.026859E+01
34.000000 12.000000 -6.397420E+01
34.000000 10.000000 -5.686662E+01
34.000000 8.000000 -1.982514E+01
34.000000 6.000000 1.487243E+01
34.000000 4.000000 2.630711E+01
34.000000 2.000000 3.029259E+01
34.000000 0.000000 4.887973E+01
34.000000 -2.000000 7.204560E+01
34.000000 -4.000000 8.583707E+01
34.000000 -6.000000 1.013157E+02
34.000000 -8.000000 1.218684E+02
34.000000 -10.000000 1.358545E+02
34.000000 -12.000000 1.270705E+02
34.000000 -14.000000 1.054599E+02
34.000000 -16.000000 8.122770E+01
34.000000 -18.000000 6.203599E+01
34.000000 -20.000000 5.352043E+01
34.000000 -22.000000 5.134952E+01
34.000000 -24.000000 4.697772E+01
34.000000 -26.000000 3.717363E+01
34.000000 -28.000000 2.536914E+01
34.000000 -30.000000 1.237778E+01
34.000000 -32.000000 2.998409E-01
34.000000 -34.000000 -7.238260E+00
34.000000 -36.000000 -7.601351E+00
34.000000 -38.000000 -3.695358E+00
34.000000 -40.000000 -2.945878E+00
36.000000 40.000000 9.154506E+01
36.000000 38.000000 6.922039E+01
36.000000 36.000000 3.351532E+01
36.000000 34.000000 -9.211898E+00
36.000000 32.000000 -3.291382E+01
36.000000 30.000000 -2.695714E+01
36.000000 28.000000 -1.061424E+01
36.000000 26.000000 -3.545446E-01
36.000000 24.000000 8.500547E-01
36.000000 22.000000 2.326901E+00
36.000000 20.000000 1.135241E+01
36.000000 18.000000 2.234480E+01
36.000000 16.000000 1.253860E+01
36.000000 14.000000 -1.766409E+01
36.000000 12.000000 -4.409719E+01
36.000000 10.000000 -3.624741E+01
36.000000 8.000000 3.888760E+00
36.000000 6.000000 3.723123E+01
36.000000 4.000000 3.884189E+01
36.000000 2.000000 3.271029E+01
36.000000 0.000000 4.066900E+01
36.000000 -2.000000 5.672180E+01
36.000000 -4.000000 6.784661E+01
36.000000 -6.000000 8.805919E+01
36.000000 -8.000000 1.161720E+02
36.000000 -10.000000 1.341075E+02
36.000000 -12.000000 1.257751E+02
36.000000 -14.000000 1.051767E+02
36.000000 -16.000000 8.321501E+01
36.000000 -18.000000 6.662155E+01
36.000000 -20.000000 5.958063E+01
36.000000 -22.000000 5.743007E+01
36.000000 -24.000000 5.325966E+01
36.000000 -26.000000 4.498666E+01
36.000000 -28.000000 3.598775E+01
36.000000 -30.000000 2.608309E+01
36.000000 -32.000000 1.525276E+01
36.000000 -34.000000 7.995482E+00
36.000000 -36.000000 7.018477E+00
36.000000 -38.000000 8.880720E+00
36.000000 -40.000000 6.307199E+00
38.000000 40.000000 1.005955E+02
38.000000 38.000000 7.589910E+01
38.000000 36.000000 3.734460E+01
38.000000 34.000000 -1.068402E+01
38.000000 32.000000 -4.051430E+01
38.000000 30.000000 -3.895998E+01
38.000000 28.000000 -2.265227E+01
38.000000 26.000000 -8.424064E+00
38.000000 24.000000 -4.969950E-01
38.000000 22.000000 9.805692E+00
38.000000 20.000000 2.843961E+01
38.000000 18.000000 4.653317E+01
38.000000 16.000000 3.671760E+01
38.000000 14.000000 5.559158E-01
38.000000 12.000000 -3.615390E+01
38.000000 10.000000 -3.782087E+01
38.000000 8.000000 -4.382248E-01
38.000000 6.000000 3.153883E+01
38.000000 4.000000 3.679498E+01
38.000000 2.000000 3.589698E+01
38.000000 0.000000 4.462377E+01
38.000000 -2.000000 6.004676E+01
38.000000 -4.000000 7.191607E+01
38.000000 -6.000000 9.052882E+01
38.000000 -8.000000 1.126221E+02
38.000000 -10.000000 1.216999E+02
38.000000 -12.000000 1.073882E+02
38.000000 -14.000000 8.871989E+01
38.000000 -16.000000 7.741542E+01
38.000000 -18.000000 7.268513E+01
38.000000 -20.000000 7.005890E+01
38.000000 -22.000000 6.671168E+01
38.000000 -24.000000 6.104042E+01
38.000000 -26.000000 5.448964E+01
38.000000 -28.000000 4.804536E+01
38.000000 -30.000000 4.079217E+01
38.000000 -32.000000 3.255921E+01
38.000000 -34.000000 2.675271E+01
38.000000 -36.000000 2.403025E+01
38.000000 -38.000000 2.130849E+01
38.000000 -40.000000 1.446865E+01
40.000000 40.000000 1.053067E+02
40.000000 38.000000 8.407643E+01
40.000000 36.000000 4.767533E+01
40.000000 34.000000 -8.438988E-01
40.000000 32.000000 -3.448714E+01
40.000000 30.000000 -3.889358E+01
40.000000 28.000000 -2.627604E+01
40.000000 26.000000 -1.155742E+01
40.000000 24.000000 -3.406324E-01
40.000000 22.000000 1.447971E+01
40.000000 20.000000 3.685128E+01
40.000000 18.000000 5.702171E+01
40.000000 16.000000 4.707353E+01
40.000000 14.000000 7.653329E+00
40.000000 12.000000 -3.570208E+01
40.000000 10.000000 -4.735281E+01
40.000000 8.000000 -1.602350E+01
40.000000 6.000000 1.608636E+01
40.000000 4.000000 3.235560E+01
40.000000 2.000000 4.184376E+01
40.000000 0.000000 5.568452E+01
40.000000 -2.000000 7.312307E+01
40.000000 -4.000000 8.713203E+01
40.000000 -6.000000 1.000342E+02
40.000000 -8.000000 1.084573E+02
40.000000 -10.000000 1.040418E+02
40.000000 -12.000000 8.363649E+01
40.000000 -14.000000 6.851637E+01
40.000000 -16.000000 7.179541E+01
40.000000 -18.000000 8.103398E+01
40.000000 -20.000000 8.239553E+01
40.000000 -22.000000 7.570049E+01
40.000000 -24.000000 6.731612E+01
40.000000 -26.000000 6.192836E+01
40.000000 -28.000000 5.816133E+01
40.000000 -30.000000 5.295270E+01
40.000000 -32.000000 4.677985E+01
40.000000 -34.000000 4.286730E+01
40.000000 -36.000000 3.917166E+01
40.000000 -38.000000 3.216679E+01
40.000000 -40.000000 2.092009E+01
42.000000 40.000000 1.036085E+02
42.000000 38.000000 9.105281E+01
42.000000 36.000000 6.261987E+01
42.000000 34.000000 1.903084E+01
42.000000 32.000000 -1.602063E+01
42.000000 30.000000 -2.707673E+01
42.000000 28.000000 -2.123466E+01
42.000000 26.000000 -1.078019E+01
42.000000 24.000000 -1.143755E+00
42.000000 22.000000 1.231536E+01
42.000000 20.000000 3.060349E+01
42.000000 18.000000 4.770656E+01
42.000000 16.000000 4.005760E+01
42.000000 14.000000 5.045700E+00
42.000000 12.000000 -3.545062E+01
42.000000 10.000000 -4.664515E+01
42.000000 8.000000 -1.689734E+01
42.000000 6.000000 1.593639E+01
42.000000 4.000000 3.743686E+01
42.000000 2.000000 4.973445E+01
42.000000 0.000000 6.466927E+01
42.000000 -2.000000 8.078371E+01
42.000000 -4.000000 9.250708E+01
42.000000 -6.000000 1.001193E+02
42.000000 -8.000000 9.972746E+01
42.000000 -10.000000 8.801971E+01
42.000000 -12.000000 6.956346E+01
42.000000 -14.000000 6.152040E+01
42.000000 -16.000000 7.503123E+01
42.000000 -18.000000 9.143355E+01
42.000000 -20.000000 9.326752E+01
42.000000 -22.000000 8.266401E+01
42.000000 -24.000000 7.159296E+01
42.000000 -26.000000 6.588613E+01
42.000000 -28.000000 6.325979E+01
42.000000 -30.000000 5.872107E+01
42.000000 -32.000000 5.326838E+01
42.000000 -34.000000 5.059905E+01
42.000000 -36.000000 4.797258E+01
42.000000 -38.000000 3.944329E+01
42.000000 -40.000000 2.544889E+01
44.000000 40.000000 9.788816E+01
44.000000 38.000000 9.304109E+01
44.000000 36.000000 7.299647E+01
44.000000 34.000000 3.791559E+01
44.000000 32.000000 5.437774E+00
44.000000 30.000000 -9.376165E+00
44.000000 28.000000 -9.903069E+00
44.000000 26.000000 -6.317261E+00
44.000000 24.000000 -2.656940E+00
44.000000 22.000000 4.587225E+00
44.000000 20.000000 1.626074E+01
44.000000 18.000000 3.109375E+01
44.000000 16.000000 2.898601E+01
44.000000 14.000000 3.327160E+00
44.000000 12.000000 -2.891832E+01
44.000000 10.000000 -3.502727E+01
44.000000 8.000000 -7.444241E+00
44.000000 6.000000 2.214951E+01
44.000000 4.000000 4.151458E+01
44.000000 2.000000 5.184534E+01
44.000000 0.000000 6.634770E+01
44.000000 -2.000000 8.156324E+01
44.000000 -4.000000 9.010395E+01
44.000000 -6.000000 9.316238E+01
44.000000 -8.000000 9.033458E+01
44.000000 -10.000000 7.904227E+01
44.000000 -12.000000 6.753085E+01
44.000000 -14.000000 6.828631E+01
44.000000 -16.000000 8.549658E+01
44.000000 -18.000000 1.017351E+02
44.000000 -20.000000 1.015866E+02
44.000000 -22.000000 8.896469E+01
44.000000 -24.000000 7.622033E+01
44.000000 -26.000000 6.902773E+01
44.000000 -28.000000 6.463554E+01
44.000000 -30.000000 5.774043E+01
44.000000 -32.000000 5.147768E+01
44.000000 -34.000000 4.886789E+01
44.000000 -36.000000 4.799284E+01
44.000000 -38.000000 4.064191E+01
44.000000 -40.000000 2.702238E+01
46.000000 40.000000 8.978629E+01
46.000000 38.000000 8.686077E+01
46.000000 36.000000 7.252410E+01
46.000000 34.000000 4.785651E+01
46.000000 32.000000 2.277437E+01
46.000000 30.000000 8.235654E+00
46.000000 28.000000 2.582972E+00
46.000000 26.000000 -7.605801E-01
46.000000 24.000000 -5.146155E+00
46.000000 22.000000 -5.438130E+00
46.000000 20.000000 2.145750E+00
46.000000 18.000000 1.710613E+01
46.000000 16.000000 2.096230E+01
46.000000 14.000000 6.052213E+00
46.000000 12.000000 -1.489195E+01
46.000000 10.000000 -1.806738E+01
46.000000 8.000000 1.766148E+00
46.000000 6.000000 2.332972E+01
46.000000 4.000000 3.650020E+01
46.000000 2.000000 4.377329E+01
46.000000 0.000000 5.743949E+01
46.000000 -2.000000 7.334625E+01
46.000000 -4.000000 8.137508E+01
46.000000 -6.000000 8.364440E+01
46.000000 -8.000000 8.344469E+01
46.000000 -10.000000 7.715077E+01
46.000000 -12.000000 7.181399E+01
46.000000 -14.000000 7.883270E+01
46.000000 -16.000000 9.829211E+01
46.000000 -18.000000 1.132130E+02
46.000000 -20.000000 1.104146E+02
46.000000 -22.000000 9.678812E+01
46.000000 -24.000000 8.328576E+01
46.000000 -26.000000 7.374652E+01
46.000000 -28.000000 6.568558E+01
46.000000 -30.000000 5.396883E+01
46.000000 -32.000000 4.465763E+01
46.000000 -34.000000 4.069633E+01
46.000000 -36.000000 4.065984E+01
46.000000 -38.000000 3.580078E+01
46.000000 -40.000000 2.437565E+01
48.000000 40.000000 7.895899E+01
48.000000 38.000000 7.427599E+01
48.000000 36.000000 6.368995E+01
48.000000 34.000000 4.790210E+01
48.000000 32.000000 3.125317E+01
48.000000 30.000000 1.954928E+01
48.000000 28.000000 1.083117E+01
48.000000 26.000000 1.644304E+00
48.000000 24.000000 -9.310677E+00
48.000000 22.000000 -1.522092E+01
48.000000 20.000000 -9.516763E+00
48.000000 18.000000 6.715642E+00
48.000000 16.000000 1.569835E+01
48.000000 14.000000 9.663059E+00
48.000000 12.000000 -1.627081E+00
48.000000 10.000000 -1.382526E+00
48.000000 8.000000 1.183827E+01
48.000000 6.000000 2.399844E+01
48.000000 4.000000 2.660295E+01
48.000000 2.000000 2.655588E+01
48.000000 0.000000 3.646053E+01
48.000000 -2.000000 5.234606E+01
48.000000 -4.000000 6.191626E+01
48.000000 -6.000000 6.844749E+01
48.000000 -8.000000 7.349106E+01
48.000000 -10.000000 7.368393E+01
48.000000 -12.000000 7.578623E+01
48.000000 -14.000000 8.864347E+01
48.000000 -16.000000 1.098622E+02
48.000000 -18.000000 1.235852E+02
48.000000 -20.000000 1.200545E+02
48.000000 -22.000000 1.072817E+02
48.000000 -24.000000 9.308763E+01
48.000000 -26.000000 8.012971E+01
48.000000 -28.000000 6.790915E+01
48.000000 -30.000000 5.173386E+01
48.000000 -32.000000 3.846281E+01
48.000000 -34.000000 3.138451E+01
48.000000 -36.000000 2.954765E+01
48.000000 -38.000000 2.649118E+01
48.000000 -40.000000 1.748343E+01
50.000000 40.000000 6.656042E+01
50.000000 38.000000 5.904624E+01
50.000000 36.000000 4.965997E+01
50.000000 34.000000 3.857067E+01
50.000000 32.000000 2.812808E+01
50.000000 30.000000 2.009537E+01
50.000000 28.000000 1.126742E+01
50.000000 26.000000 -5.256400E-01
50.000000 24.000000 -1.418166E+01
50.000000 22.000000 -2.309283E+01
50.000000 20.000000 -1.937810E+01
50.000000 18.000000 -3.414579E+00
50.000000 16.000000 8.467529E+00
50.000000 14.000000 8.715696E+00
50.000000 12.000000 5.097211E+00
50.000000 10.000000 1.070582E+01
50.000000 8.000000 2.116597E+01
50.000000 6.000000 2.612523E+01
50.000000 4.000000 1.768631E+01
50.000000 2.000000 8.825588E+00
50.000000 0.000000 1.354206E+01
50.000000 -2.000000 2.771255E+01
50.000000 -4.000000 3.807921E+01
50.000000 -6.000000 4.943006E+01
50.000000 -8.000000 6.015854E+01
50.000000 -10.000000 6.575274E+01
50.000000 -12.000000 7.334413E+01
50.000000 -14.000000 9.018010E+01
50.000000 -16.000000 1.121421E+02
50.000000 -18.000000 1.262964E+02
50.000000 -20.000000 1.255969E+02
50.000000 -22.000000 1.154568E+02
50.000000 -24.000000 1.010011E+02
50.000000 -26.000000 8.578801E+01
50.000000 -28.000000 7.065784E+01
50.000000 -30.000000 5.241020E+01
50.000000 -32.000000 3.603446E+01
50.000000 -34.000000 2.487289E+01
50.000000 -36.000000 1.873597E+01
50.000000 -38.000000 1.545890E+01
50.000000 -40.000000 7.949787E+00
52.000000 40.000000 5.509390E+01
52.000000 38.000000 4.432332E+01
52.000000 36.000000 3.285844E+01
52.000000 34.000000 2.220183E+01
52.000000 32.000000 1.500854E+01
52.000000 30.000000 9.884613E+00
52.000000 28.000000 2.451034E+00
52.000000 26.000000 -7.523287E+00
52.000000 24.000000 -1.898624E+01
52.000000 22.000000 -2.727535E+01
52.000000 20.000000 -2.572581E+01
52.000000 18.000000 -1.464983E+01
52.000000 16.000000 -4.931334E+00
52.000000 14.000000 -2.052508E+00
52.000000 12.000000 -5.144672E-01
52.000000 10.000000 9.367971E+00
52.000000 8.000000 2.138350E+01
52.000000 6.000000 2.534822E+01
52.000000 4.000000 1.301579E+01
52.000000 2.000000 1.597500E-01
52.000000 0.000000 1.725960E+00
52.000000 -2.000000 1.387206E+01
52.000000 -4.000000 2.429448E+01
52.000000 -6.000000 3.814286E+01
52.000000 -8.000000 5.115090E+01
52.000000 -10.000000 5.730268E+01
52.000000 -12.000000 6.373667E+01
52.000000 -14.000000 7.956987E+01
52.000000 -16.000000 1.009904E+02
52.000000 -18.000000 1.166040E+02
52.000000 -20.000000 1.198706E+02
52.000000 -22.000000 1.133895E+02
52.000000 -24.000000 1.006801E+02
52.000000 -26.000000 8.577377E+01
52.000000 -28.000000 7.056690E+01
52.000000 -30.000000 5.300538E+01
52.000000 -32.000000 3.578537E+01
52.000000 -34.000000 2.174674E+01
52.000000 -36.000000 1.149014E+01
52.000000 -38.000000 6.709242E+00
52.000000 -40.000000 -7.204924E-01
54.000000 40.000000 4.529932E+01
54.000000 38.000000 3.136081E+01
54.000000 36.000000 1.588777E+01
54.000000 34.000000 3.257262E+00
54.000000 32.000000 -2.909517E+00
54.000000 30.000000 -6.616553E+00
54.000000 28.000000 -1.244340E+01
54.000000 26.000000 -1.857018E+01
54.000000 24.000000 -2.475306E+01
54.000000 22.000000 -2.962933E+01
54.000000 20.000000 -2.909858E+01
54.000000 18.000000 -2.424608E+01
54.000000 16.000000 -2.028090E+01
54.000000 14.000000 -1.994290E+01
54.000000 12.000000 -1.868591E+01
54.000000 10.000000 -8.020966E+00
54.000000 8.000000 9.245446E+00
54.000000 6.000000 1.850752E+01
54.000000 4.000000 1.206253E+01
54.000000 2.000000 1.770359E+00
54.000000 0.000000 3.657696E+00
54.000000 -2.000000 1.593817E+01
54.000000 -4.000000 2.802442E+01
54.000000 -6.000000 4.163048E+01
54.000000 -8.000000 5.077545E+01
54.000000 -10.000000 5.187365E+01
54.000000 -12.000000 5.201337E+01
54.000000 -14.000000 6.190433E+01
54.000000 -16.000000 7.925632E+01
54.000000 -18.000000 9.405024E+01
54.000000 -20.000000 1.002027E+02
54.000000 -22.000000 9.846498E+01
54.000000 -24.000000 8.895837E+01
54.000000 -26.000000 7.552815E+01
54.000000 -28.000000 6.279601E+01
54.000000 -30.000000 4.893099E+01
54.000000 -32.000000 3.504807E+01
54.000000 -34.000000 2.203414E+01
54.000000 -36.000000 1.009105E+01
54.000000 -38.000000 3.388482E+00
54.000000 -40.000000 -4.655066E+00
56.000000 40.000000 3.660307E+01
56.000000 38.000000 2.120460E+01
56.000000 36.000000 4.126398E+00
56.000000 34.000000 -1.198162E+01
56.000000 32.000000 -1.940186E+01
56.000000 30.000000 -2.321232E+01
56.000000 28.000000 -2.788587E+01
56.000000 26.000000 -3.098443E+01
56.000000 24.000000 -3.438397E+01
56.000000 22.000000 -3.641998E+01
56.000000 20.000000 -3.666643E+01
56.000000 18.000000 -3.509556E+01
56.000000 16.000000 -3.352035E+01
56.000000 14.000000 -3.354283E+01
56.000000 12.000000 -3.160430E+01
56.000000 10.000000 -2.005939E+01
56.000000 8.000000 -7.799149E-03
56.000000 6.000000 1.234814E+01
56.000000 4.000000 1.111620E+01
56.000000 2.000000 6.815784E+00
56.000000 0.000000 1.408728E+01
56.000000 -2.000000 2.947186E+01
56.000000 -4.000000 4.393850E+01
56.000000 -6.000000 5.438136E+01
56.000000 -8.000000 5.551043E+01
56.000000 -10.000000 4.859429E+01
56.000000 -12.000000 3.950292E+01
56.000000 -14.000000 3.941583E+01
56.000000 -16.000000 4.980683E+01
56.000000 -18.000000 6.236443E+01
56.000000 -20.000000 7.082578E+01
56.000000 -22.000000 7.264046E+01
56.000000 -24.000000 6.600769E+01
56.000000 -26.000000 5.726450E+01
56.000000 -28.000000 4.787991E+01
56.000000 -30.000000 3.966317E+01
56.000000 -32.000000 3.262742E+01
56.000000 -34.000000 2.393991E+01
56.000000 -36.000000 1.291141E+01
56.000000 -38.000000 4.644976E+00
56.000000 -40.000000 -4.024961E+00
58.000000 40.000000 2.863973E+01
58.000000 38.000000 1.378984E+01
58.000000 36.000000 -3.136567E+00
58.000000 34.000000 -2.010359E+01
58.000000 32.000000 -2.934357E+01
58.000000 30.000000 -3.402772E+01
58.000000 28.000000 -3.783123E+01
58.000000 26.000000 -4.071960E+01
58.000000 24.000000 -4.376469E+01
58.000000 22.000000 -4.562973E+01
58.000000 20.000000 -4.633118E+01
58.000000 18.000000 -4.466139E+01
58.000000 16.000000 -4.142464E+01
58.000000 14.000000 -3.790995E+01
58.000000 12.000000 -3.193886E+01
58.000000 10.000000 -1.955377E+01
58.000000 8.000000 -3.050409E+00
58.000000 6.000000 7.624584E+00
58.000000 4.000000 8.676912E+00
58.000000 2.000000 1.058089E+01
58.000000 0.000000 2.282981E+01
58.000000 -2.000000 3.985525E+01
58.000000 -4.000000 5.486802E+01
58.000000 -6.000000 6.203470E+01
58.000000 -8.000000 5.738391E+01
58.000000 -10.000000 4.562265E+01
58.000000 -12.000000 3.073615E+01
58.000000 -14.000000 2.353953E+01
58.000000 -16.000000 2.831054E+01
58.000000 -18.000000 3.785858E+01
58.000000 -20.000000 4.668662E+01
58.000000 -22.000000 4.995074E+01
58.000000 -24.000000 4.788905E+01
58.000000 -26.000000 3.968306E+01
58.000000 -28.000000 3.462356E+01
58.000000 -30.000000 3.142949E+01
58.000000 -32.000000 3.086019E+01
58.000000 -34.000000 2.735895E+01
58.000000 -36.000000 1.914181E+01
58.000000 -38.000000 8.405492E+00
58.000000 -40.000000 -1.914052E+00
60.000000 40.000000 2.074345E+01
60.000000 38.000000 7.179624E+00
60.000000 36.000000 -8.500365E+00
60.000000 34.000000 -2.527109E+01
60.000000 32.000000 -3.628922E+01
60.000000 30.000000 -4.225106E+01
60.000000 28.000000 -4.593941E+01
60.000000 26.000000 -4.819189E+01
60.000000 24.000000 -5.176463E+01
60.000000 22.000000 -5.298167E+01
60.000000 20.000000 -5.360021E+01
60.000000 18.000000 -5.113869E+01
60.000000 16.000000 -4.628435E+01
60.000000 14.000000 -4.024704E+01
60.000000 12.000000 -3.152295E+01
60.000000 10.000000 -1.864278E+01
60.000000 8.000000 -5.661923E+00
60.000000 6.000000 3.847814E+00
60.000000 4.000000 7.189097E+00
60.000000 2.000000 1.289601E+01
60.000000 0.000000 2.639519E+01
60.000000 -2.000000 4.376751E+01
60.000000 -4.000000 5.982005E+01
60.000000 -6.000000 6.571835E+01
60.000000 -8.000000 5.784654E+01
60.000000 -10.000000 4.219742E+01
60.000000 -12.000000 2.410289E+01
60.000000 -14.000000 1.380067E+01
60.000000 -16.000000 1.528426E+01
