-28.000000 12.000000 7.561638E+00
-28.000000 10.000000 4.414005E+00
-28.000000 8.000000 3.008690E+00
-28.000000 6.000000 -1.364989E+00
-28.000000 4.000000 -3.555047E+00
-28.000000 2.000000 -1.103824E+00
-28.000000 0.000000 3.813845E+00
-28.000000 -2.000000 9.681543E+00
-28.000000 -4.000000 1.201256E+01
-28.000000 -6.000000 1.178959E+01
-28.000000 -8.000000 1.046917E+01
-28.000000 -10.000000 7.957577E+00
-28.000000 -12.000000 6.223096E+00
-28.000000 -14.000000 5.023102E+00
-28.000000 -16.000000 4.792837E+00
-28.000000 -18.000000 6.370158E+00
-28.000000 -20.000000 9.545484E+00
-28.000000 -22.000000 1.269419E+01
-28.000000 -24.000000 1.453229E+01
-28.000000 -26.000000 1.530562E+01
-28.000000 -28.000000 1.347247E+01
-28.000000 -30.000000 9.680915E+00
-28.000000 -32.000000 4.663367E+00
-28.000000 -34.000000 8.967059E-01
-28.000000 -36.000000 -1.186341E+00
-28.000000 -38.000000 1.666693E+00
-28.000000 -40.000000 3.209761E+00
-26.000000 40.000000 7.458076E+01
-26.000000 38.000000 7.000980E+01
-26.000000 36.000000 6.494140E+01
-26.000000 34.000000 5.610258E+01
-26.000000 32.000000 4.662986E+01
-26.000000 30.000000 4.106598E+01
-26.000000 28.000000 3.985061E+01
-26.000000 26.000000 4.027195E+01
-26.000000 24.000000 4.011488E+01
-26.000000 22.000000 3.533762E+01
-26.000000 20.000000 2.945762E+01
-26.000000 18.000000 2.368315E+01
-26.000000 16.000000 1.546700E+01
-26.000000 14.000000 6.793320E+00
-26.000000 12.000000 2.374609E+00
-26.000000 10.000000 6.893100E+00
-26.000000 8.000000 1.464897E+01
-26.000000 6.000000 1.827346E+01
-26.000000 4.000000 1.817924E+01
-26.000000 2.000000 1.677475E+01
-26.000000 0.000000 1.754757E+01
-26.000000 -2.000000 1.916365E+01
-26.000000 -4.000000 1.844794E+01
-26.000000 -6.000000 1.651316E+01
-26.000000 -8.000000 1.540897E+01
-26.000000 -10.000000 1.359101E+01
-26.000000 -12.000000 1.177690E+01
-26.000000 -14.000000 9.401761E+00
-26.000000 -16.000000 6.914848E+00
-26.000000 -18.000000 7.169678E+00
-26.000000 -20.000000 1.014337E+01
-26.000000 -22.000000 1.285175E+01
-26.000000 -24.000000 1.343358E+01
-26.000000 -26.000000 1.380297E+01
-26.000000 -28.000000 1.330754E+01
-26.000000 -30.000000 1.081379E+01
-26.000000 -32.000000 7.285038E+00
-26.000000 -34.000000 4.344385E+00
-26.000000 -36.000000 2.434797E+00
-26.000000 -38.000000 6.053044E+00
-26.000000 -40.000000 7.002971E+00
-24.000000 40.000000 7.469399E+01
-24.000000 38.000000 6.923105E+01
-24.000000 36.000000 6.196868E+01
-24.000000 34.000000 4.719537E+01
-24.000000 32.000000 3.524681E+01
-24.000000 30.000000 3.250820E+01
-24.000000 28.000000 3.512055E+01
-24.000000 26.000000 3.731933E+01
-24.000000 24.000000 3.398807E+01
-24.000000 22.000000 2.333741E+01
-24.000000 20.000000 1.224280E+01
-24.000000 18.000000 5.561495E+00
-24.000000 16.000000 -3.660011E-02
-24.000000 14.000000 -3.838127E+00
-24.000000 12.000000 3.179111E-01
-24.000000 10.000000 1.435401E+01
-24.000000 8.000000 2.999529E+01
-24.000000 6.000000 3.912079E+01
-24.000000 4.000000 3.828275E+01
-24.000000 2.000000 3.137400E+01
-24.000000 0.000000 2.669033E+01
-24.000000 -2.000000 2.541642E+01
-24.000000 -4.000000 2.335921E+01
-24.000000 -6.000000 2.165607E+01
-24.000000 -8.000000 2.253300E+01
-24.000000 -10.000000 2.291021E+01
-24.000000 -12.000000 2.052902E+01
-24.000000 -14.000000 1.552205E+01
-24.000000 -16.000000 9.589553E+00
-24.000000 -18.000000 8.367872E+00
-24.000000 -20.000000 1.122010E+01
-24.000000 -22.000000 1.286636E+01
-24.000000 -24.000000 1.050750E+01
-24.000000 -26.000000 9.463081E+00
-24.000000 -28.000000 1.045414E+01
-24.000000 -30.000000 1.118292E+01
-24.000000 -32.000000 1.135125E+01
-24.000000 -34.000000 1.056725E+01
-24.000000 -36.000000 9.485687E+00
-24.000000 -38.000000 1.180580E+01
-24.000000 -40.000000 1.141994E+01
-22.000000 40.000000 7.295136E+01
-22.000000 38.000000 6.597639E+01
-22.000000 36.000000 5.664320E+01
-22.000000 34.000000 3.794001E+01
-22.000000 32.000000 2.381394E+01
-22.000000 30.000000 2.176013E+01
-22.000000 28.000000 2.595010E+01
-22.000000 26.000000 2.992532E+01
-22.000000 24.000000 2.718630E+01
-22.000000 22.000000 1.489070E+01
-22.000000 20.000000 1.868477E+00
-22.000000 18.000000 -3.350986E+00
-22.000000 16.000000 -4.381048E+00
-22.000000 14.000000 -2.856400E+00
-22.000000 12.000000 4.219603E+00
-22.000000 10.000000 1.841854E+01
-22.000000 8.000000 3.516113E+01
-22.000000 6.000000 4.780255E+01
-22.000000 4.000000 4.876424E+01
-22.000000 2.000000 3.866692E+01
-22.000000 0.000000 2.927331E+01
-22.000000 -2.000000 2.381496E+01
-22.000000 -4.000000 2.141738E+01
-22.000000 -6.000000 2.339600E+01
-22.000000 -8.000000 2.803847E+01
-22.000000 -10.000000 3.084278E+01
-22.000000 -12.000000 2.763152E+01
-22.000000 -14.000000 2.025057E+01
-22.000000 -16.000000 1.197993E+01
-22.000000 -18.000000 1.123362E+01
-22.000000 -20.000000 1.529166E+01
-22.000000 -22.000000 1.572348E+01
-22.000000 -24.000000 9.307040E+00
-22.000000 -26.000000 4.788235E+00
-22.000000 -28.000000 7.043927E+00
-22.000000 -30.000000 1.124147E+01
-22.000000 -32.000000 1.554309E+01
-22.000000 -34.000000 1.899137E+01
-22.000000 -36.000000 2.032116E+01
-22.000000 -38.000000 2.025688E+01
-22.000000 -40.000000 1.688499E+01
-20.000000 40.000000 6.985588E+01
-20.000000 38.000000 6.204466E+01
-20.000000 36.000000 5.099558E+01
-20.000000 34.000000 3.158923E+01
-20.000000 32.000000 1.569637E+01
-20.000000 30.000000 1.130809E+01
-20.000000 28.000000 1.426354E+01
-20.000000 26.000000 1.910601E+01
-20.000000 24.000000 1.838870E+01
-20.000000 22.000000 8.637199E+00
-20.000000 20.000000 -2.209225E+00
-20.000000 18.000000 -4.334293E+00
-20.000000 16.000000 9.234753E-01
-20.000000 14.000000 7.691153E+00
-20.000000 12.000000 1.468660E+01
-20.000000 10.000000 2.377202E+01
-20.000000 8.000000 3.645182E+01
-20.000000 6.000000 4.749556E+01
-20.000000 4.000000 4.907637E+01
-20.000000 2.000000 3.819363E+01
-20.000000 0.000000 2.629542E+01
-20.000000 -2.000000 1.800343E+01
-20.000000 -4.000000 1.530674E+01
-20.000000 -6.000000 1.949985E+01
-20.000000 -8.000000 2.636237E+01
-20.000000 -10.000000 3.060910E+01
-20.000000 -12.000000 2.836204E+01
-20.000000 -14.000000 2.202727E+01
-20.000000 -16.000000 1.509889E+01
-20.000000 -18.000000 1.675248E+01
-20.000000 -20.000000 2.229477E+01
-20.000000 -22.000000 2.122514E+01
-20.000000 -24.000000 1.087891E+01
-20.000000 -26.000000 3.322214E+00
-20.000000 -28.000000 6.052746E+00
-20.000000 -30.000000 1.209579E+01
-20.000000 -32.000000 1.876824E+01
-20.000000 -34.000000 2.535530E+01
-20.000000 -36.000000 2.893468E+01
-20.000000 -38.000000 2.736390E+01
-20.000000 -40.000000 2.141722E+01
-18.000000 40.000000 6.532189E+01
-18.000000 38.000000 5.737316E+01
-18.000000 36.000000 4.571401E+01
-18.000000 34.000000 2.671336E+01
-18.000000 32.000000 9.745724E+00
-18.000000 30.000000 2.815639E+00
-18.000000 28.000000 3.370293E+00
-18.000000 26.000000 8.589466E+00
-18.000000 24.000000 9.653412E+00
-18.000000 22.000000 3.563763E+00
-18.000000 20.000000 -3.188923E+00
-18.000000 18.000000 4.088211E-01
-18.000000 16.000000 1.362892E+01
-18.000000 14.000000 2.644757E+01
-18.000000 12.000000 3.399187E+01
-18.000000 10.000000 3.848228E+01
-18.000000 8.000000 4.299939E+01
-18.000000 6.000000 4.399582E+01
-18.000000 4.000000 3.875289E+01
-18.000000 2.000000 2.648923E+01
-18.000000 0.000000 1.483665E+01
-18.000000 -2.000000 8.169879E+00
-18.000000 -4.000000 6.746087E+00
-18.000000 -6.000000 1.045092E+01
-18.000000 -8.000000 1.596822E+01
-18.000000 -10.000000 1.995106E+01
-18.000000 -12.000000 2.060839E+01
-18.000000 -14.000000 2.008872E+01
-18.000000 -16.000000 2.035511E+01
-18.000000 -18.000000 2.492147E+01
-18.000000 -20.000000 2.915612E+01
-18.000000 -22.000000 2.592644E+01
-18.000000 -24.000000 1.550595E+01
-18.000000 -26.000000 7.943724E+00
-18.000000 -28.000000 9.327081E+00
-18.000000 -30.000000 1.389015E+01
-18.000000 -32.000000 2.007643E+01
-18.000000 -34.000000 2.743066E+01
-18.000000 -36.000000 3.241167E+01
-18.000000 -38.000000 3.109586E+01
-18.000000 -40.000000 2.474504E+01
-16.000000 40.000000 5.990593E+01
-16.000000 38.000000 5.169211E+01
-16.000000 36.000000 3.996700E+01
-16.000000 34.000000 2.176815E+01
-16.000000 32.000000 5.110340E+00
-16.000000 30.000000 -2.588627E+00
-16.000000 28.000000 -3.856339E+00
-16.000000 26.000000 7.220535E-01
-16.000000 24.000000 2.536072E+00
-16.000000 22.000000 3.297272E-01
-16.000000 20.000000 -1.264786E+00
-16.000000 18.000000 1.001860E+01
-16.000000 16.000000 3.227302E+01
-16.000000 14.000000 5.301604E+01
-16.000000 12.000000 6.301574E+01
-16.000000 10.000000 6.361569E+01
-16.000000 8.000000 5.573464E+01
-16.000000 6.000000 4.058912E+01
-16.000000 4.000000 2.134323E+01
-16.000000 2.000000 4.851425E+00
-16.000000 0.000000 -5.307343E+00
-16.000000 -2.000000 -7.891086E+00
-16.000000 -4.000000 -6.247668E+00
-16.000000 -6.000000 -2.142677E+00
-16.000000 -8.000000 1.558670E+00
-16.000000 -10.000000 4.113290E+00
-16.000000 -12.000000 8.726738E+00
-16.000000 -14.000000 1.608350E+01
-16.000000 -16.000000 2.421977E+01
-16.000000 -18.000000 3.089048E+01
-16.000000 -20.000000 3.276097E+01
-16.000000 -22.000000 2.842871E+01
-16.000000 -24.000000 2.139341E+01
-16.000000 -26.000000 1.672081E+01
-16.000000 -28.000000 1.621620E+01
-16.000000 -30.000000 1.620485E+01
-16.000000 -32.000000 1.853035E+01
-16.000000 -34.000000 2.487543E+01
-16.000000 -36.000000 3.090500E+01
-16.000000 -38.000000 3.112670E+01
-16.000000 -40.000000 2.609170E+01
-14.000000 40.000000 5.446996E+01
-14.000000 38.000000 4.531421E+01
-14.000000 36.000000 3.312027E+01
-14.000000 34.000000 1.647789E+01
-14.000000 32.000000 2.174534E+00
-14.000000 30.000000 -4.094265E+00
-14.000000 28.000000 -5.338943E+00
-14.000000 26.000000 -2.217361E+00
-14.000000 24.000000 -1.887085E+00
-14.000000 22.000000 -1.530403E+00
-14.000000 20.000000 2.794312E+00
-14.000000 18.000000 2.189821E+01
-14.000000 16.000000 5.201349E+01
-14.000000 14.000000 8.046866E+01
-14.000000 12.000000 9.470538E+01
-14.000000 10.000000 9.337782E+01
-14.000000 8.000000 7.248137E+01
-14.000000 6.000000 3.955303E+01
-14.000000 4.000000 3.671598E+00
-14.000000 2.000000 -1.905094E+01
-14.000000 0.000000 -2.814159E+01
-14.000000 -2.000000 -2.570890E+01
-14.000000 -4.000000 -2.032796E+01
-14.000000 -6.000000 -1.483753E+01
-14.000000 -8.000000 -1.184490E+01
-14.000000 -10.000000 -1.017076E+01
-14.000000 -12.000000 -2.451253E+00
-14.000000 -14.000000 1.028281E+01
-14.000000 -16.000000 2.236552E+01
-14.000000 -18.000000 2.988309E+01
-14.000000 -20.000000 3.116065E+01
-14.000000 -22.000000 2.836466E+01
-14.000000 -24.000000 2.637203E+01
-14.000000 -26.000000 2.514154E+01
-14.000000 -28.000000 2.306651E+01
-14.000000 -30.000000 1.779861E+01
-14.000000 -32.000000 1.454424E+01
-14.000000 -34.000000 1.892231E+01
-14.000000 -36.000000 2.584200E+01
-14.000000 -38.000000 2.830787E+01
-14.000000 -40.000000 2.516486E+01
-12.000000 40.000000 4.943961E+01
-12.000000 38.000000 3.916429E+01
-12.000000 36.000000 2.673356E+01
-12.000000 34.000000 1.220223E+01
-12.000000 32.000000 1.382824E+00
-12.000000 30.000000 -2.032070E+00
-12.000000 28.000000 -2.491772E+00
-12.000000 26.000000 -1.514931E-01
-12.000000 24.000000 -1.932884E+00
-12.000000 22.000000 -2.329548E+00
-12.000000 20.000000 4.781742E+00
-12.000000 18.000000 2.905343E+01
-12.000000 16.000000 6.565723E+01
-12.000000 14.000000 1.009568E+02
-12.000000 12.000000 1.194515E+02
-12.000000 10.000000 1.186049E+02
-12.000000 8.000000 8.942730E+01
-12.000000 6.000000 4.345565E+01
-12.000000 4.000000 -5.101482E+00
-12.000000 2.000000 -3.343181E+01
-12.000000 0.000000 -4.295798E+01
-12.000000 -2.000000 -3.788918E+01
-12.000000 -4.000000 -3.138985E+01
-12.000000 -6.000000 -2.580539E+01
-12.000000 -8.000000 -2.218826E+01
-12.000000 -10.000000 -1.919105E+01
-12.000000 -12.000000 -9.477530E+00
-12.000000 -14.000000 3.946287E+00
-12.000000 -16.000000 1.454111E+01
-12.000000 -18.000000 2.030670E+01
-12.000000 -20.000000 2.272941E+01
-12.000000 -22.000000 2.462611E+01
-12.000000 -24.000000 2.816235E+01
-12.000000 -26.000000 2.954200E+01
-12.000000 -28.000000 2.568808E+01
-12.000000 -30.000000 1.689452E+01
-12.000000 -32.000000 9.494583E+00
-12.000000 -34.000000 1.148561E+01
-12.000000 -36.000000 1.859240E+01
-12.000000 -38.000000 2.359126E+01
-12.000000 -40.000000 2.278321E+01
-10.000000 40.000000 4.464123E+01
-10.000000 38.000000 3.460920E+01
-10.000000 36.000000 2.326703E+01
-10.000000 34.000000 1.106175E+01
-10.000000 32.000000 2.973415E+00
-10.000000 30.000000 1.898163E+00
-10.000000 28.000000 2.574875E+00
-10.000000 26.000000 5.010204E+00
-10.000000 24.000000 1.939003E+00
-10.000000 22.000000 -2.149944E+00
-10.000000 20.000000 2.257175E+00
-10.000000 18.000000 2.678805E+01
-10.000000 16.000000 6.761403E+01
-10.000000 14.000000 1.082177E+02
-10.000000 12.000000 1.306776E+02
-10.000000 10.000000 1.321666E+02
-10.000000 8.000000 1.014139E+02
-10.000000 6.000000 5.204426E+01
-10.000000 4.000000 7.874794E-01
-10.000000 2.000000 -2.931087E+01
-10.000000 0.000000 -4.005544E+01
-10.000000 -2.000000 -3.759262E+01
-10.000000 -4.000000 -3.553518E+01
-10.000000 -6.000000 -3.332811E+01
-10.000000 -8.000000 -2.895684E+01
-10.000000 -10.000000 -2.407193E+01
-10.000000 -12.000000 -1.340043E+01
-10.000000 -14.000000 -1.833515E+00
-10.000000 -16.000000 4.276304E+00
-10.000000 -18.000000 5.529934E+00
-10.000000 -20.000000 8.284458E+00
-10.000000 -22.000000 1.536533E+01
-10.000000 -24.000000 2.379763E+01
-10.000000 -26.000000 2.773790E+01
-10.000000 -28.000000 2.322352E+01
-10.000000 -30.000000 1.282926E+01
-10.000000 -32.000000 3.212571E+00
-10.000000 -34.000000 3.677530E+00
-10.000000 -36.000000 1.119646E+01
-10.000000 -38.000000 1.875146E+01
-10.000000 -40.000000 2.005380E+01
-8.000000 40.000000 4.006878E+01
-8.000000 38.000000 3.246672E+01
-8.000000 36.000000 2.386094E+01
-8.000000 34.000000 1.368841E+01
-8.000000 32.000000 6.294132E+00
-8.000000 30.000000 5.742048E+00
-8.000000 28.000000 8.172649E+00
-8.000000 26.000000 1.133844E+01
-8.000000 24.000000 7.416254E+00
-8.000000 22.000000 -1.538055E+00
-8.000000 20.000000 -2.789825E+00
-8.000000 18.000000 1.807051E+01
-8.000000 16.000000 5.897629E+01
-8.000000 14.000000 1.016673E+02
-8.000000 12.000000 1.274915E+02
-8.000000 10.000000 1.305007E+02
-8.000000 8.000000 1.014623E+02
-8.000000 6.000000 5.716213E+01
-8.000000 4.000000 1.611328E+01
-8.000000 2.000000 -6.935692E+00
-8.000000 0.000000 -1.693536E+01
-8.000000 -2.000000 -2.064485E+01
-8.000000 -4.000000 -2.666169E+01
-8.000000 -6.000000 -3.105447E+01
-8.000000 -8.000000 -2.936582E+01
-8.000000 -10.000000 -2.564761E+01
-8.000000 -12.000000 -1.713469E+01
-8.000000 -14.000000 -9.882820E+00
-8.000000 -16.000000 -9.025747E+00
-8.000000 -18.000000 -1.180250E+01
-8.000000 -20.000000 -8.840051E+00
-8.000000 -22.000000 2.040098E+00
-8.000000 -24.000000 1.337522E+01
-8.000000 -26.000000 1.947575E+01
-8.000000 -28.000000 1.620094E+01
-8.000000 -30.000000 6.143253E+00
-8.000000 -32.000000 -3.762065E+00
-8.000000 -34.000000 -3.139997E+00
-8.000000 -36.000000 5.520439E+00
-8.000000 -38.000000 1.530047E+01
-8.000000 -40.000000 1.813660E+01
-6.000000 40.000000 3.663461E+01
-6.000000 38.000000 3.214465E+01
-6.000000 36.000000 2.694923E+01
-6.000000 34.000000 1.819736E+01
-6.000000 32.000000 1.010999E+01
-6.000000 30.000000 8.877895E+00
-6.000000 28.000000 1.253765E+01
-6.000000 26.000000 1.697815E+01
-6.000000 24.000000 1.218611E+01
-6.000000 22.000000 -2.424730E+00
-6.000000 20.000000 -1.043063E+01
-6.000000 18.000000 5.362045E+00
-6.000000 16.000000 4.539558E+01
-6.000000 14.000000 8.946836E+01
-6.000000 12.000000 1.179141E+02
-6.000000 10.000000 1.218319E+02
-6.000000 8.000000 9.516596E+01
-6.000000 6.000000 5.704286E+01
-6.000000 4.000000 3.022427E+01
-6.000000 2.000000 1.955325E+01
-6.000000 0.000000 1.387879E+01
-6.000000 -2.000000 5.539745E+00
-6.000000 -4.000000 -7.711403E+00
-6.000000 -6.000000 -1.920055E+01
-6.000000 -8.000000 -2.341797E+01
-6.000000 -10.000000 -2.454110E+01
-6.000000 -12.000000 -2.212319E+01
-6.000000 -14.000000 -2.129669E+01
-6.000000 -16.000000 -2.347427E+01
-6.000000 -18.000000 -2.579321E+01
-6.000000 -20.000000 -2.167901E+01
-6.000000 -22.000000 -1.102806E+01
-6.000000 -24.000000 -6.042814E-01
-6.000000 -26.000000 5.597905E+00
-6.000000 -28.000000 4.428508E+00
-6.000000 -30.000000 -2.364681E+00
-6.000000 -32.000000 -9.204144E+00
-6.000000 -34.000000 -7.171842E+00
-6.000000 -36.000000 2.169903E+00
-6.000000 -38.000000 1.329522E+01
-6.000000 -40.000000 1.818037E+01
-4.000000 40.000000 3.514977E+01
-4.000000 38.000000 3.288700E+01
-4.000000 36.000000 2.977309E+01
-4.000000 34.000000 2.197286E+01
-4.000000 32.000000 1.340695E+01
-4.000000 30.000000 1.146588E+01
-4.000000 28.000000 1.521460E+01
-4.000000 26.000000 1.964022E+01
-4.000000 24.000000 1.352554E+01
-4.000000 22.000000 -5.615519E+00
-4.000000 20.000000 -1.962181E+01
-4.000000 18.000000 -8.571808E+00
-4.000000 16.000000 3.151344E+01
-4.000000 14.000000 7.888574E+01
-4.000000 12.000000 1.117133E+02
-4.000000 10.000000 1.187918E+02
-4.000000 8.000000 9.465764E+01
-4.000000 6.000000 5.888287E+01
-4.000000 4.000000 3.651922E+01
-4.000000 2.000000 3.267004E+01
-4.000000 0.000000 3.326422E+01
-4.000000 -2.000000 2.615724E+01
-4.000000 -4.000000 9.393997E+00
-4.000000 -6.000000 -6.070239E+00
-4.000000 -8.000000 -1.417474E+01
-4.000000 -10.000000 -2.114095E+01
-4.000000 -12.000000 -2.600912E+01
-4.000000 -14.000000 -3.030734E+01
-4.000000 -16.000000 -3.231985E+01
-4.000000 -18.000000 -3.134584E+01
-4.000000 -20.000000 -2.593169E+01
-4.000000 -22.000000 -1.953087E+01
-4.000000 -24.000000 -1.448187E+01
-4.000000 -26.000000 -1.022674E+01
-4.000000 -28.000000 -9.006441E+00
-4.000000 -30.000000 -1.082667E+01
-4.000000 -32.000000 -1.253202E+01
-4.000000 -34.000000 -8.426090E+00
-4.000000 -36.000000 1.288648E+00
-4.000000 -38.000000 1.352155E+01
-4.000000 -40.000000 2.113431E+01
-2.000000 40.000000 3.515615E+01
-2.000000 38.000000 3.418343E+01
-2.000000 36.000000 3.119833E+01
-2.000000 34.000000 2.346050E+01
-2.000000 32.000000 1.517181E+01
-2.000000 30.000000 1.318588E+01
-2.000000 28.000000 1.634048E+01
-2.000000 26.000000 1.965771E+01
-2.000000 24.000000 1.249098E+01
-2.000000 22.000000 -8.073092E+00
-2.000000 20.000000 -2.540470E+01
-2.000000 18.000000 -1.845784E+01
-2.000000 16.000000 1.930650E+01
-2.000000 14.000000 6.891699E+01
-2.000000 12.000000 1.094085E+02
-2.000000 10.000000 1.251236E+02
-2.000000 8.000000 1.033044E+02
-2.000000 6.000000 6.417827E+01
-2.000000 4.000000 3.554891E+01
-2.000000 2.000000 2.987157E+01
-2.000000 0.000000 3.293335E+01
-2.000000 -2.000000 2.998790E+01
-2.000000 -4.000000 1.620452E+01
-2.000000 -6.000000 3.067290E+00
-2.000000 -8.000000 -3.925309E+00
-2.000000 -10.000000 -1.183884E+01
-2.000000 -12.000000 -2.204109E+01
-2.000000 -14.000000 -3.080493E+01
-2.000000 -16.000000 -3.356231E+01
-2.000000 -18.000000 -3.039163E+01
-2.000000 -20.000000 -2.398133E+01
-2.000000 -22.000000 -2.229838E+01
-2.000000 -24.000000 -2.422125E+01
-2.000000 -26.000000 -2.277231E+01
-2.000000 -28.000000 -1.951794E+01
-2.000000 -30.000000 -1.698271E+01
-2.000000 -32.000000 -1.393278E+01
-2.000000 -34.000000 -7.154659E+00
-2.000000 -36.000000 3.891724E+00
-2.000000 -38.000000 1.742716E+01
-2.000000 -40.000000 2.700814E+01
0.000000 40.000000 3.553430E+01
0.000000 38.000000 3.500077E+01
0.000000 36.000000 3.158650E+01
0.000000 34.000000 2.283355E+01
0.000000 32.000000 1.464091E+01
0.000000 30.000000 1.296541E+01
0.000000 28.000000 1.530491E+01
0.000000 26.000000 1.868982E+01
0.000000 24.000000 1.285026E+01
0.000000 22.000000 -6.638493E+00
0.000000 20.000000 -2.543780E+01
0.000000 18.000000 -2.159058E+01
0.000000 16.000000 1.283355E+01
0.000000 14.000000 6.331539E+01
0.000000 12.000000 1.113311E+02
0.000000 10.000000 1.378291E+02
0.000000 8.000000 1.172236E+02
0.000000 6.000000 7.069951E+01
0.000000 4.000000 3.157608E+01
0.000000 2.000000 1.875029E+01
0.000000 0.000000 1.851163E+01
0.000000 -2.000000 1.676010E+01
0.000000 -4.000000 7.196332E+00
0.000000 -6.000000 6.126146E-01
0.000000 -8.000000 1.472242E+00
0.000000 -10.000000 4.593000E-01
0.000000 -12.000000 -1.012695E+01
0.000000 -14.000000 -2.208705E+01
0.000000 -16.000000 -2.801474E+01
0.000000 -18.000000 -2.484400E+01
0.000000 -20.000000 -1.861491E+01
0.000000 -22.000000 -2.024262E+01
0.000000 -24.000000 -2.679593E+01
0.000000 -26.000000 -2.800842E+01
0.000000 -28.000000 -2.406930E+01
0.000000 -30.000000 -1.923413E+01
0.000000 -32.000000 -1.310074E+01
0.000000 -34.000000 -2.964790E+00
0.000000 -36.000000 1.072069E+01
0.000000 -38.000000 2.512920E+01
0.000000 -40.000000 3.516649E+01
2.000000 40.000000 3.612601E+01
2.000000 38.000000 3.465792E+01
2.000000 36.000000 3.044331E+01
2.000000 34.000000 2.098212E+01
2.000000 32.000000 1.276050E+01
2.000000 30.000000 1.135099E+01
2.000000 28.000000 1.342861E+01
2.000000 26.000000 1.728633E+01
2.000000 24.000000 1.441031E+01
2.000000 22.000000 -1.311419E+00
2.000000 20.000000 -1.844639E+01
2.000000 18.000000 -1.608090E+01
2.000000 16.000000 1.515992E+01
2.000000 14.000000 6.534031E+01
2.000000 12.000000 1.176743E+02
2.000000 10.000000 1.506895E+02
2.000000 8.000000 1.303438E+02
2.000000 6.000000 7.865310E+01
2.000000 4.000000 3.041156E+01
2.000000 2.000000 8.019851E+00
2.000000 0.000000 4.894848E-01
2.000000 -2.000000 -5.795970E+00
2.000000 -4.000000 -1.683725E+01
2.000000 -6.000000 -1.655028E+01
2.000000 -8.000000 -1.630313E+00
2.000000 -10.000000 8.528628E+00
2.000000 -12.000000 1.831111E+00
2.000000 -14.000000 -1.066975E+01
2.000000 -16.000000 -1.943121E+01
2.000000 -18.000000 -1.622842E+01
2.000000 -20.000000 -9.569614E+00
2.000000 -22.000000 -1.331503E+01
2.000000 -24.000000 -2.279612E+01
2.000000 -26.000000 -2.563521E+01
2.000000 -28.000000 -2.157781E+01
2.000000 -30.000000 -1.657581E+01
2.000000 -32.000000 -9.137590E+00
2.000000 -34.000000 4.111382E+00
2.000000 -36.000000 2.075423E+01
2.000000 -38.000000 3.584619E+01
2.000000 -40.000000 4.536919E+01
4.000000 40.000000 3.717280E+01
4.000000 38.000000 3.409872E+01
4.000000 36.000000 2.863566E+01
4.000000 34.000000 1.924011E+01
4.000000 32.000000 1.149900E+01
4.000000 30.000000 1.069653E+01
4.000000 28.000000 1.352261E+01
4.000000 26.000000 1.742453E+01
4.000000 24.000000 1.653164E+01
4.000000 22.000000 5.847870E+00
4.000000 20.000000 -6.563559E+00
4.000000 18.000000 -4.945291E+00
4.000000 16.000000 2.205613E+01
4.000000 14.000000 6.942605E+01
4.000000 12.000000 1.221492E+02
4.000000 10.000000 1.577480E+02
4.000000 8.000000 1.423291E+02
4.000000 6.000000 9.301587E+01
4.000000 4.000000 3.614918E+01
4.000000 2.000000 -1.189236E+00
4.000000 0.000000 -2.128443E+01
4.000000 -2.000000 -3.275821E+01
4.000000 -4.000000 -4.163634E+01
4.000000 -6.000000 -3.341924E+01
4.000000 -8.000000 -8.672539E+00
4.000000 -10.000000 9.118676E+00
4.000000 -12.000000 6.609605E+00
4.000000 -14.000000 -4.101542E+00
4.000000 -16.000000 -1.257799E+01
4.000000 -18.000000 -7.939954E+00
4.000000 -20.000000 8.659260E-01
4.000000 -22.000000 -2.541735E+00
4.000000 -24.000000 -1.318833E+01
4.000000 -26.000000 -1.740878E+01
4.000000 -28.000000 -1.409954E+01
4.000000 -30.000000 -1.000119E+01
4.000000 -32.000000 -1.831048E+00
4.000000 -34.000000 1.391254E+01
4.000000 -36.000000 3.296416E+01
4.000000 -38.000000 4.847691E+01
4.000000 -40.000000 5.684400E+01
6.000000 40.000000 3.845673E+01
6.000000 38.000000 3.468276E+01
6.000000 36.000000 2.886620E+01
6.000000 34.000000 2.002982E+01
6.000000 32.000000 1.308368E+01
6.000000 30.000000 1.307723E+01
6.000000 28.000000 1.595119E+01
6.000000 26.000000 1.920580E+01
6.000000 24.000000 1.968146E+01
6.000000 22.000000 1.320079E+01
6.000000 20.000000 4.374457E+00
6.000000 18.000000 4.874333E+00
6.000000 16.000000 2.680318E+01
6.000000 14.000000 7.002007E+01
6.000000 12.000000 1.219243E+02
6.000000 10.000000 1.609028E+02
6.000000 8.000000 1.539784E+02
6.000000 6.000000 1.100986E+02
6.000000 4.000000 4.528642E+01
6.000000 2.000000 -9.398062E+00
6.000000 0.000000 -4.464064E+01
6.000000 -2.000000 -5.975575E+01
6.000000 -4.000000 -6.024765E+01
6.000000 -6.000000 -4.212958E+01
6.000000 -8.000000 -1.479976E+01
6.000000 -10.000000 4.164141E+00
6.000000 -12.000000 3.368934E+00
6.000000 -14.000000 -4.688797E+00
6.000000 -16.000000 -8.869158E+00
6.000000 -18.000000 -1.483824E+00
6.000000 -20.000000 9.175558E+00
6.000000 -22.000000 9.516915E+00
6.000000 -24.000000 8.648340E-01
6.000000 -26.000000 -5.529480E+00
6.000000 -28.000000 -5.171497E+00
6.000000 -30.000000 -2.313317E+00
6.000000 -32.000000 7.161228E+00
6.000000 -34.000000 2.579031E+01
6.000000 -36.000000 4.697290E+01
6.000000 -38.000000 6.140782E+01
6.000000 -40.000000 6.793965E+01
8.000000 40.000000 3.948104E+01
8.000000 38.000000 3.698833E+01
8.000000 36.000000 3.280743E+01
8.000000 34.000000 2.589635E+01
8.000000 32.000000 1.990130E+01
8.000000 30.000000 1.942637E+01
8.000000 28.000000 2.035147E+01
8.000000 26.000000 2.177615E+01
8.000000 24.000000 2.227761E+01
8.000000 22.000000 1.738434E+01
8.000000 20.000000 9.426425E+00
8.000000 18.000000 8.268280E+00
8.000000 16.000000 2.621990E+01
8.000000 14.000000 6.626708E+01
8.000000 12.000000 1.185240E+02
8.000000 10.000000 1.624582E+02
8.000000 8.000000 1.643137E+02
8.000000 6.000000 1.256157E+02
8.000000 4.000000 5.484030E+01
8.000000 2.000000 -1.536697E+01
8.000000 0.000000 -6.477060E+01
8.000000 -2.000000 -8.342849E+01
8.000000 -4.000000 -7.623962E+01
8.000000 -6.000000 -4.888354E+01
8.000000 -8.000000 -2.000158E+01
8.000000 -10.000000 -2.089687E+00
8.000000 -12.000000 -3.416142E+00
8.000000 -14.000000 -9.555211E+00
8.000000 -16.000000 -8.902492E+00
8.000000 -18.000000 2.911640E+00
8.000000 -20.000000 1.663244E+01
8.000000 -22.000000 2.107506E+01
8.000000 -24.000000 1.431212E+01
8.000000 -26.000000 5.891992E+00
8.000000 -28.000000 3.325592E+00
8.000000 -30.000000 4.327679E+00
8.000000 -32.000000 1.477611E+01
8.000000 -34.000000 3.699699E+01
8.000000 -36.000000 6.077811E+01
8.000000 -38.000000 7.329935E+01
8.000000 -40.000000 7.767590E+01
10.000000 40.000000 3.997281E+01
10.000000 38.000000 4.078346E+01
10.000000 36.000000 4.019017E+01
10.000000 34.000000 3.602852E+01
10.000000 32.000000 3.112503E+01
10.000000 30.000000 2.943247E+01
10.000000 28.000000 2.669678E+01
10.000000 26.000000 2.508786E+01
10.000000 24.000000 2.328080E+01
10.000000 22.000000 1.631549E+01
10.000000 20.000000 6.949466E+00
10.000000 18.000000 4.460745E+00
10.000000 16.000000 2.116319E+01
10.000000 14.000000 5.960849E+01
10.000000 12.000000 1.132480E+02
10.000000 10.000000 1.635162E+02
10.000000 8.000000 1.738803E+02
10.000000 6.000000 1.409786E+02
10.000000 4.000000 6.647148E+01
10.000000 2.000000 -1.639910E+01
10.000000 0.000000 -7.888104E+01
10.000000 -2.000000 -1.026520E+02
10.000000 -4.000000 -9.260575E+01
10.000000 -6.000000 -5.969366E+01
10.000000 -8.000000 -2.898958E+01
10.000000 -10.000000 -1.104767E+01
10.000000 -12.000000 -1.170247E+01
10.000000 -14.000000 -1.484556E+01
10.000000 -16.000000 -9.907454E+00
10.000000 -18.000000 5.978704E+00
10.000000 -20.000000 2.279784E+01
10.000000 -22.000000 2.969464E+01
10.000000 -24.000000 2.320469E+01
10.000000 -26.000000 1.321752E+01
10.000000 -28.000000 9.086105E+00
10.000000 -30.000000 8.571612E+00
10.000000 -32.000000 1.931459E+01
10.000000 -34.000000 4.424825E+01
10.000000 -36.000000 7.058856E+01
10.000000 -38.000000 8.264955E+01
10.000000 -40.000000 8.614106E+01
12.000000 40.000000 4.025494E+01
12.000000 38.000000 4.478292E+01
12.000000 36.000000 4.827182E+01
12.000000 34.000000 4.620431E+01
12.000000 32.000000 4.233708E+01
12.000000 30.000000 4.057116E+01
12.000000 28.000000 3.399068E+01
12.000000 26.000000 2.865455E+01
12.000000 24.000000 2.385114E+01
12.000000 22.000000 1.317419E+01
12.000000 20.000000 1.105535E+00
12.000000 18.000000 -1.497949E+00
12.000000 16.000000 1.571399E+01
12.000000 14.000000 5.347095E+01
12.000000 12.000000 1.077629E+02
12.000000 10.000000 1.630804E+02
12.000000 8.000000 1.800755E+02
12.000000 6.000000 1.539027E+02
12.000000 4.000000 8.098117E+01
12.000000 2.000000 -8.397427E+00
12.000000 0.000000 -8.213052E+01
12.000000 -2.000000 -1.161006E+02
12.000000 -4.000000 -1.127706E+02
12.000000 -6.000000 -8.023626E+01
12.000000 -8.000000 -4.634001E+01
12.000000 -10.000000 -2.446907E+01
12.000000 -12.000000 -1.979664E+01
12.000000 -14.000000 -1.790450E+01
12.000000 -16.000000 -9.265832E+00
12.000000 -18.000000 9.013372E+00
12.000000 -20.000000 2.676045E+01
12.000000 -22.000000 3.277432E+01
12.000000 -24.000000 2.494915E+01
12.000000 -26.000000 1.437547E+01
12.000000 -28.000000 9.897315E+00
12.000000 -30.000000 9.649502E+00
12.000000 -32.000000 2.061666E+01
12.000000 -34.000000 4.591398E+01
12.000000 -36.000000 7.401313E+01
12.000000 -38.000000 8.818890E+01
12.000000 -40.000000 9.318334E+01
14.000000 40.000000 4.054385E+01
14.000000 38.000000 4.743733E+01
14.000000 36.000000 5.303754E+01
14.000000 34.000000 5.253548E+01
14.000000 32.000000 4.988035E+01
14.000000 30.000000 4.866369E+01
14.000000 28.000000 4.126817E+01
14.000000 26.000000 3.364705E+01
14.000000 24.000000 2.516628E+01
14.000000 22.000000 1.106354E+01
14.000000 20.000000 -2.751301E+00
14.000000 18.000000 -4.659146E+00
14.000000 16.000000 1.328295E+01
14.000000 14.000000 5.036917E+01
14.000000 12.000000 1.028396E+02
14.000000 10.000000 1.571056E+02
14.000000 8.000000 1.772847E+02
14.000000 6.000000 1.598200E+02
14.000000 4.000000 9.679661E+01
14.000000 2.000000 9.875598E+00
14.000000 0.000000 -7.174271E+01
14.000000 -2.000000 -1.216221E+02
14.000000 -4.000000 -1.343699E+02
14.000000 -6.000000 -1.074923E+02
14.000000 -8.000000 -6.928186E+01
14.000000 -10.000000 -4.042667E+01
14.000000 -12.000000 -2.705530E+01
14.000000 -14.000000 -1.968360E+01
14.000000 -16.000000 -8.626394E+00
14.000000 -18.000000 1.093234E+01
14.000000 -20.000000 2.777086E+01
14.000000 -22.000000 2.985761E+01
14.000000 -24.000000 1.872726E+01
14.000000 -26.000000 8.957181E+00
14.000000 -28.000000 6.618238E+00
14.000000 -30.000000 7.642487E+00
14.000000 -32.000000 1.798550E+01
14.000000 -34.000000 4.255266E+01
14.000000 -36.000000 7.278479E+01
14.000000 -38.000000 9.024877E+01
14.000000 -40.000000 9.752499E+01
16.000000 40.000000 3.955741E+01
16.000000 38.000000 4.785534E+01
16.000000 36.000000 5.350966E+01
16.000000 34.000000 5.300740E+01
16.000000 32.000000 5.197773E+01
16.000000 30.000000 5.257453E+01
16.000000 28.000000 4.780839E+01
16.000000 26.000000 4.013099E+01
16.000000 24.000000 2.847490E+01
16.000000 22.000000 1.260118E+01
16.000000 20.000000 -1.103756E+00
16.000000 18.000000 -3.639106E+00
16.000000 16.000000 1.240292E+01
16.000000 14.000000 4.619247E+01
16.000000 12.000000 9.430315E+01
16.000000 10.000000 1.435695E+02
16.000000 8.000000 1.663717E+02
16.000000 6.000000 1.589370E+02
16.000000 4.000000 1.105425E+02
16.000000 2.000000 3.164513E+01
16.000000 0.000000 -5.347844E+01
16.000000 -2.000000 -1.169664E+02
16.000000 -4.000000 -1.446833E+02
16.000000 -6.000000 -1.273030E+02
16.000000 -8.000000 -9.034259E+01
16.000000 -10.000000 -5.725697E+01
16.000000 -12.000000 -3.508224E+01
16.000000 -14.000000 -2.212242E+01
16.000000 -16.000000 -1.009574E+01
16.000000 -18.000000 8.464208E+00
16.000000 -20.000000 2.295750E+01
16.000000 -22.000000 2.125803E+01
16.000000 -24.000000 7.725810E+00
16.000000 -26.000000 -5.429559E-01
16.000000 -28.000000 3.074870E-01
16.000000 -30.000000 3.023016E+00
16.000000 -32.000000 1.289161E+01
16.000000 -34.000000 3.694680E+01
16.000000 -36.000000 6.903208E+01
16.000000 -38.000000 8.900927E+01
16.000000 -40.000000 9.812975E+01
18.000000 40.000000 3.585280E+01
18.000000 38.000000 4.505150E+01
18.000000 36.000000 5.026463E+01
18.000000 34.000000 4.746202E+01
18.000000 32.000000 4.812820E+01
18.000000 30.000000 5.276798E+01
18.000000 28.000000 5.146044E+01
18.000000 26.000000 4.547400E+01
18.000000 24.000000 3.451708E+01
18.000000 22.000000 1.915598E+01
18.000000 20.000000 6.760443E+00
18.000000 18.000000 3.217761E+00
18.000000 16.000000 1.534344E+01
18.000000 14.000000 4.303703E+01
18.000000 12.000000 8.390166E+01
18.000000 10.000000 1.254989E+02
18.000000 8.000000 1.485316E+02
18.000000 6.000000 1.492039E+02
18.000000 4.000000 1.166731E+02
18.000000 2.000000 5.047508E+01
18.000000 0.000000 -3.093235E+01
18.000000 -2.000000 -1.010876E+02
18.000000 -4.000000 -1.400693E+02
18.000000 -6.000000 -1.365706E+02
18.000000 -8.000000 -1.092368E+02
18.000000 -10.000000 -7.876964E+01
18.000000 -12.000000 -5.084247E+01
18.000000 -14.000000 -2.994055E+01
18.000000 -16.000000 -1.338073E+01
18.000000 -18.000000 3.417510E+00
18.000000 -20.000000 1.357981E+01
18.000000 -22.000000 9.641098E+00
18.000000 -24.000000 -2.839841E+00
18.000000 -26.000000 -9.531053E+00
18.000000 -28.000000 -7.102404E+00
18.000000 -30.000000 -2.755486E+00
18.000000 -32.000000 8.357405E+00
18.000000 -34.000000 3.200537E+01
18.000000 -36.000000 6.297541E+01
18.000000 -38.000000 8.378445E+01
18.000000 -40.000000 9.514806E+01
20.000000 40.000000 2.958435E+01
20.000000 38.000000 3.811128E+01
20.000000 36.000000 4.199977E+01
20.000000 34.000000 3.822648E+01
20.000000 32.000000 3.981004E+01
20.000000 30.000000 4.754659E+01
20.000000 28.000000 5.050707E+01
20.000000 26.000000 4.843418E+01
20.000000 24.000000 4.158709E+01
20.000000 22.000000 2.832217E+01
20.000000 20.000000 1.816568E+01
20.000000 18.000000 1.514926E+01
20.000000 16.000000 2.456479E+01
20.000000 14.000000 4.621113E+01
20.000000 12.000000 7.738607E+01
20.000000 10.000000 1.081602E+02
20.000000 8.000000 1.270570E+02
20.000000 6.000000 1.309811E+02
20.000000 4.000000 1.110851E+02
20.000000 2.000000 5.985539E+01
20.000000 0.000000 -1.039164E+01
20.000000 -2.000000 -7.970333E+01
20.000000 -4.000000 -1.274496E+02
20.000000 -6.000000 -1.397445E+02
20.000000 -8.000000 -1.264370E+02
20.000000 -10.000000 -1.046382E+02
20.000000 -12.000000 -7.448016E+01
20.000000 -14.000000 -4.368595E+01
20.000000 -16.000000 -1.854564E+01
20.000000 -18.000000 -9.903755E-01
20.000000 -20.000000 5.555475E+00
20.000000 -22.000000 -1.759691E-01
20.000000 -24.000000 -1.141029E+01
20.000000 -26.000000 -1.574439E+01
20.000000 -28.000000 -1.167545E+01
20.000000 -30.000000 -6.796354E+00
20.000000 -32.000000 5.204438E+00
20.000000 -34.000000 2.768625E+01
20.000000 -36.000000 5.519737E+01
20.000000 -38.000000 7.565725E+01
20.000000 -40.000000 8.926260E+01
22.000000 40.000000 2.090024E+01
22.000000 38.000000 2.818344E+01
22.000000 36.000000 3.014173E+01
22.000000 34.000000 2.662062E+01
22.000000 32.000000 2.802128E+01
22.000000 30.000000 3.711117E+01
22.000000 28.000000 4.518381E+01
22.000000 26.000000 4.872955E+01
22.000000 24.000000 4.649983E+01
22.000000 22.000000 3.466823E+01
22.000000 20.000000 2.649158E+01
22.000000 18.000000 2.646285E+01
22.000000 16.000000 3.683974E+01
22.000000 14.000000 5.478313E+01
22.000000 12.000000 7.629669E+01
22.000000 10.000000 9.690518E+01
22.000000 8.000000 1.094589E+02
22.000000 6.000000 1.109015E+02
22.000000 4.000000 9.512099E+01
22.000000 2.000000 5.369374E+01
22.000000 0.000000 -4.666693E+00
22.000000 -2.000000 -6.571732E+01
22.000000 -4.000000 -1.146573E+02
22.000000 -6.000000 -1.376998E+02
22.000000 -8.000000 -1.366461E+02
22.000000 -10.000000 -1.237938E+02
22.000000 -12.000000 -9.323418E+01
22.000000 -14.000000 -5.541670E+01
22.000000 -16.000000 -2.384222E+01
22.000000 -18.000000 -4.825227E+00
22.000000 -20.000000 3.652983E-01
22.000000 -22.000000 -6.479257E+00
22.000000 -24.000000 -1.713022E+01
22.000000 -26.000000 -1.903123E+01
22.000000 -28.000000 -1.261753E+01
22.000000 -30.000000 -7.427376E+00
22.000000 -32.000000 3.740078E+00
22.000000 -34.000000 2.347912E+01
22.000000 -36.000000 4.708478E+01
22.000000 -38.000000 6.639042E+01
22.000000 -40.000000 8.080106E+01
24.000000 40.000000 1.035060E+01
24.000000 38.000000 1.697827E+01
24.000000 36.000000 1.756484E+01
24.000000 34.000000 1.253330E+01
24.000000 32.000000 1.317401E+01
24.000000 30.000000 2.358750E+01
24.000000 28.000000 3.518356E+01
24.000000 26.000000 4.344768E+01
24.000000 24.000000 4.550134E+01
24.000000 22.000000 3.490398E+01
24.000000 20.000000 2.909888E+01
24.000000 18.000000 3.306436E+01
24.000000 16.000000 4.614151E+01
24.000000 14.000000 6.297849E+01
24.000000 12.000000 7.880652E+01
24.000000 10.000000 9.327461E+01
24.000000 8.000000 9.906592E+01
24.000000 6.000000 9.443747E+01
24.000000 4.000000 7.576046E+01
24.000000 2.000000 3.794268E+01
24.000000 0.000000 -1.201952E+01
24.000000 -2.000000 -6.397985E+01
24.000000 -4.000000 -1.098077E+02
24.000000 -6.000000 -1.371944E+02
24.000000 -8.000000 -1.412025E+02
24.000000 -10.000000 -1.310206E+02
24.000000 -12.000000 -1.000654E+02
24.000000 -14.000000 -6.052245E+01
24.000000 -16.000000 -2.667868E+01
24.000000 -18.000000 -6.755800E+00
24.000000 -20.000000 -1.877581E+00
24.000000 -22.000000 -9.526029E+00
24.000000 -24.000000 -1.901205E+01
24.000000 -26.000000 -1.866059E+01
24.000000 -28.000000 -1.026297E+01
24.000000 -30.000000 -3.989213E+00
24.000000 -32.000000 4.636590E+00
24.000000 -34.000000 1.958397E+01
24.000000 -36.000000 3.920048E+01
24.000000 -38.000000 5.632574E+01
24.000000 -40.000000 7.016257E+01
26.000000 40.000000 -9.614277E-02
26.000000 38.000000 4.962502E+00
26.000000 36.000000 4.307209E+00
26.000000 34.000000 -1.885244E+00
26.000000 32.000000 -2.522757E+00
26.000000 30.000000 7.980968E+00
26.000000 28.000000 2.077997E+01
26.000000 26.000000 3.088157E+01
26.000000 24.000000 3.517496E+01
26.000000 22.000000 2.778807E+01
26.000000 20.000000 2.520893E+01
26.000000 18.000000 3.203679E+01
26.000000 16.000000 4.704200E+01
26.000000 14.000000 6.489458E+01
26.000000 12.000000 8.142922E+01
26.000000 10.000000 9.478000E+01
26.000000 8.000000 9.528279E+01
26.000000 6.000000 8.400208E+01
26.000000 4.000000 5.876513E+01
26.000000 2.000000 2.099140E+01
26.000000 0.000000 -2.348099E+01
26.000000 -2.000000 -6.918010E+01
26.000000 -4.000000 -1.116377E+02
26.000000 -6.000000 -1.393405E+02
26.000000 -8.000000 -1.425730E+02
26.000000 -10.000000 -1.311398E+02
26.000000 -12.000000 -1.002175E+02
26.000000 -14.000000 -6.177885E+01
26.000000 -16.000000 -2.801580E+01
26.000000 -18.000000 -6.681087E+00
26.000000 -20.000000 -4.095573E-01
26.000000 -22.000000 -8.119803E+00
26.000000 -24.000000 -1.688930E+01
26.000000 -26.000000 -1.408744E+01
26.000000 -28.000000 -3.336986E+00
26.000000 -30.000000 2.760873E+00
26.000000 -32.000000 6.959369E+00
26.000000 -34.000000 1.598003E+01
26.000000 -36.000000 3.087251E+01
26.000000 -38.000000 4.550536E+01
26.000000 -40.000000 5.854503E+01
28.000000 40.000000 -9.410305E+00
28.000000 38.000000 -6.519179E+00
28.000000 36.000000 -8.286172E+00
28.000000 34.000000 -1.473311E+01
28.000000 32.000000 -1.717749E+01
28.000000 30.000000 -7.901199E+00
28.000000 28.000000 4.583313E+00
28.000000 26.000000 1.382690E+01
28.000000 24.000000 1.656710E+01
28.000000 22.000000 1.218422E+01
28.000000 20.000000 1.181578E+01
28.000000 18.000000 2.060700E+01
28.000000 16.000000 3.799236E+01
28.000000 14.000000 5.960445E+01
28.000000 12.000000 8.083581E+01
28.000000 10.000000 9.677145E+01
28.000000 8.000000 9.455672E+01
28.000000 6.000000 7.705897E+01
28.000000 4.000000 4.440255E+01
28.000000 2.000000 4.867437E+00
28.000000 0.000000 -3.480060E+01
28.000000 -2.000000 -7.236910E+01
28.000000 -4.000000 -1.082268E+02
28.000000 -6.000000 -1.338631E+02
28.000000 -8.000000 -1.391996E+02
28.000000 -10.000000 -1.304080E+02
28.000000 -12.000000 -1.028159E+02
28.000000 -14.000000 -6.669735E+01
28.000000 -16.000000 -3.215303E+01
28.000000 -18.000000 -7.086157E+00
28.000000 -20.000000 3.742052E+00
28.000000 -22.000000 -7.254372E-01
28.000000 -24.000000 -8.058647E+00
28.000000 -26.000000 -4.835470E+00
28.000000 -28.000000 5.719076E+00
28.000000 -30.000000 9.574387E+00
28.000000 -32.000000 9.230289E+00
28.000000 -34.000000 1.264187E+01
28.000000 -36.000000 2.233516E+01
28.000000 -38.000000 3.449821E+01
28.000000 -40.000000 4.645932E+01
30.000000 40.000000 -1.834332E+01
30.000000 38.000000 -1.616853E+01
30.000000 36.000000 -1.764431E+01
30.000000 34.000000 -2.416639E+01
30.000000 32.000000 -2.841627E+01
30.000000 30.000000 -2.064370E+01
30.000000 28.000000 -1.037929E+01
30.000000 26.000000 -4.112074E+00
30.000000 24.000000 -5.992111E+00
30.000000 22.000000 -1.096238E+01
30.000000 20.000000 -1.181769E+01
30.000000 18.000000 -1.033754E+00
30.000000 16.000000 2.115373E+01
30.000000 14.000000 4.923661E+01
30.000000 12.000000 7.699969E+01
30.000000 10.000000 9.742926E+01
30.000000 8.000000 9.362786E+01
30.000000 6.000000 7.053455E+01
30.000000 4.000000 3.223235E+01
30.000000 2.000000 -7.889227E+00
30.000000 0.000000 -4.184463E+01
30.000000 -2.000000 -7.000075E+01
30.000000 -4.000000 -9.762137E+01
30.000000 -6.000000 -1.206661E+02
30.000000 -8.000000 -1.309113E+02
30.000000 -10.000000 -1.290865E+02
30.000000 -12.000000 -1.090117E+02
30.000000 -14.000000 -7.772238E+01
30.000000 -16.000000 -4.184555E+01
30.000000 -18.000000 -1.065650E+01
30.000000 -20.000000 7.661770E+00
30.000000 -22.000000 1.029750E+01
30.000000 -24.000000 6.132607E+00
30.000000 -26.000000 6.497053E+00
30.000000 -28.000000 1.210582E+01
30.000000 -30.000000 1.294978E+01
30.000000 -32.000000 1.040157E+01
30.000000 -34.000000 9.845804E+00
30.000000 -36.000000 1.490094E+01
30.000000 -38.000000 2.391791E+01
30.000000 -40.000000 3.380978E+01
32.000000 40.000000 -2.763517E+01
32.000000 38.000000 -2.431610E+01
32.000000 36.000000 -2.365831E+01
32.000000 34.000000 -2.794264E+01
32.000000 32.000000 -3.252536E+01
32.000000 30.000000 -2.759991E+01
32.000000 28.000000 -2.155984E+01
32.000000 26.000000 -1.946404E+01
32.000000 24.000000 -2.766026E+01
32.000000 22.000000 -3.777233E+01
32.000000 20.000000 -4.235998E+01
32.000000 18.000000 -2.969512E+01
32.000000 16.000000 1.184597E-01
32.000000 14.000000 3.750966E+01
32.000000 12.000000 7.299488E+01
32.000000 10.000000 9.716965E+01
32.000000 8.000000 9.045612E+01
32.000000 6.000000 6.143728E+01
32.000000 4.000000 1.924653E+01
32.000000 2.000000 -1.855103E+01
32.000000 0.000000 -4.492491E+01
32.000000 -2.000000 -6.318229E+01
32.000000 -4.000000 -8.303961E+01
32.000000 -6.000000 -1.037911E+02
32.000000 -8.000000 -1.180586E+02
32.000000 -10.000000 -1.244234E+02
32.000000 -12.000000 -1.140387E+02
32.000000 -14.000000 -8.977582E+01
32.000000 -16.000000 -5.454238E+01
32.000000 -18.000000 -1.740565E+01
32.000000 -20.000000 9.423868E+00
32.000000 -22.000000 1.932270E+01
32.000000 -24.000000 1.649594E+01
32.000000 -26.000000 1.267537E+01
32.000000 -28.000000 1.292613E+01
32.000000 -30.000000 1.102069E+01
32.000000 -32.000000 8.165583E+00
32.000000 -34.000000 6.082413E+00
32.000000 -36.000000 8.195694E+00
32.000000 -38.000000 1.425230E+01
32.000000 -40.000000 2.219661E+01
34.000000 40.000000 -3.722550E+01
34.000000 38.000000 -3.142463E+01
34.000000 36.000000 -2.682574E+01
34.000000 34.000000 -2.694409E+01
34.000000 32.000000 -3.076961E+01
34.000000 30.000000 -2.873323E+01
34.000000 28.000000 -2.680527E+01
34.000000 26.000000 -2.840704E+01
34.000000 24.000000 -4.294328E+01
34.000000 22.000000 -6.141151E+01
34.000000 20.000000 -7.226510E+01
34.000000 18.000000 -5.819832E+01
34.000000 16.000000 -2.043044E+01
34.000000 14.000000 2.647208E+01
34.000000 12.000000 6.976573E+01
34.000000 10.000000 9.665834E+01
34.000000 8.000000 8.432794E+01
34.000000 6.000000 4.691070E+01
34.000000 4.000000 4.199238E-01
34.000000 2.000000 -3.216113E+01
34.000000 0.000000 -4.771560E+01
34.000000 -2.000000 -5.371949E+01
34.000000 -4.000000 -6.505554E+01
34.000000 -6.000000 -8.327558E+01
34.000000 -8.000000 -1.006428E+02
34.000000 -10.000000 -1.142679E+02
34.000000 -12.000000 -1.130659E+02
34.000000 -14.000000 -9.661921E+01
34.000000 -16.000000 -6.500031E+01
34.000000 -18.000000 -2.572765E+01
34.000000 -20.000000 6.550846E+00
34.000000 -22.000000 2.094541E+01
34.000000 -24.000000 1.688830E+01
34.000000 -26.000000 8.383839E+00
34.000000 -28.000000 4.966484E+00
34.000000 -30.000000 1.748661E+00
34.000000 -32.000000 4.024620E-01
34.000000 -34.000000 -5.074272E-01
34.000000 -36.000000 1.366768E+00
34.000000 -38.000000 6.346825E+00
34.000000 -40.000000 1.359922E+01
36.000000 40.000000 -4.593028E+01
36.000000 38.000000 -3.772406E+01
36.000000 36.000000 -2.898623E+01
36.000000 34.000000 -2.534020E+01
36.000000 32.000000 -2.799797E+01
36.000000 30.000000 -2.616695E+01
36.000000 28.000000 -2.596315E+01
36.000000 26.000000 -2.938470E+01
36.000000 24.000000 -4.765059E+01
36.000000 22.000000 -7.375498E+01
36.000000 20.000000 -9.159895E+01
36.000000 18.000000 -7.763108E+01
36.000000 16.000000 -3.517026E+01
36.000000 14.000000 1.680080E+01
36.000000 12.000000 6.254052E+01
36.000000 10.000000 8.855774E+01
36.000000 8.000000 7.117129E+01
36.000000 6.000000 2.878021E+01
36.000000 4.000000 -1.777063E+01
36.000000 2.000000 -4.281212E+01
36.000000 0.000000 -4.729491E+01
36.000000 -2.000000 -4.251197E+01
36.000000 -4.000000 -4.674152E+01
36.000000 -6.000000 -6.263082E+01
36.000000 -8.000000 -8.111838E+01
36.000000 -10.000000 -9.865484E+01
36.000000 -12.000000 -1.043802E+02
36.000000 -14.000000 -9.612160E+01
36.000000 -16.000000 -7.092491E+01
36.000000 -18.000000 -3.456596E+01
36.000000 -20.000000 -1.891500E+00
36.000000 -22.000000 1.281940E+01
36.000000 -24.000000 6.052155E+00
36.000000 -26.000000 -6.831185E+00
36.000000 -28.000000 -1.240838E+01
36.000000 -30.000000 -1.450990E+01
36.000000 -32.000000 -1.217740E+01
36.000000 -34.000000 -9.465281E+00
36.000000 -36.000000 -5.198304E+00
36.000000 -38.000000 5.044308E-01
36.000000 -40.000000 8.114107E+00
38.000000 40.000000 -5.185984E+01
38.000000 38.000000 -4.317003E+01
38.000000 36.000000 -3.367185E+01
38.000000 34.000000 -2.743795E+01
38.000000 32.000000 -2.678806E+01
38.000000 30.000000 -2.211435E+01
38.000000 28.000000 -2.006095E+01
38.000000 26.000000 -2.308470E+01
38.000000 24.000000 -4.197575E+01
38.000000 22.000000 -7.159918E+01
38.000000 20.000000 -9.277953E+01
38.000000 18.000000 -8.230765E+01
38.000000 16.000000 -4.277406E+01
38.000000 14.000000 6.097696E+00
38.000000 12.000000 4.654935E+01
38.000000 10.000000 6.626677E+01
38.000000 8.000000 4.727037E+01
38.000000 6.000000 7.514795E+00
38.000000 4.000000 -3.242398E+01
38.000000 2.000000 -4.828519E+01
38.000000 0.000000 -4.282936E+01
38.000000 -2.000000 -2.953802E+01
38.000000 -4.000000 -2.759172E+01
38.000000 -6.000000 -4.057917E+01
38.000000 -8.000000 -5.815439E+01
38.000000 -10.000000 -7.661881E+01
38.000000 -12.000000 -8.822994E+01
38.000000 -14.000000 -8.916225E+01
38.000000 -16.000000 -7.314358E+01
38.000000 -18.000000 -4.337718E+01
38.000000 -20.000000 -1.378883E+01
38.000000 -22.000000 -1.595835E+00
38.000000 -24.000000 -1.236826E+01
38.000000 -26.000000 -2.835264E+01
38.000000 -28.000000 -3.382132E+01
38.000000 -30.000000 -3.333104E+01
38.000000 -32.000000 -2.647352E+01
38.000000 -34.000000 -1.936927E+01
38.000000 -36.000000 -1.181835E+01
38.000000 -38.000000 -4.565792E+00
38.000000 -40.000000 4.427263E+00
40.000000 40.000000 -5.453673E+01
40.000000 38.000000 -4.719155E+01
40.000000 36.000000 -4.007662E+01
40.000000 34.000000 -3.331796E+01
40.000000 32.000000 -2.854470E+01
40.000000 30.000000 -1.876344E+01
40.000000 28.000000 -1.162363E+01
40.000000 26.000000 -1.192851E+01
40.000000 24.000000 -2.921465E+01
40.000000 22.000000 -5.867908E+01
40.000000 20.000000 -7.917511E+01
40.000000 18.000000 -7.432984E+01
40.000000 16.000000 -4.494484E+01
40.000000 14.000000 -7.592974E+00
40.000000 12.000000 2.332805E+01
40.000000 10.000000 3.646168E+01
40.000000 8.000000 1.758319E+01
40.000000 6.000000 -1.862856E+01
40.000000 4.000000 -4.943707E+01
40.000000 2.000000 -5.475133E+01
40.000000 0.000000 -3.928107E+01
40.000000 -2.000000 -1.685888E+01
40.000000 -4.000000 -6.028913E+00
40.000000 -6.000000 -1.304163E+01
40.000000 -8.000000 -2.943413E+01
40.000000 -10.000000 -4.798112E+01
40.000000 -12.000000 -6.604288E+01
40.000000 -14.000000 -7.634611E+01
40.000000 -16.000000 -7.120328E+01
40.000000 -18.000000 -5.040014E+01
40.000000 -20.000000 -2.658035E+01
40.000000 -22.000000 -1.809250E+01
40.000000 -24.000000 -3.093515E+01
40.000000 -26.000000 -4.690759E+01
40.000000 -28.000000 -5.091080E+01
40.000000 -30.000000 -4.857873E+01
40.000000 -32.000000 -3.942900E+01
40.000000 -34.000000 -2.968654E+01
40.000000 -36.000000 -1.930780E+01
40.000000 -38.000000 -9.901936E+00
40.000000 -40.000000 1.210695E+00
