-12.000000 32.000000 1.563167E+01
-12.000000 30.000000 6.077515E+00
-12.000000 28.000000 -7.948215E+00
-12.000000 26.000000 -2.347282E+01
-12.000000 24.000000 -2.583126E+01
-12.000000 22.000000 -2.071054E+01
-12.000000 20.000000 -2.638621E+01
-12.000000 18.000000 -4.101687E+01
-12.000000 16.000000 -2.765549E+01
-12.000000 14.000000 1.023254E+01
-12.000000 12.000000 4.565656E+01
-12.000000 10.000000 5.895582E+01
-12.000000 8.000000 4.062611E+01
-12.000000 6.000000 1.352741E+01
-12.000000 4.000000 -1.477649E+01
-12.000000 2.000000 -4.393807E+01
-12.000000 0.000000 -6.750478E+01
-12.000000 -2.000000 -6.696657E+01
-12.000000 -4.000000 -4.324422E+01
-12.000000 -6.000000 -1.579034E+01
-12.000000 -8.000000 -9.349172E+00
-12.000000 -10.000000 -2.419084E+01
-12.000000 -12.000000 -4.011441E+01
-12.000000 -14.000000 -4.240502E+01
-12.000000 -16.000000 -3.540788E+01
-12.000000 -18.000000 -3.361581E+01
-12.000000 -20.000000 -3.431057E+01
-12.000000 -22.000000 -2.550786E+01
-12.000000 -24.000000 -5.847447E+00
-12.000000 -26.000000 1.450227E+01
-12.000000 -28.000000 3.285298E+01
-12.000000 -30.000000 4.883433E+01
-12.000000 -32.000000 5.479627E+01
-12.000000 -34.000000 4.799567E+01
-12.000000 -36.000000 2.619245E+01
-12.000000 -38.000000 4.608655E+00
-12.000000 -40.000000 -8.049043E+00
-10.000000 40.000000 1.242710E+01
-10.000000 38.000000 1.577819E+01
-10.000000 36.000000 1.753829E+01
-10.000000 34.000000 1.399690E+01
-10.000000 32.000000 5.979951E+00
-10.000000 30.000000 -5.408539E+00
-10.000000 28.000000 -1.830275E+01
-10.000000 26.000000 -3.390254E+01
-10.000000 24.000000 -3.887630E+01
-10.000000 22.000000 -3.320337E+01
-10.000000 20.000000 -3.688850E+01
-10.000000 18.000000 -4.458690E+01
-10.000000 16.000000 -2.820162E+01
-10.000000 14.000000 8.120125E+00
-10.000000 12.000000 4.080117E+01
-10.000000 10.000000 5.136461E+01
-10.000000 8.000000 3.349189E+01
-10.000000 6.000000 7.087606E+00
-10.000000 4.000000 -2.260505E+01
-10.000000 2.000000 -5.452612E+01
-10.000000 0.000000 -8.018188E+01
-10.000000 -2.000000 -8.009018E+01
-10.000000 -4.000000 -5.489392E+01
-10.000000 -6.000000 -1.912680E+01
-10.000000 -8.000000 -1.899471E-01
-10.000000 -10.000000 3.322010E-01
-10.000000 -12.000000 -8.645282E+00
-10.000000 -14.000000 -1.492963E+01
-10.000000 -16.000000 -1.506413E+01
-10.000000 -18.000000 -1.557549E+01
-10.000000 -20.000000 -1.821796E+01
-10.000000 -22.000000 -1.510392E+01
-10.000000 -24.000000 -5.325671E+00
-10.000000 -26.000000 6.762496E+00
-10.000000 -28.000000 2.266582E+01
-10.000000 -30.000000 3.960936E+01
-10.000000 -32.000000 4.949718E+01
-10.000000 -34.000000 4.626807E+01
-10.000000 -36.000000 2.660172E+01
-10.000000 -38.000000 4.265458E+00
-10.000000 -40.000000 -1.018232E+01
-8.000000 40.000000 1.849735E+01
-8.000000 38.000000 1.814521E+01
-8.000000 36.000000 1.453227E+01
-8.000000 34.000000 4.193055E+00
-8.000000 32.000000 -6.914918E+00
-8.000000 30.000000 -1.717360E+01
-8.000000 28.000000 -2.835669E+01
-8.000000 26.000000 -4.263656E+01
-8.000000 24.000000 -4.541589E+01
-8.000000 22.000000 -3.573651E+01
-8.000000 20.000000 -3.776700E+01
-8.000000 18.000000 -4.391697E+01
-8.000000 16.000000 -3.022787E+01
-8.000000 14.000000 2.528229E-01
-8.000000 12.000000 2.779266E+01
-8.000000 10.000000 3.491485E+01
-8.000000 8.000000 1.948224E+01
-8.000000 6.000000 -2.968323E+00
-8.000000 4.000000 -2.946102E+01
-8.000000 2.000000 -6.054415E+01
-8.000000 0.000000 -8.437135E+01
-8.000000 -2.000000 -8.214750E+01
-8.000000 -4.000000 -5.410880E+01
-8.000000 -6.000000 -1.164935E+01
-8.000000 -8.000000 1.411090E+01
-8.000000 -10.000000 2.455359E+01
-8.000000 -12.000000 1.804196E+01
-8.000000 -14.000000 8.383739E+00
-8.000000 -16.000000 3.728075E+00
-8.000000 -18.000000 1.426929E+00
-8.000000 -20.000000 -3.373779E+00
-8.000000 -22.000000 -4.302727E+00
-8.000000 -24.000000 -4.060353E+00
-8.000000 -26.000000 -2.801098E+00
-8.000000 -28.000000 5.898584E+00
-8.000000 -30.000000 1.921696E+01
-8.000000 -32.000000 3.077137E+01
-8.000000 -34.000000 3.311378E+01
-8.000000 -36.000000 2.063736E+01
-8.000000 -38.000000 1.958735E+00
-8.000000 -40.000000 -9.950392E+00
-6.000000 40.000000 2.174720E+01
-6.000000 38.000000 1.594955E+01
-6.000000 36.000000 6.464243E+00
-6.000000 34.000000 -7.088646E+00
-6.000000 32.000000 -1.691359E+01
-6.000000 30.000000 -2.360303E+01
-6.000000 28.000000 -3.178079E+01
-6.000000 26.000000 -4.292732E+01
-6.000000 24.000000 -3.800610E+01
-6.000000 22.000000 -2.220822E+01
-6.000000 20.000000 -2.631082E+01
-6.000000 18.000000 -3.970623E+01
-6.000000 16.000000 -3.188054E+01
-6.000000 14.000000 -7.451239E+00
-6.000000 12.000000 1.497091E+01
-6.000000 10.000000 2.005107E+01
-6.000000 8.000000 8.819251E+00
-6.000000 6.000000 -8.462406E+00
-6.000000 4.000000 -3.001526E+01
-6.000000 2.000000 -5.652973E+01
-6.000000 0.000000 -7.577102E+01
-6.000000 -2.000000 -7.049407E+01
-6.000000 -4.000000 -4.162014E+01
-6.000000 -6.000000 -3.349129E+00
-6.000000 -8.000000 1.742968E+01
-6.000000 -10.000000 2.846294E+01
-6.000000 -12.000000 2.223645E+01
-6.000000 -14.000000 1.238283E+01
-6.000000 -16.000000 8.103592E+00
-6.000000 -18.000000 6.903223E+00
-6.000000 -20.000000 4.799291E+00
-6.000000 -22.000000 5.144361E+00
-6.000000 -24.000000 -4.868941E-01
-6.000000 -26.000000 -8.960938E+00
-6.000000 -28.000000 -1.109779E+01
-6.000000 -30.000000 -6.368503E+00
-6.000000 -32.000000 2.565978E+00
-6.000000 -34.000000 1.070603E+01
-6.000000 -36.000000 8.655106E+00
-6.000000 -38.000000 -9.499850E-01
-6.000000 -40.000000 -6.087017E+00
-4.000000 40.000000 1.902631E+01
-4.000000 38.000000 1.030491E+01
-4.000000 36.000000 -1.366268E+00
-4.000000 34.000000 -1.287164E+01
-4.000000 32.000000 -1.814375E+01
-4.000000 30.000000 -2.121469E+01
-4.000000 28.000000 -2.688964E+01
-4.000000 26.000000 -3.389297E+01
-4.000000 24.000000 -2.007928E+01
-4.000000 22.000000 1.600561E-01
-4.000000 20.000000 -5.773496E+00
-4.000000 18.000000 -2.909171E+01
-4.000000 16.000000 -3.154724E+01
-4.000000 14.000000 -1.489831E+01
-4.000000 12.000000 3.475835E+00
-4.000000 10.000000 1.109746E+01
-4.000000 8.000000 8.816236E+00
-4.000000 6.000000 9.116459E-02
-4.000000 4.000000 -1.517803E+01
-4.000000 2.000000 -3.645010E+01
-4.000000 0.000000 -5.195766E+01
-4.000000 -2.000000 -4.865275E+01
-4.000000 -4.000000 -2.778281E+01
-4.000000 -6.000000 -6.295240E+00
-4.000000 -8.000000 1.226149E-01
-4.000000 -10.000000 4.656774E+00
-4.000000 -12.000000 1.871014E+00
-4.000000 -14.000000 -3.821559E+00
-4.000000 -16.000000 -5.057870E+00
-4.000000 -18.000000 -1.975138E+00
-4.000000 -20.000000 1.266194E+00
-4.000000 -22.000000 5.120124E+00
-4.000000 -24.000000 4.667354E-01
-4.000000 -26.000000 -1.277052E+01
-4.000000 -28.000000 -2.512909E+01
-4.000000 -30.000000 -2.913846E+01
-4.000000 -32.000000 -2.359471E+01
-4.000000 -34.000000 -1.103516E+01
-4.000000 -36.000000 -3.768947E+00
-4.000000 -38.000000 -2.670834E+00
-4.000000 -40.000000 -6.109238E-03
-2.000000 40.000000 1.009101E+01
-2.000000 38.000000 3.663765E+00
-2.000000 36.000000 -4.538570E+00
-2.000000 34.000000 -1.003793E+01
-2.000000 32.000000 -1.100637E+01
-2.000000 30.000000 -1.228373E+01
-2.000000 28.000000 -1.609037E+01
-2.000000 26.000000 -2.047339E+01
-2.000000 24.000000 -3.110335E+00
-2.000000 22.000000 1.858080E+01
-2.000000 20.000000 1.631560E+01
-2.000000 18.000000 -1.093026E+01
-2.000000 16.000000 -2.310195E+01
-2.000000 14.000000 -1.490267E+01
-2.000000 12.000000 -1.616001E-02
-2.000000 10.000000 1.093188E+01
-2.000000 8.000000 1.689976E+01
-2.000000 6.000000 1.631528E+01
-2.000000 4.000000 6.183772E+00
-2.000000 2.000000 -1.136064E+01
-2.000000 0.000000 -2.456110E+01
-2.000000 -2.000000 -2.615392E+01
-2.000000 -4.000000 -1.783331E+01
-2.000000 -6.000000 -1.688957E+01
-2.000000 -8.000000 -2.587726E+01
-2.000000 -10.000000 -2.994902E+01
-2.000000 -12.000000 -2.891337E+01
-2.000000 -14.000000 -2.985192E+01
-2.000000 -16.000000 -2.764137E+01
-2.000000 -18.000000 -2.204992E+01
-2.000000 -20.000000 -1.665526E+01
-2.000000 -22.000000 -9.605263E+00
-2.000000 -24.000000 -7.255131E+00
-2.000000 -26.000000 -1.747702E+01
-2.000000 -28.000000 -3.318719E+01
-2.000000 -30.000000 -4.082767E+01
-2.000000 -32.000000 -3.576609E+01
-2.000000 -34.000000 -2.132596E+01
-2.000000 -36.000000 -9.349130E+00
-2.000000 -38.000000 -2.660487E+00
-2.000000 -40.000000 3.924911E+00
0.000000 40.000000 1.060598E+00
0.000000 38.000000 -7.814121E-01
0.000000 36.000000 -4.396639E+00
0.000000 34.000000 -4.758229E+00
0.000000 32.000000 -2.746823E+00
0.000000 30.000000 -3.755737E+00
0.000000 28.000000 -6.839315E+00
0.000000 26.000000 -1.168892E+01
0.000000 24.000000 5.947224E+00
0.000000 22.000000 2.990848E+01
0.000000 20.000000 3.332218E+01
0.000000 18.000000 1.053279E+01
0.000000 16.000000 -3.885848E+00
0.000000 14.000000 -1.735070E+00
0.000000 12.000000 8.534266E+00
0.000000 10.000000 1.832932E+01
0.000000 8.000000 2.583172E+01
0.000000 6.000000 2.767695E+01
0.000000 4.000000 1.802176E+01
0.000000 2.000000 5.511427E-01
0.000000 0.000000 -1.260640E+01
0.000000 -2.000000 -1.785611E+01
0.000000 -4.000000 -1.707829E+01
0.000000 -6.000000 -2.554233E+01
0.000000 -8.000000 -3.938548E+01
0.000000 -10.000000 -4.703491E+01
0.000000 -12.000000 -4.609119E+01
0.000000 -14.000000 -4.722917E+01
0.000000 -16.000000 -4.649356E+01
0.000000 -18.000000 -4.507530E+01
0.000000 -20.000000 -4.303302E+01
0.000000 -22.000000 -3.399290E+01
0.000000 -24.000000 -2.410459E+01
0.000000 -26.000000 -2.450688E+01
0.000000 -28.000000 -3.234645E+01
0.000000 -30.000000 -3.588794E+01
0.000000 -32.000000 -2.979610E+01
0.000000 -34.000000 -1.714429E+01
0.000000 -36.000000 -6.995924E+00
0.000000 -38.000000 -2.079554E+00
0.000000 -40.000000 3.829178E+00
2.000000 40.000000 -2.358263E+00
2.000000 38.000000 -1.897472E+00
2.000000 36.000000 -4.073206E+00
2.000000 34.000000 -2.675918E+00
2.000000 32.000000 1.191416E+00
2.000000 30.000000 4.641747E-01
2.000000 28.000000 -3.381822E+00
2.000000 26.000000 -9.754602E+00
2.000000 24.000000 7.056236E+00
2.000000 22.000000 3.346635E+01
2.000000 20.000000 4.134879E+01
2.000000 18.000000 2.380445E+01
2.000000 16.000000 1.121525E+01
2.000000 14.000000 1.343459E+01
2.000000 12.000000 2.326261E+01
2.000000 10.000000 3.163405E+01
2.000000 8.000000 3.564544E+01
2.000000 6.000000 3.298472E+01
2.000000 4.000000 1.874262E+01
2.000000 2.000000 -1.724936E+00
2.000000 0.000000 -1.745204E+01
2.000000 -2.000000 -2.449554E+01
2.000000 -4.000000 -2.503339E+01
2.000000 -6.000000 -2.992152E+01
2.000000 -8.000000 -3.773429E+01
2.000000 -10.000000 -4.270266E+01
2.000000 -12.000000 -4.441986E+01
2.000000 -14.000000 -4.981767E+01
2.000000 -16.000000 -5.542165E+01
2.000000 -18.000000 -5.939381E+01
2.000000 -20.000000 -6.013088E+01
2.000000 -22.000000 -5.082560E+01
2.000000 -24.000000 -3.828937E+01
2.000000 -26.000000 -2.996178E+01
2.000000 -28.000000 -2.437086E+01
2.000000 -30.000000 -1.902116E+01
2.000000 -32.000000 -1.203959E+01
2.000000 -34.000000 -4.950964E+00
2.000000 -36.000000 -1.843273E+00
2.000000 -38.000000 -1.232737E+00
2.000000 -40.000000 3.483235E+00
4.000000 40.000000 -1.016771E+00
4.000000 38.000000 -1.032965E+00
4.000000 36.000000 -2.716765E+00
4.000000 34.000000 -1.962297E+00
4.000000 32.000000 -3.565674E-01
4.000000 30.000000 -1.521408E+00
4.000000 28.000000 -5.247493E+00
4.000000 26.000000 -1.102350E+01
4.000000 24.000000 4.690499E+00
4.000000 22.000000 3.078200E+01
4.000000 20.000000 4.009309E+01
4.000000 18.000000 2.496283E+01
4.000000 16.000000 1.439750E+01
4.000000 14.000000 2.000615E+01
4.000000 12.000000 3.368153E+01
4.000000 10.000000 4.338541E+01
4.000000 8.000000 4.236209E+01
4.000000 6.000000 3.333258E+01
4.000000 4.000000 1.183833E+01
4.000000 2.000000 -1.432057E+01
4.000000 0.000000 -3.400791E+01
4.000000 -2.000000 -4.048032E+01
4.000000 -4.000000 -3.560051E+01
4.000000 -6.000000 -2.733406E+01
4.000000 -8.000000 -2.507586E+01
4.000000 -10.000000 -2.678884E+01
4.000000 -12.000000 -3.381601E+01
4.000000 -14.000000 -4.424546E+01
4.000000 -16.000000 -5.374086E+01
4.000000 -18.000000 -5.802736E+01
4.000000 -20.000000 -5.769975E+01
4.000000 -22.000000 -4.963159E+01
4.000000 -24.000000 -3.838241E+01
4.000000 -26.000000 -2.669802E+01
4.000000 -28.000000 -1.131604E+01
4.000000 -30.000000 2.347793E+00
4.000000 -32.000000 9.597270E+00
4.000000 -34.000000 9.611299E+00
4.000000 -36.000000 3.685919E+00
4.000000 -38.000000 2.765703E-02
4.000000 -40.000000 4.238808E+00
6.000000 40.000000 3.253317E+00
6.000000 38.000000 2.923204E+00
6.000000 36.000000 2.467111E+00
6.000000 34.000000 8.498573E-01
6.000000 32.000000 -3.673967E+00
6.000000 30.000000 -7.753885E+00
6.000000 28.000000 -1.138035E+01
6.000000 26.000000 -1.471284E+01
6.000000 24.000000 -1.947091E-01
6.000000 22.000000 2.217798E+01
6.000000 20.000000 2.845728E+01
6.000000 18.000000 1.387638E+01
6.000000 16.000000 5.800095E+00
6.000000 14.000000 1.520206E+01
6.000000 12.000000 3.248487E+01
6.000000 10.000000 4.525486E+01
6.000000 8.000000 4.262918E+01
6.000000 6.000000 3.120517E+01
6.000000 4.000000 4.810497E+00
6.000000 2.000000 -2.705085E+01
6.000000 0.000000 -5.108065E+01
6.000000 -2.000000 -5.635168E+01
6.000000 -4.000000 -4.330433E+01
6.000000 -6.000000 -2.008804E+01
6.000000 -8.000000 -9.882852E+00
6.000000 -10.000000 -1.200873E+01
6.000000 -12.000000 -2.461488E+01
6.000000 -14.000000 -3.586977E+01
6.000000 -16.000000 -4.099797E+01
6.000000 -18.000000 -3.942020E+01
6.000000 -20.000000 -3.523763E+01
6.000000 -22.000000 -3.067831E+01
6.000000 -24.000000 -2.404847E+01
6.000000 -26.000000 -1.422245E+01
6.000000 -28.000000 3.767181E+00
6.000000 -30.000000 2.184304E+01
6.000000 -32.000000 2.911040E+01
6.000000 -34.000000 2.292563E+01
6.000000 -36.000000 9.650677E+00
6.000000 -38.000000 1.920332E+00
6.000000 -40.000000 5.256444E+00
8.000000 40.000000 1.072682E+01
8.000000 38.000000 1.157786E+01
8.000000 36.000000 1.204643E+01
8.000000 34.000000 8.333423E+00
8.000000 32.000000 -3.483233E+00
8.000000 30.000000 -1.425159E+01
8.000000 28.000000 -2.095992E+01
8.000000 26.000000 -2.334208E+01
8.000000 24.000000 -9.742807E+00
8.000000 22.000000 7.572984E+00
8.000000 20.000000 8.115321E+00
8.000000 18.000000 -8.115528E+00
8.000000 16.000000 -1.548170E+01
8.000000 14.000000 -4.525982E+00
8.000000 12.000000 1.636783E+01
8.000000 10.000000 3.530443E+01
8.000000 8.000000 3.899865E+01
8.000000 6.000000 3.283390E+01
8.000000 4.000000 7.566137E+00
8.000000 2.000000 -2.606103E+01
8.000000 0.000000 -5.249716E+01
8.000000 -2.000000 -5.755707E+01
8.000000 -4.000000 -4.157314E+01
8.000000 -6.000000 -1.309682E+01
8.000000 -8.000000 -1.338694E+00
8.000000 -10.000000 -6.535230E+00
8.000000 -12.000000 -1.982878E+01
8.000000 -14.000000 -2.664159E+01
8.000000 -16.000000 -2.202819E+01
8.000000 -18.000000 -1.038334E+01
8.000000 -20.000000 -2.319848E+00
8.000000 -22.000000 -3.892615E+00
8.000000 -24.000000 -4.119062E+00
8.000000 -26.000000 8.801661E-01
8.000000 -28.000000 1.677896E+01
8.000000 -30.000000 3.514917E+01
8.000000 -32.000000 4.161920E+01
8.000000 -34.000000 3.097410E+01
8.000000 -36.000000 1.450629E+01
8.000000 -38.000000 4.938583E+00
8.000000 -40.000000 7.679642E+00
10.000000 40.000000 2.028967E+01
10.000000 38.000000 2.527351E+01
10.000000 36.000000 2.759558E+01
10.000000 34.000000 2.362680E+01
10.000000 32.000000 3.254424E+00
10.000000 30.000000 -1.813982E+01
10.000000 28.000000 -3.140447E+01
10.000000 26.000000 -3.664963E+01
10.000000 24.000000 -2.610964E+01
10.000000 22.000000 -1.355580E+01
10.000000 20.000000 -1.835134E+01
10.000000 18.000000 -3.769662E+01
10.000000 16.000000 -4.642672E+01
10.000000 14.000000 -3.592942E+01
10.000000 12.000000 -1.167003E+01
10.000000 10.000000 1.367307E+01
10.000000 8.000000 2.943105E+01
10.000000 6.000000 3.559653E+01
10.000000 4.000000 2.054127E+01
10.000000 2.000000 -7.846015E+00
10.000000 0.000000 -3.161829E+01
10.000000 -2.000000 -3.562596E+01
10.000000 -4.000000 -2.035115E+01
10.000000 -6.000000 4.373299E+00
10.000000 -8.000000 1.160301E+01
10.000000 -10.000000 2.629330E+00
10.000000 -12.000000 -1.143084E+01
10.000000 -14.000000 -1.663976E+01
10.000000 -16.000000 -7.306866E+00
10.000000 -18.000000 9.783008E+00
10.000000 -20.000000 1.906196E+01
10.000000 -22.000000 1.391069E+01
10.000000 -24.000000 8.899765E+00
10.000000 -26.000000 1.042807E+01
10.000000 -28.000000 2.369317E+01
10.000000 -30.000000 3.982422E+01
10.000000 -32.000000 4.530328E+01
10.000000 -34.000000 3.369961E+01
10.000000 -36.000000 1.804191E+01
10.000000 -38.000000 9.203756E+00
10.000000 -40.000000 1.197306E+01
12.000000 40.000000 2.988548E+01
12.000000 38.000000 4.241407E+01
12.000000 36.000000 4.867158E+01
12.000000 34.000000 4.447865E+01
12.000000 32.000000 1.542750E+01
12.000000 30.000000 -1.688402E+01
12.000000 28.000000 -3.882607E+01
12.000000 26.000000 -5.034373E+01
12.000000 24.000000 -4.572409E+01
12.000000 22.000000 -3.497021E+01
12.000000 20.000000 -4.244091E+01
12.000000 18.000000 -6.470515E+01
12.000000 16.000000 -7.548393E+01
12.000000 14.000000 -6.757843E+01
12.000000 12.000000 -4.456401E+01
12.000000 10.000000 -1.655522E+01
12.000000 8.000000 1.355262E+01
12.000000 6.000000 3.675039E+01
12.000000 4.000000 3.951581E+01
12.000000 2.000000 2.341494E+01
12.000000 0.000000 6.574830E+00
12.000000 -2.000000 2.645047E+00
12.000000 -4.000000 1.417592E+01
12.000000 -6.000000 3.079532E+01
12.000000 -8.000000 3.111420E+01
12.000000 -10.000000 1.965944E+01
12.000000 -12.000000 1.282525E+00
12.000000 -14.000000 -7.198774E+00
12.000000 -16.000000 -8.740044E-01
12.000000 -18.000000 1.232699E+01
12.000000 -20.000000 1.929151E+01
12.000000 -22.000000 1.493900E+01
12.000000 -24.000000 8.678401E+00
12.000000 -26.000000 9.277443E+00
12.000000 -28.000000 2.181904E+01
12.000000 -30.000000 3.605265E+01
12.000000 -32.000000 4.211815E+01
12.000000 -34.000000 3.305856E+01
12.000000 -36.000000 2.034340E+01
12.000000 -38.000000 1.286873E+01
12.000000 -40.000000 1.692618E+01
14.000000 40.000000 3.695990E+01
14.000000 38.000000 5.833491E+01
14.000000 36.000000 7.122700E+01
14.000000 34.000000 6.695267E+01
14.000000 32.000000 3.078699E+01
14.000000 30.000000 -1.054976E+01
14.000000 28.000000 -4.156264E+01
14.000000 26.000000 -5.961334E+01
14.000000 24.000000 -6.010641E+01
14.000000 22.000000 -4.818495E+01
14.000000 20.000000 -5.463955E+01
14.000000 18.000000 -7.612489E+01
14.000000 16.000000 -8.696606E+01
14.000000 14.000000 -8.281308E+01
14.000000 12.000000 -6.530603E+01
14.000000 10.000000 -4.053625E+01
14.000000 8.000000 -1.551191E+00
14.000000 6.000000 3.637140E+01
14.000000 4.000000 5.842838E+01
14.000000 2.000000 5.860807E+01
14.000000 0.000000 4.927135E+01
14.000000 -2.000000 4.088121E+01
14.000000 -4.000000 4.307967E+01
14.000000 -6.000000 4.991011E+01
14.000000 -8.000000 4.286780E+01
14.000000 -10.000000 2.753320E+01
14.000000 -12.000000 3.044055E+00
14.000000 -14.000000 -9.053851E+00
14.000000 -16.000000 -4.725393E+00
14.000000 -18.000000 6.530972E+00
14.000000 -20.000000 1.307636E+01
14.000000 -22.000000 8.883338E+00
14.000000 -24.000000 3.127923E-01
14.000000 -26.000000 -9.757721E-01
14.000000 -28.000000 1.124976E+01
14.000000 -30.000000 2.439763E+01
14.000000 -32.000000 3.272987E+01
14.000000 -34.000000 2.835840E+01
14.000000 -36.000000 2.037807E+01
14.000000 -38.000000 1.475230E+01
14.000000 -40.000000 2.175582E+01
16.000000 40.000000 3.977752E+01
16.000000 38.000000 6.894568E+01
16.000000 36.000000 9.006485E+01
16.000000 34.000000 8.747424E+01
16.000000 32.000000 4.574724E+01
16.000000 30.000000 -3.541954E+00
16.000000 28.000000 -4.018148E+01
16.000000 26.000000 -5.981252E+01
16.000000 24.000000 -5.961049E+01
16.000000 22.000000 -4.546411E+01
16.000000 20.000000 -4.764362E+01
16.000000 18.000000 -6.482583E+01
16.000000 16.000000 -7.386125E+01
16.000000 14.000000 -7.211094E+01
16.000000 12.000000 -6.255101E+01
16.000000 10.000000 -4.658734E+01
16.000000 8.000000 -7.124803E+00
16.000000 6.000000 3.940266E+01
16.000000 4.000000 7.616406E+01
16.000000 2.000000 8.737883E+01
16.000000 0.000000 8.138757E+01
16.000000 -2.000000 6.483380E+01
16.000000 -4.000000 5.372137E+01
16.000000 -6.000000 4.881027E+01
16.000000 -8.000000 3.314715E+01
16.000000 -10.000000 1.063223E+01
16.000000 -12.000000 -1.879586E+01
16.000000 -14.000000 -3.046773E+01
16.000000 -16.000000 -1.861039E+01
16.000000 -18.000000 1.714552E+00
16.000000 -20.000000 1.334946E+01
16.000000 -22.000000 9.187619E+00
16.000000 -24.000000 -5.215491E+00
16.000000 -26.000000 -1.250601E+01
16.000000 -28.000000 -4.044210E+00
16.000000 -30.000000 6.337487E+00
16.000000 -32.000000 1.664555E+01
16.000000 -34.000000 1.824972E+01
16.000000 -36.000000 1.743262E+01
16.000000 -38.000000 1.560017E+01
16.000000 -40.000000 2.632511E+01
18.000000 40.000000 3.925502E+01
18.000000 38.000000 7.274596E+01
18.000000 36.000000 9.976550E+01
18.000000 34.000000 1.002838E+02
18.000000 32.000000 5.609570E+01
18.000000 30.000000 2.514575E+00
18.000000 28.000000 -3.349818E+01
18.000000 26.000000 -4.830381E+01
18.000000 24.000000 -4.159437E+01
18.000000 22.000000 -2.414702E+01
18.000000 20.000000 -2.178289E+01
18.000000 18.000000 -3.566076E+01
18.000000 16.000000 -4.476909E+01
18.000000 14.000000 -4.532651E+01
18.000000 12.000000 -4.208308E+01
18.000000 10.000000 -3.139707E+01
18.000000 8.000000 5.241033E+00
18.000000 6.000000 5.322669E+01
18.000000 4.000000 9.565743E+01
18.000000 2.000000 1.087075E+02
18.000000 0.000000 9.826227E+01
18.000000 -2.000000 7.049045E+01
18.000000 -4.000000 4.404805E+01
18.000000 -6.000000 2.326760E+01
18.000000 -8.000000 -4.700679E+00
18.000000 -10.000000 -3.795632E+01
18.000000 -12.000000 -6.674728E+01
18.000000 -14.000000 -6.902876E+01
18.000000 -16.000000 -3.792562E+01
18.000000 -18.000000 2.793404E+00
18.000000 -20.000000 2.585117E+01
18.000000 -22.000000 2.119557E+01
18.000000 -24.000000 -1.704534E+00
18.000000 -26.000000 -1.886144E+01
18.000000 -28.000000 -1.871237E+01
18.000000 -30.000000 -1.314959E+01
18.000000 -32.000000 -2.203841E+00
18.000000 -34.000000 4.317568E+00
18.000000 -36.000000 1.065503E+01
18.000000 -38.000000 1.491236E+01
18.000000 -40.000000 3.083591E+01
20.000000 40.000000 3.457746E+01
20.000000 38.000000 6.926865E+01
20.000000 36.000000 9.997942E+01
20.000000 34.000000 1.051921E+02
20.000000 32.000000 6.358558E+01
20.000000 30.000000 1.207823E+01
20.000000 28.000000 -1.901611E+01
20.000000 26.000000 -2.763184E+01
20.000000 24.000000 -1.450150E+01
20.000000 22.000000 5.120092E+00
20.000000 20.000000 8.981142E+00
20.000000 18.000000 -5.765858E+00
20.000000 16.000000 -1.796921E+01
20.000000 14.000000 -2.124686E+01
20.000000 12.000000 -1.737710E+01
20.000000 10.000000 -1.930241E+00
20.000000 8.000000 3.512853E+01
20.000000 6.000000 8.219763E+01
20.000000 4.000000 1.204088E+02
20.000000 2.000000 1.243009E+02
20.000000 0.000000 9.978663E+01
20.000000 -2.000000 5.739382E+01
20.000000 -4.000000 1.734643E+01
20.000000 -6.000000 -1.680160E+01
20.000000 -8.000000 -5.678951E+01
20.000000 -10.000000 -1.016335E+02
20.000000 -12.000000 -1.247491E+02
20.000000 -14.000000 -1.124255E+02
20.000000 -16.000000 -5.760500E+01
20.000000 -18.000000 5.811852E+00
20.000000 -20.000000 4.152172E+01
20.000000 -22.000000 3.661982E+01
20.000000 -24.000000 8.591641E+00
20.000000 -26.000000 -1.716927E+01
20.000000 -28.000000 -2.611808E+01
20.000000 -30.000000 -2.527881E+01
20.000000 -32.000000 -1.578602E+01
20.000000 -34.000000 -8.113396E+00
20.000000 -36.000000 1.509360E+00
20.000000 -38.000000 1.163335E+01
20.000000 -40.000000 3.358226E+01
22.000000 40.000000 2.432738E+01
22.000000 38.000000 5.980356E+01
22.000000 36.000000 9.535921E+01
22.000000 34.000000 1.077480E+02
22.000000 32.000000 7.295510E+01
22.000000 30.000000 2.752718E+01
22.000000 28.000000 -3.209887E-01
22.000000 26.000000 -7.425017E+00
22.000000 24.000000 8.382464E+00
22.000000 22.000000 2.787104E+01
22.000000 20.000000 2.937861E+01
22.000000 18.000000 1.055241E+01
22.000000 16.000000 -3.965541E+00
22.000000 14.000000 -6.681415E+00
22.000000 12.000000 2.955080E+00
22.000000 10.000000 2.532542E+01
22.000000 8.000000 6.396733E+01
22.000000 6.000000 1.094882E+02
22.000000 4.000000 1.372221E+02
22.000000 2.000000 1.275455E+02
22.000000 0.000000 8.869363E+01
22.000000 -2.000000 3.699525E+01
22.000000 -4.000000 -7.719635E+00
22.000000 -6.000000 -4.708342E+01
22.000000 -8.000000 -9.507840E+01
22.000000 -10.000000 -1.483273E+02
22.000000 -12.000000 -1.675260E+02
22.000000 -14.000000 -1.459417E+02
22.000000 -16.000000 -7.824933E+01
22.000000 -18.000000 -4.272091E+00
22.000000 -20.000000 3.837219E+01
22.000000 -22.000000 3.859172E+01
22.000000 -24.000000 1.710292E+01
22.000000 -26.000000 -7.151140E+00
22.000000 -28.000000 -1.794020E+01
22.000000 -30.000000 -1.856757E+01
22.000000 -32.000000 -1.337722E+01
22.000000 -34.000000 -1.062450E+01
22.000000 -36.000000 -4.845399E+00
22.000000 -38.000000 5.791190E+00
22.000000 -40.000000 2.997980E+01
24.000000 40.000000 1.145641E+01
24.000000 38.000000 4.770033E+01
24.000000 36.000000 8.815611E+01
24.000000 34.000000 1.081638E+02
24.000000 32.000000 8.187023E+01
24.000000 30.000000 4.226979E+01
24.000000 28.000000 1.418885E+01
24.000000 26.000000 4.379761E+00
24.000000 24.000000 2.028047E+01
24.000000 22.000000 3.971416E+01
24.000000 20.000000 3.873917E+01
24.000000 18.000000 1.656608E+01
24.000000 16.000000 1.419221E+00
24.000000 14.000000 1.865706E-01
24.000000 12.000000 1.271190E+01
24.000000 10.000000 3.657637E+01
24.000000 8.000000 7.362055E+01
24.000000 6.000000 1.130846E+02
24.000000 4.000000 1.313769E+02
24.000000 2.000000 1.136509E+02
24.000000 0.000000 7.044863E+01
24.000000 -2.000000 2.214057E+01
24.000000 -4.000000 -1.474756E+01
24.000000 -6.000000 -4.956704E+01
24.000000 -8.000000 -1.008579E+02
24.000000 -10.000000 -1.586394E+02
24.000000 -12.000000 -1.823708E+02
24.000000 -14.000000 -1.631008E+02
24.000000 -16.000000 -1.031876E+02
24.000000 -18.000000 -3.698096E+01
24.000000 -20.000000 8.085329E+00
24.000000 -22.000000 2.293350E+01
24.000000 -24.000000 1.912273E+01
24.000000 -26.000000 8.766248E+00
24.000000 -28.000000 6.401366E+00
24.000000 -30.000000 7.548485E+00
24.000000 -32.000000 5.962676E+00
24.000000 -34.000000 -1.692362E+00
24.000000 -36.000000 -6.069699E+00
24.000000 -38.000000 -5.368891E-01
24.000000 -40.000000 2.070676E+01
26.000000 40.000000 -7.458782E-01
26.000000 38.000000 3.412534E+01
26.000000 36.000000 7.641689E+01
26.000000 34.000000 1.028849E+02
26.000000 32.000000 8.585916E+01
26.000000 30.000000 5.009409E+01
26.000000 28.000000 1.863422E+01
26.000000 26.000000 5.191338E+00
26.000000 24.000000 2.033596E+01
26.000000 22.000000 4.108215E+01
26.000000 20.000000 4.155026E+01
26.000000 18.000000 2.043815E+01
26.000000 16.000000 4.515177E+00
26.000000 14.000000 3.714036E+00
26.000000 12.000000 1.589600E+01
26.000000 10.000000 3.748765E+01
26.000000 8.000000 6.915558E+01
26.000000 6.000000 9.788592E+01
26.000000 4.000000 1.082602E+02
26.000000 2.000000 8.785022E+01
26.000000 0.000000 4.956517E+01
26.000000 -2.000000 1.422917E+01
26.000000 -4.000000 -7.927816E+00
26.000000 -6.000000 -3.351792E+01
26.000000 -8.000000 -8.629659E+01
26.000000 -10.000000 -1.478317E+02
26.000000 -12.000000 -1.805152E+02
26.000000 -14.000000 -1.710119E+02
26.000000 -16.000000 -1.263979E+02
26.000000 -18.000000 -7.205508E+01
26.000000 -20.000000 -2.576516E+01
26.000000 -22.000000 3.634079E+00
26.000000 -24.000000 1.833691E+01
26.000000 -26.000000 2.516169E+01
26.000000 -28.000000 3.334768E+01
26.000000 -30.000000 3.697950E+01
26.000000 -32.000000 2.919937E+01
26.000000 -34.000000 1.150401E+01
26.000000 -36.000000 -3.234864E+00
26.000000 -38.000000 -4.004802E+00
26.000000 -40.000000 1.201727E+01
28.000000 40.000000 -1.156192E+01
28.000000 38.000000 1.929428E+01
28.000000 36.000000 6.068691E+01
28.000000 34.000000 9.169918E+01
28.000000 32.000000 8.216803E+01
28.000000 30.000000 4.871156E+01
28.000000 28.000000 1.320921E+01
28.000000 26.000000 -4.386839E+00
28.000000 24.000000 8.618094E+00
28.000000 22.000000 3.206491E+01
28.000000 20.000000 3.579411E+01
28.000000 18.000000 1.813393E+01
28.000000 16.000000 4.216903E+00
28.000000 14.000000 7.050145E+00
28.000000 12.000000 2.197592E+01
28.000000 10.000000 4.308721E+01
28.000000 8.000000 6.838029E+01
28.000000 6.000000 8.633802E+01
28.000000 4.000000 8.692045E+01
28.000000 2.000000 6.291379E+01
28.000000 0.000000 3.036065E+01
28.000000 -2.000000 8.756148E+00
28.000000 -4.000000 1.373697E+00
28.000000 -6.000000 -1.647282E+01
28.000000 -8.000000 -7.105295E+01
28.000000 -10.000000 -1.365753E+02
28.000000 -12.000000 -1.756520E+02
28.000000 -14.000000 -1.730706E+02
28.000000 -16.000000 -1.376753E+02
28.000000 -18.000000 -9.133887E+01
28.000000 -20.000000 -4.669185E+01
28.000000 -22.000000 -1.039000E+01
28.000000 -24.000000 1.697142E+01
28.000000 -26.000000 3.571844E+01
28.000000 -28.000000 5.097834E+01
28.000000 -30.000000 5.731706E+01
28.000000 -32.000000 4.654833E+01
28.000000 -34.000000 2.324738E+01
28.000000 -36.000000 2.416848E+00
28.000000 -38.000000 -3.583070E+00
28.000000 -40.000000 7.347145E+00
30.000000 40.000000 -1.883696E+01
30.000000 38.000000 5.711194E+00
30.000000 36.000000 4.234495E+01
30.000000 34.000000 7.292081E+01
30.000000 32.000000 6.739796E+01
30.000000 30.000000 3.703066E+01
30.000000 28.000000 9.101491E-01
30.000000 26.000000 -1.934947E+01
30.000000 24.000000 -8.676193E+00
30.000000 22.000000 1.691833E+01
30.000000 20.000000 2.196166E+01
30.000000 18.000000 6.233755E+00
30.000000 16.000000 -2.245668E+00
30.000000 14.000000 8.947999E+00
30.000000 12.000000 3.140137E+01
30.000000 10.000000 5.584930E+01
30.000000 8.000000 7.615345E+01
30.000000 6.000000 8.659321E+01
30.000000 4.000000 7.691091E+01
30.000000 2.000000 4.702256E+01
30.000000 0.000000 1.750134E+01
30.000000 -2.000000 5.766972E+00
30.000000 -4.000000 9.014652E+00
30.000000 -6.000000 -7.606821E+00
30.000000 -8.000000 -6.686401E+01
30.000000 -10.000000 -1.353456E+02
30.000000 -12.000000 -1.724912E+02
30.000000 -14.000000 -1.663549E+02
30.000000 -16.000000 -1.299771E+02
30.000000 -18.000000 -8.802193E+01
30.000000 -20.000000 -4.953117E+01
30.000000 -22.000000 -1.618634E+01
30.000000 -24.000000 1.459122E+01
30.000000 -26.000000 3.786243E+01
30.000000 -28.000000 5.611545E+01
30.000000 -30.000000 6.418446E+01
30.000000 -32.000000 5.409441E+01
30.000000 -34.000000 3.094345E+01
30.000000 -36.000000 9.486221E+00
30.000000 -38.000000 -6.358004E-02
30.000000 -40.000000 6.232257E+00
32.000000 40.000000 -2.149845E+01
32.000000 38.000000 -4.941753E+00
32.000000 36.000000 2.252328E+01
32.000000 34.000000 4.726483E+01
32.000000 32.000000 4.332199E+01
32.000000 30.000000 1.736876E+01
32.000000 28.000000 -1.441109E+01
32.000000 26.000000 -3.161042E+01
32.000000 24.000000 -2.119251E+01
32.000000 22.000000 2.627820E+00
32.000000 20.000000 6.495333E+00
32.000000 18.000000 -8.238705E+00
32.000000 16.000000 -1.196265E+01
32.000000 14.000000 6.112167E+00
32.000000 12.000000 3.526877E+01
32.000000 10.000000 6.354194E+01
32.000000 8.000000 8.097357E+01
32.000000 6.000000 8.657147E+01
32.000000 4.000000 6.974602E+01
32.000000 2.000000 3.673956E+01
32.000000 0.000000 1.046363E+01
32.000000 -2.000000 5.454185E+00
32.000000 -4.000000 1.231485E+01
32.000000 -6.000000 -8.217355E+00
32.000000 -8.000000 -7.025905E+01
32.000000 -10.000000 -1.365529E+02
32.000000 -12.000000 -1.625664E+02
32.000000 -14.000000 -1.459274E+02
32.000000 -16.000000 -1.051056E+02
32.000000 -18.000000 -6.794123E+01
32.000000 -20.000000 -3.931684E+01
32.000000 -22.000000 -1.399736E+01
32.000000 -24.000000 1.330042E+01
32.000000 -26.000000 3.507371E+01
32.000000 -28.000000 5.219715E+01
32.000000 -30.000000 6.040151E+01
32.000000 -32.000000 5.316881E+01
32.000000 -34.000000 3.411968E+01
32.000000 -36.000000 1.577414E+01
32.000000 -38.000000 4.464900E+00
32.000000 -40.000000 6.074973E+00
34.000000 40.000000 -2.123380E+01
34.000000 38.000000 -1.242671E+01
34.000000 36.000000 4.661005E+00
34.000000 34.000000 2.124585E+01
34.000000 32.000000 1.743938E+01
34.000000 30.000000 -3.549729E+00
34.000000 28.000000 -2.748508E+01
34.000000 26.000000 -3.835541E+01
34.000000 24.000000 -2.609691E+01
34.000000 22.000000 -6.079268E+00
34.000000 20.000000 -5.284115E+00
34.000000 18.000000 -2.121847E+01
34.000000 16.000000 -2.362557E+01
34.000000 14.000000 -3.206735E+00
34.000000 12.000000 2.800019E+01
34.000000 10.000000 5.599286E+01
34.000000 8.000000 7.173773E+01
34.000000 6.000000 7.494071E+01
34.000000 4.000000 5.716817E+01
34.000000 2.000000 2.727296E+01
34.000000 0.000000 6.014645E+00
34.000000 -2.000000 5.684366E+00
34.000000 -4.000000 1.185435E+01
34.000000 -6.000000 -1.164325E+01
34.000000 -8.000000 -6.861485E+01
34.000000 -10.000000 -1.242706E+02
34.000000 -12.000000 -1.371314E+02
34.000000 -14.000000 -1.134169E+02
34.000000 -16.000000 -7.371519E+01
34.000000 -18.000000 -4.423716E+01
34.000000 -20.000000 -2.652119E+01
34.000000 -22.000000 -9.555349E+00
34.000000 -24.000000 1.279210E+01
34.000000 -26.000000 3.255346E+01
34.000000 -28.000000 4.730840E+01
34.000000 -30.000000 5.533145E+01
34.000000 -32.000000 5.007948E+01
34.000000 -34.000000 3.357122E+01
34.000000 -36.000000 1.746127E+01
34.000000 -38.000000 5.744109E+00
34.000000 -40.000000 3.763803E+00
36.000000 40.000000 -1.929714E+01
36.000000 38.000000 -1.666618E+01
36.000000 36.000000 -8.089879E+00
36.000000 34.000000 3.367853E-01
36.000000 32.000000 -3.887271E+00
36.000000 30.000000 -1.918449E+01
36.000000 28.000000 -3.506389E+01
36.000000 26.000000 -4.072220E+01
36.000000 24.000000 -2.699089E+01
36.000000 22.000000 -1.084946E+01
36.000000 20.000000 -1.413519E+01
36.000000 18.000000 -3.248531E+01
36.000000 16.000000 -3.640307E+01
36.000000 14.000000 -1.755946E+01
36.000000 12.000000 1.205048E+01
36.000000 10.000000 3.733482E+01
36.000000 8.000000 5.312016E+01
36.000000 6.000000 5.654348E+01
36.000000 4.000000 4.178569E+01
36.000000 2.000000 1.829871E+01
36.000000 0.000000 3.492807E+00
36.000000 -2.000000 6.524277E+00
36.000000 -4.000000 1.174147E+01
36.000000 -6.000000 -1.095033E+01
36.000000 -8.000000 -5.850277E+01
36.000000 -10.000000 -9.952100E+01
36.000000 -12.000000 -1.029144E+02
36.000000 -14.000000 -7.965257E+01
36.000000 -16.000000 -4.799397E+01
36.000000 -18.000000 -2.789250E+01
36.000000 -20.000000 -1.875464E+01
36.000000 -22.000000 -7.390588E+00
36.000000 -24.000000 1.222106E+01
36.000000 -26.000000 3.183129E+01
36.000000 -28.000000 4.660654E+01
36.000000 -30.000000 5.469245E+01
36.000000 -32.000000 4.881645E+01
36.000000 -34.000000 3.086772E+01
36.000000 -36.000000 1.328494E+01
36.000000 -38.000000 1.114116E+00
36.000000 -40.000000 -2.543005E+00
38.000000 40.000000 -1.662867E+01
38.000000 38.000000 -1.749176E+01
38.000000 36.000000 -1.429295E+01
38.000000 34.000000 -1.154938E+01
38.000000 32.000000 -1.561290E+01
38.000000 30.000000 -2.574766E+01
38.000000 28.000000 -3.622627E+01
38.000000 26.000000 -4.042877E+01
38.000000 24.000000 -2.901641E+01
38.000000 22.000000 -1.652889E+01
38.000000 20.000000 -2.409959E+01
38.000000 18.000000 -4.612949E+01
38.000000 16.000000 -5.149631E+01
38.000000 14.000000 -3.297870E+01
38.000000 12.000000 -2.687920E+00
38.000000 10.000000 2.387231E+01
38.000000 8.000000 4.276708E+01
38.000000 6.000000 4.886021E+01
38.000000 4.000000 3.740793E+01
38.000000 2.000000 1.570815E+01
38.000000 0.000000 3.290435E+00
38.000000 -2.000000 7.020263E+00
38.000000 -4.000000 1.280000E+01
38.000000 -6.000000 -3.754242E+00
38.000000 -8.000000 -4.227188E+01
38.000000 -10.000000 -7.362922E+01
38.000000 -12.000000 -7.750103E+01
38.000000 -14.000000 -6.232275E+01
38.000000 -16.000000 -4.095506E+01
38.000000 -18.000000 -2.928525E+01
38.000000 -20.000000 -2.395817E+01
38.000000 -22.000000 -1.122734E+01
38.000000 -24.000000 1.204211E+01
38.000000 -26.000000 3.526112E+01
38.000000 -28.000000 5.087407E+01
38.000000 -30.000000 5.708638E+01
38.000000 -32.000000 4.738937E+01
38.000000 -34.000000 2.582419E+01
38.000000 -36.000000 5.338832E+00
38.000000 -38.000000 -7.504479E+00
38.000000 -40.000000 -1.147988E+01
40.000000 40.000000 -1.381637E+01
40.000000 38.000000 -1.475512E+01
40.000000 36.000000 -1.504808E+01
40.000000 34.000000 -1.471607E+01
40.000000 32.000000 -1.713288E+01
40.000000 30.000000 -2.363677E+01
40.000000 28.000000 -3.213657E+01
40.000000 26.000000 -3.957108E+01
40.000000 24.000000 -3.296153E+01
40.000000 22.000000 -2.215354E+01
40.000000 20.000000 -3.221057E+01
40.000000 18.000000 -5.745311E+01
40.000000 16.000000 -6.156803E+01
40.000000 14.000000 -3.888502E+01
40.000000 12.000000 -4.130480E+00
40.000000 10.000000 2.659330E+01
40.000000 8.000000 4.887847E+01
40.000000 6.000000 5.978751E+01
40.000000 4.000000 4.963241E+01
40.000000 2.000000 2.167029E+01
40.000000 0.000000 4.788291E+00
40.000000 -2.000000 4.916048E+00
40.000000 -4.000000 1.005061E+01
40.000000 -6.000000 2.104731E-01
40.000000 -8.000000 -3.055168E+01
40.000000 -10.000000 -5.743191E+01
40.000000 -12.000000 -6.932539E+01
40.000000 -14.000000 -6.741902E+01
40.000000 -16.000000 -5.744908E+01
40.000000 -18.000000 -5.197468E+01
40.000000 -20.000000 -4.411310E+01
40.000000 -22.000000 -2.186020E+01
40.000000 -24.000000 1.294288E+01
40.000000 -26.000000 4.367277E+01
40.000000 -28.000000 5.666912E+01
40.000000 -30.000000 5.624523E+01
40.000000 -32.000000 4.112656E+01
40.000000 -34.000000 1.739365E+01
40.000000 -36.000000 -4.104935E+00
40.000000 -38.000000 -1.672125E+01
40.000000 -40.000000 -1.958127E+01
42.000000 40.000000 -1.137562E+01
42.000000 38.000000 -9.766293E+00
42.000000 36.000000 -1.324659E+01
42.000000 34.000000 -1.367103E+01
42.000000 32.000000 -1.211760E+01
42.000000 30.000000 -1.567315E+01
42.000000 28.000000 -2.556938E+01
42.000000 26.000000 -3.675844E+01
42.000000 24.000000 -3.262553E+01
42.000000 22.000000 -2.061591E+01
42.000000 20.000000 -2.846442E+01
42.000000 18.000000 -5.149597E+01
42.000000 16.000000 -5.421804E+01
42.000000 14.000000 -3.120888E+01
42.000000 12.000000 4.542488E+00
42.000000 10.000000 3.771239E+01
42.000000 8.000000 6.359649E+01
42.000000 6.000000 8.064539E+01
42.000000 4.000000 7.343496E+01
42.000000 2.000000 4.060283E+01
42.000000 0.000000 1.162533E+01
42.000000 -2.000000 -2.147062E+00
42.000000 -4.000000 -4.572814E+00
42.000000 -6.000000 -1.290019E+01
42.000000 -8.000000 -3.626093E+01
42.000000 -10.000000 -5.885872E+01
42.000000 -12.000000 -7.384717E+01
42.000000 -14.000000 -8.387017E+01
42.000000 -16.000000 -8.648003E+01
42.000000 -18.000000 -8.539408E+01
42.000000 -20.000000 -7.042030E+01
42.000000 -22.000000 -3.443714E+01
42.000000 -24.000000 1.317119E+01
42.000000 -26.000000 4.866569E+01
42.000000 -28.000000 5.533523E+01
42.000000 -30.000000 4.638356E+01
42.000000 -32.000000 2.813095E+01
42.000000 -34.000000 6.433946E+00
42.000000 -36.000000 -1.278680E+01
42.000000 -38.000000 -2.307601E+01
42.000000 -40.000000 -2.341111E+01
44.000000 40.000000 -1.287731E+01
44.000000 38.000000 -8.375551E+00
44.000000 36.000000 -1.082247E+01
44.000000 34.000000 -8.051135E+00
44.000000 32.000000 -1.255125E+00
44.000000 30.000000 -2.997851E+00
44.000000 28.000000 -1.498205E+01
44.000000 26.000000 -2.746825E+01
44.000000 24.000000 -2.298421E+01
44.000000 22.000000 -7.602060E+00
44.000000 20.000000 -9.593526E+00
44.000000 18.000000 -2.907779E+01
44.000000 16.000000 -3.269610E+01
44.000000 14.000000 -1.364698E+01
44.000000 12.000000 1.823575E+01
44.000000 10.000000 5.014213E+01
44.000000 8.000000 7.556310E+01
44.000000 6.000000 9.360921E+01
44.000000 4.000000 8.706998E+01
44.000000 2.000000 5.263178E+01
44.000000 0.000000 1.275727E+01
44.000000 -2.000000 -1.486660E+01
44.000000 -4.000000 -2.478018E+01
44.000000 -6.000000 -3.321060E+01
44.000000 -8.000000 -4.999079E+01
44.000000 -10.000000 -6.849259E+01
44.000000 -12.000000 -8.153934E+01
44.000000 -14.000000 -9.933347E+01
44.000000 -16.000000 -1.121631E+02
44.000000 -18.000000 -1.129010E+02
44.000000 -20.000000 -9.090776E+01
44.000000 -22.000000 -4.456452E+01
44.000000 -24.000000 1.053464E+01
44.000000 -26.000000 4.407631E+01
44.000000 -28.000000 4.316342E+01
44.000000 -30.000000 2.923070E+01
44.000000 -32.000000 1.161591E+01
44.000000 -34.000000 -5.098177E+00
44.000000 -36.000000 -1.878090E+01
44.000000 -38.000000 -2.499608E+01
44.000000 -40.000000 -2.315919E+01
46.000000 40.000000 -2.019515E+01
46.000000 38.000000 -1.353318E+01
46.000000 36.000000 -7.867691E+00
46.000000 34.000000 3.173018E+00
46.000000 32.000000 1.339387E+01
46.000000 30.000000 1.154844E+01
46.000000 28.000000 1.097846E-01
46.000000 26.000000 -1.137567E+01
46.000000 24.000000 -4.265271E+00
46.000000 22.000000 1.312801E+01
46.000000 20.000000 1.540190E+01
46.000000 18.000000 -1.155544E+00
46.000000 16.000000 -5.925856E+00
46.000000 14.000000 7.856383E+00
46.000000 12.000000 3.142542E+01
46.000000 10.000000 5.472589E+01
46.000000 8.000000 7.128323E+01
46.000000 6.000000 8.190967E+01
46.000000 4.000000 6.937144E+01
46.000000 2.000000 3.296535E+01
46.000000 0.000000 -7.490958E+00
46.000000 -2.000000 -3.326124E+01
46.000000 -4.000000 -3.987380E+01
46.000000 -6.000000 -4.184081E+01
46.000000 -8.000000 -5.085245E+01
46.000000 -10.000000 -6.436168E+01
46.000000 -12.000000 -7.748880E+01
46.000000 -14.000000 -9.984652E+01
46.000000 -16.000000 -1.200430E+02
46.000000 -18.000000 -1.234726E+02
46.000000 -20.000000 -9.974425E+01
46.000000 -22.000000 -5.172334E+01
46.000000 -24.000000 2.208491E+00
46.000000 -26.000000 3.005575E+01
46.000000 -28.000000 2.573259E+01
46.000000 -30.000000 1.299863E+01
46.000000 -32.000000 -1.242048E+00
46.000000 -34.000000 -1.272559E+01
46.000000 -36.000000 -2.150778E+01
46.000000 -38.000000 -2.514278E+01
46.000000 -40.000000 -2.264077E+01
48.000000 40.000000 -2.893657E+01
48.000000 38.000000 -1.992244E+01
48.000000 36.000000 -4.897984E+00
48.000000 34.000000 1.417165E+01
48.000000 32.000000 2.495147E+01
48.000000 30.000000 2.141870E+01
48.000000 28.000000 1.198592E+01
48.000000 26.000000 4.499727E+00
48.000000 24.000000 1.716409E+01
48.000000 22.000000 3.493841E+01
48.000000 20.000000 3.818387E+01
48.000000 18.000000 2.382087E+01
48.000000 16.000000 1.664014E+01
48.000000 14.000000 2.266630E+01
48.000000 12.000000 3.360960E+01
48.000000 10.000000 4.038648E+01
48.000000 8.000000 4.404408E+01
48.000000 6.000000 4.473354E+01
48.000000 4.000000 2.803365E+01
48.000000 2.000000 -5.498157E+00
48.000000 0.000000 -3.728574E+01
48.000000 -2.000000 -4.991355E+01
48.000000 -4.000000 -4.415736E+01
48.000000 -6.000000 -3.325903E+01
48.000000 -8.000000 -3.365736E+01
48.000000 -10.000000 -4.310194E+01
48.000000 -12.000000 -5.912271E+01
48.000000 -14.000000 -8.292067E+01
48.000000 -16.000000 -1.063322E+02
48.000000 -18.000000 -1.148823E+02
48.000000 -20.000000 -9.690813E+01
48.000000 -22.000000 -5.638041E+01
48.000000 -24.000000 -1.253202E+01
48.000000 -26.000000 9.264992E+00
48.000000 -28.000000 8.787663E+00
48.000000 -30.000000 2.841717E+00
48.000000 -32.000000 -5.674587E+00
48.000000 -34.000000 -1.334214E+01
48.000000 -36.000000 -2.098552E+01
48.000000 -38.000000 -2.473233E+01
48.000000 -40.000000 -2.253422E+01
50.000000 40.000000 -3.598158E+01
50.000000 38.000000 -2.651943E+01
50.000000 36.000000 -5.503037E+00
50.000000 34.000000 1.849109E+01
50.000000 32.000000 2.915854E+01
50.000000 30.000000 2.461197E+01
50.000000 28.000000 1.728718E+01
50.000000 26.000000 1.469064E+01
50.000000 24.000000 3.194400E+01
50.000000 22.000000 5.005553E+01
50.000000 20.000000 5.260142E+01
50.000000 18.000000 3.642674E+01
50.000000 16.000000 2.638056E+01
50.000000 14.000000 2.710979E+01
50.000000 12.000000 2.814128E+01
50.000000 10.000000 1.870300E+01
50.000000 8.000000 1.109547E+01
50.000000 6.000000 5.816214E+00
50.000000 4.000000 -1.045318E+01
50.000000 2.000000 -3.800236E+01
50.000000 0.000000 -5.858704E+01
50.000000 -2.000000 -5.875106E+01
50.000000 -4.000000 -4.148881E+01
50.000000 -6.000000 -1.923839E+01
50.000000 -8.000000 -1.370797E+01
50.000000 -10.000000 -2.159335E+01
50.000000 -12.000000 -3.867229E+01
50.000000 -14.000000 -6.116271E+01
50.000000 -16.000000 -8.290232E+01
50.000000 -18.000000 -9.302966E+01
50.000000 -20.000000 -8.345129E+01
50.000000 -22.000000 -5.625060E+01
50.000000 -24.000000 -2.701256E+01
50.000000 -26.000000 -1.129079E+01
50.000000 -28.000000 -5.435832E+00
50.000000 -30.000000 -2.290985E+00
50.000000 -32.000000 -3.671184E+00
50.000000 -34.000000 -9.292917E+00
50.000000 -36.000000 -1.779427E+01
50.000000 -38.000000 -2.204989E+01
50.000000 -40.000000 -2.048275E+01
52.000000 40.000000 -4.088092E+01
52.000000 38.000000 -3.318303E+01
52.000000 36.000000 -1.152130E+01
52.000000 34.000000 1.366662E+01
52.000000 32.000000 2.534144E+01
52.000000 30.000000 2.204525E+01
52.000000 28.000000 1.592230E+01
52.000000 26.000000 1.415366E+01
52.000000 24.000000 3.146784E+01
52.000000 22.000000 5.145869E+01
52.000000 20.000000 5.396685E+01
52.000000 18.000000 3.523291E+01
52.000000 16.000000 2.551186E+01
52.000000 14.000000 2.680165E+01
52.000000 12.000000 2.495665E+01
52.000000 10.000000 1.004168E+01
52.000000 8.000000 -3.858632E+00
52.000000 6.000000 -1.322218E+01
52.000000 4.000000 -2.876726E+01
52.000000 2.000000 -5.215559E+01
52.000000 0.000000 -6.668153E+01
52.000000 -2.000000 -6.028604E+01
52.000000 -4.000000 -3.632741E+01
52.000000 -6.000000 -8.045148E+00
52.000000 -8.000000 -1.001286E+00
52.000000 -10.000000 -8.610087E+00
52.000000 -12.000000 -2.522298E+01
52.000000 -14.000000 -4.491352E+01
52.000000 -16.000000 -6.165608E+01
52.000000 -18.000000 -6.969844E+01
52.000000 -20.000000 -6.653081E+01
52.000000 -22.000000 -5.265136E+01
52.000000 -24.000000 -3.743058E+01
52.000000 -26.000000 -2.702153E+01
52.000000 -28.000000 -1.552054E+01
52.000000 -30.000000 -3.996245E+00
52.000000 -32.000000 1.630327E+00
52.000000 -34.000000 -1.569890E+00
52.000000 -36.000000 -1.067212E+01
52.000000 -38.000000 -1.658837E+01
52.000000 -40.000000 -1.692352E+01
54.000000 40.000000 -4.259290E+01
54.000000 38.000000 -3.678786E+01
54.000000 36.000000 -1.997132E+01
54.000000 34.000000 1.412499E+00
54.000000 32.000000 1.360222E+01
54.000000 30.000000 1.210175E+01
54.000000 28.000000 5.789827E+00
54.000000 26.000000 1.906136E+00
54.000000 24.000000 1.823564E+01
54.000000 22.000000 4.183078E+01
54.000000 20.000000 4.591226E+01
54.000000 18.000000 2.803257E+01
54.000000 16.000000 2.000510E+01
54.000000 14.000000 2.435966E+01
54.000000 12.000000 2.561283E+01
54.000000 10.000000 1.521028E+01
54.000000 8.000000 5.790186E-02
54.000000 6.000000 -1.171493E+01
54.000000 4.000000 -2.702134E+01
54.000000 2.000000 -4.815204E+01
54.000000 0.000000 -6.132406E+01
54.000000 -2.000000 -5.410581E+01
54.000000 -4.000000 -2.913780E+01
54.000000 -6.000000 -8.148179E-01
54.000000 -8.000000 4.049608E+00
54.000000 -10.000000 -5.355812E+00
54.000000 -12.000000 -2.072583E+01
54.000000 -14.000000 -3.483881E+01
54.000000 -16.000000 -4.509157E+01
54.000000 -18.000000 -5.153696E+01
54.000000 -20.000000 -5.310645E+01
54.000000 -22.000000 -4.800727E+01
54.000000 -24.000000 -4.231612E+01
54.000000 -26.000000 -3.526684E+01
54.000000 -28.000000 -1.957032E+01
54.000000 -30.000000 -2.121316E+00
54.000000 -32.000000 9.285246E+00
54.000000 -34.000000 9.378858E+00
54.000000 -36.000000 -3.296909E-01
54.000000 -38.000000 -1.028789E+01
54.000000 -40.000000 -1.346820E+01
56.000000 40.000000 -4.154770E+01
56.000000 38.000000 -3.671416E+01
56.000000 36.000000 -2.616445E+01
56.000000 34.000000 -1.122532E+01
56.000000 32.000000 -1.024036E+00
56.000000 30.000000 -2.166481E-01
56.000000 28.000000 -5.697075E+00
56.000000 26.000000 -9.442510E+00
56.000000 24.000000 4.340737E+00
56.000000 22.000000 2.810540E+01
56.000000 20.000000 3.238615E+01
56.000000 18.000000 1.580476E+01
56.000000 16.000000 1.044866E+01
56.000000 14.000000 1.931056E+01
56.000000 12.000000 2.619726E+01
56.000000 10.000000 2.180451E+01
56.000000 8.000000 8.367491E+00
56.000000 6.000000 -1.984732E+00
56.000000 4.000000 -1.518079E+01
56.000000 2.000000 -3.271403E+01
56.000000 0.000000 -4.292526E+01
56.000000 -2.000000 -3.747837E+01
56.000000 -4.000000 -1.719193E+01
56.000000 -6.000000 4.441775E+00
56.000000 -8.000000 3.860707E+00
56.000000 -10.000000 -8.925880E+00
56.000000 -12.000000 -2.265807E+01
56.000000 -14.000000 -3.121125E+01
56.000000 -16.000000 -3.516336E+01
56.000000 -18.000000 -3.948286E+01
56.000000 -20.000000 -4.213429E+01
56.000000 -22.000000 -3.984966E+01
56.000000 -24.000000 -3.924983E+01
56.000000 -26.000000 -3.457237E+01
