-28.000000 -2.000000 -2.232448E+01
-28.000000 -4.000000 -2.507989E+01
-28.000000 -6.000000 -3.694753E+01
-28.000000 -8.000000 -4.116792E+01
-28.000000 -10.000000 -3.403943E+01
-28.000000 -12.000000 -1.352314E+01
-28.000000 -14.000000 9.138053E+00
-28.000000 -16.000000 2.304192E+01
-28.000000 -18.000000 2.773045E+01
-28.000000 -20.000000 3.155511E+01
-28.000000 -22.000000 3.711242E+01
-28.000000 -24.000000 3.799481E+01
-28.000000 -26.000000 3.484822E+01
-28.000000 -28.000000 2.424112E+01
-28.000000 -30.000000 1.477601E+01
-28.000000 -32.000000 1.188396E+01
-28.000000 -34.000000 8.275330E+00
-28.000000 -36.000000 -1.290905E+00
-28.000000 -38.000000 -7.437770E+00
-28.000000 -40.000000 -7.161897E+00
-26.000000 40.000000 -6.317879E+01
-26.000000 38.000000 -5.126510E+01
-26.000000 36.000000 -3.275660E+01
-26.000000 34.000000 -5.701113E+00
-26.000000 32.000000 8.741158E+00
-26.000000 30.000000 9.034809E+00
-26.000000 28.000000 -2.050743E-01
-26.000000 26.000000 -1.469955E+01
-26.000000 24.000000 -3.500329E+01
-26.000000 22.000000 -5.503438E+01
-26.000000 20.000000 -6.098811E+01
-26.000000 18.000000 -4.927903E+01
-26.000000 16.000000 -2.349585E+01
-26.000000 14.000000 4.364334E+00
-26.000000 12.000000 1.923360E+01
-26.000000 10.000000 9.379211E+00
-26.000000 8.000000 -2.272758E+01
-26.000000 6.000000 -5.252534E+01
-26.000000 4.000000 -5.689071E+01
-26.000000 2.000000 -3.934029E+01
-26.000000 0.000000 -2.518312E+01
-26.000000 -2.000000 -1.880219E+01
-26.000000 -4.000000 -2.215575E+01
-26.000000 -6.000000 -3.497817E+01
-26.000000 -8.000000 -3.982662E+01
-26.000000 -10.000000 -3.128794E+01
-26.000000 -12.000000 -9.570599E+00
-26.000000 -14.000000 1.191000E+01
-26.000000 -16.000000 2.117670E+01
-26.000000 -18.000000 2.045659E+01
-26.000000 -20.000000 1.959888E+01
-26.000000 -22.000000 2.089070E+01
-26.000000 -24.000000 2.266002E+01
-26.000000 -26.000000 2.032645E+01
-26.000000 -28.000000 1.236110E+01
-26.000000 -30.000000 2.794315E+00
-26.000000 -32.000000 1.475296E+00
-26.000000 -34.000000 1.640776E+00
-26.000000 -36.000000 -2.640409E+00
-26.000000 -38.000000 -5.302711E+00
-26.000000 -40.000000 -3.919891E+00
-24.000000 40.000000 -6.339078E+01
-24.000000 38.000000 -5.193732E+01
-24.000000 36.000000 -3.116894E+01
-24.000000 34.000000 -3.590504E+00
-24.000000 32.000000 1.137204E+01
-24.000000 30.000000 8.764034E+00
-24.000000 28.000000 -4.783146E+00
-24.000000 26.000000 -2.168005E+01
-24.000000 24.000000 -4.696034E+01
-24.000000 22.000000 -6.800570E+01
-24.000000 20.000000 -7.200904E+01
-24.000000 18.000000 -5.701759E+01
-24.000000 16.000000 -2.858813E+01
-24.000000 14.000000 3.132351E+00
-24.000000 12.000000 2.269771E+01
-24.000000 10.000000 1.873692E+01
-24.000000 8.000000 -9.896173E+00
-24.000000 6.000000 -3.720695E+01
-24.000000 4.000000 -3.989544E+01
-24.000000 2.000000 -2.395438E+01
-24.000000 0.000000 -1.773721E+01
-24.000000 -2.000000 -1.784172E+01
-24.000000 -4.000000 -1.982295E+01
-24.000000 -6.000000 -2.880854E+01
-24.000000 -8.000000 -3.159115E+01
-24.000000 -10.000000 -2.315369E+01
-24.000000 -12.000000 -5.861627E+00
-24.000000 -14.000000 8.519993E+00
-24.000000 -16.000000 1.177783E+01
-24.000000 -18.000000 7.036822E+00
-24.000000 -20.000000 3.735275E+00
-24.000000 -22.000000 2.014928E+00
-24.000000 -24.000000 2.929282E+00
-24.000000 -26.000000 3.875434E+00
-24.000000 -28.000000 -2.824511E+00
-24.000000 -30.000000 -1.104316E+01
-24.000000 -32.000000 -1.071199E+01
-24.000000 -34.000000 -6.156146E+00
-24.000000 -36.000000 -3.968575E+00
-24.000000 -38.000000 -4.778224E+00
-24.000000 -40.000000 -2.097936E+00
-22.000000 40.000000 -5.956114E+01
-22.000000 38.000000 -4.844056E+01
-22.000000 36.000000 -2.977565E+01
-22.000000 34.000000 -5.176409E+00
-22.000000 32.000000 8.478306E+00
-22.000000 30.000000 5.388573E+00
-22.000000 28.000000 -8.971661E+00
-22.000000 26.000000 -2.473980E+01
-22.000000 24.000000 -4.775029E+01
-22.000000 22.000000 -6.692880E+01
-22.000000 20.000000 -7.039128E+01
-22.000000 18.000000 -5.708960E+01
-22.000000 16.000000 -3.046768E+01
-22.000000 14.000000 3.582191E-02
-22.000000 12.000000 2.112333E+01
-22.000000 10.000000 1.930230E+01
-22.000000 8.000000 -8.137032E+00
-22.000000 6.000000 -3.300886E+01
-22.000000 4.000000 -3.382263E+01
-22.000000 2.000000 -1.702853E+01
-22.000000 0.000000 -1.345898E+01
-22.000000 -2.000000 -1.683603E+01
-22.000000 -4.000000 -1.750045E+01
-22.000000 -6.000000 -2.258907E+01
-22.000000 -8.000000 -2.352064E+01
-22.000000 -10.000000 -1.626480E+01
-22.000000 -12.000000 -4.799128E+00
-22.000000 -14.000000 2.407300E+00
-22.000000 -16.000000 -6.733074E-01
-22.000000 -18.000000 -7.219236E+00
-22.000000 -20.000000 -9.469768E+00
-22.000000 -22.000000 -1.025939E+01
-22.000000 -24.000000 -9.528537E+00
-22.000000 -26.000000 -9.611773E+00
-22.000000 -28.000000 -1.448688E+01
-22.000000 -30.000000 -2.102837E+01
-22.000000 -32.000000 -2.006183E+01
-22.000000 -34.000000 -1.171905E+01
-22.000000 -36.000000 -4.488274E+00
-22.000000 -38.000000 -3.772397E+00
-22.000000 -40.000000 -6.159511E-01
-20.000000 40.000000 -5.537509E+01
-20.000000 38.000000 -4.438144E+01
-20.000000 36.000000 -2.833438E+01
-20.000000 34.000000 -8.079216E+00
-20.000000 32.000000 3.895748E+00
-20.000000 30.000000 2.210510E+00
-20.000000 28.000000 -1.055247E+01
-20.000000 26.000000 -2.448516E+01
-20.000000 24.000000 -4.403122E+01
-20.000000 22.000000 -5.839916E+01
-20.000000 20.000000 -5.905483E+01
-20.000000 18.000000 -4.823062E+01
-20.000000 16.000000 -2.685124E+01
-20.000000 14.000000 -8.463497E-01
-20.000000 12.000000 1.776842E+01
-20.000000 10.000000 1.075099E+01
-20.000000 8.000000 -1.987036E+01
-20.000000 6.000000 -4.423664E+01
-20.000000 4.000000 -4.197027E+01
-20.000000 2.000000 -2.110831E+01
-20.000000 0.000000 -1.016415E+01
-20.000000 -2.000000 -7.582890E+00
-20.000000 -4.000000 -8.633702E+00
-20.000000 -6.000000 -1.719867E+01
-20.000000 -8.000000 -2.113644E+01
-20.000000 -10.000000 -1.652018E+01
-20.000000 -12.000000 -8.170995E+00
-20.000000 -14.000000 -3.139620E+00
-20.000000 -16.000000 -9.072813E+00
-20.000000 -18.000000 -1.698711E+01
-20.000000 -20.000000 -1.845641E+01
-20.000000 -22.000000 -1.805014E+01
-20.000000 -24.000000 -1.713047E+01
-20.000000 -26.000000 -1.791933E+01
-20.000000 -28.000000 -2.214291E+01
-20.000000 -30.000000 -2.698435E+01
-20.000000 -32.000000 -2.489853E+01
-20.000000 -34.000000 -1.480689E+01
-20.000000 -36.000000 -5.516152E+00
-20.000000 -38.000000 -3.814360E+00
-20.000000 -40.000000 -1.310620E-01
-18.000000 40.000000 -5.156027E+01
-18.000000 38.000000 -4.110916E+01
-18.000000 36.000000 -2.711052E+01
-18.000000 34.000000 -1.027170E+01
-18.000000 32.000000 3.286514E-01
-18.000000 30.000000 4.939270E-01
-18.000000 28.000000 -9.629341E+00
-18.000000 26.000000 -2.221434E+01
-18.000000 24.000000 -3.997088E+01
-18.000000 22.000000 -4.974021E+01
-18.000000 20.000000 -4.460635E+01
-18.000000 18.000000 -3.283876E+01
-18.000000 16.000000 -1.829642E+01
-18.000000 14.000000 -1.023529E+00
-18.000000 12.000000 9.601969E+00
-18.000000 10.000000 -4.509169E+00
-18.000000 8.000000 -3.635153E+01
-18.000000 6.000000 -5.886384E+01
-18.000000 4.000000 -5.004739E+01
-18.000000 2.000000 -2.159848E+01
-18.000000 0.000000 -1.946445E+00
-18.000000 -2.000000 5.013832E+00
-18.000000 -4.000000 -7.553015E-01
-18.000000 -6.000000 -1.814388E+01
-18.000000 -8.000000 -2.871024E+01
-18.000000 -10.000000 -2.547161E+01
-18.000000 -12.000000 -1.317533E+01
-18.000000 -14.000000 -4.660591E+00
-18.000000 -16.000000 -9.046292E+00
-18.000000 -18.000000 -1.952584E+01
-18.000000 -20.000000 -2.377175E+01
-18.000000 -22.000000 -2.423989E+01
-18.000000 -24.000000 -2.344164E+01
-18.000000 -26.000000 -2.359042E+01
-18.000000 -28.000000 -2.630217E+01
-18.000000 -30.000000 -2.864926E+01
-18.000000 -32.000000 -2.471829E+01
-18.000000 -34.000000 -1.526336E+01
-18.000000 -36.000000 -6.765185E+00
-18.000000 -38.000000 -4.192778E+00
-18.000000 -40.000000 -5.646124E-01
-16.000000 40.000000 -4.757611E+01
-16.000000 38.000000 -3.883622E+01
-16.000000 36.000000 -2.682854E+01
-16.000000 34.000000 -1.167735E+01
-16.000000 32.000000 -1.968435E+00
-16.000000 30.000000 -2.966614E-01
-16.000000 28.000000 -7.725477E+00
-16.000000 26.000000 -1.951310E+01
-16.000000 24.000000 -3.656405E+01
-16.000000 22.000000 -4.365104E+01
-16.000000 20.000000 -3.433384E+01
-16.000000 18.000000 -1.926760E+01
-16.000000 16.000000 -9.581976E+00
-16.000000 14.000000 -2.337696E+00
-16.000000 12.000000 -1.298418E+00
-16.000000 10.000000 -1.830216E+01
-16.000000 8.000000 -4.731146E+01
-16.000000 6.000000 -6.413085E+01
-16.000000 4.000000 -4.823031E+01
-16.000000 2.000000 -1.471998E+01
-16.000000 0.000000 8.705801E+00
-16.000000 -2.000000 1.352447E+01
-16.000000 -4.000000 -1.408116E+00
-16.000000 -6.000000 -2.759884E+01
-16.000000 -8.000000 -4.127233E+01
-16.000000 -10.000000 -3.511474E+01
-16.000000 -12.000000 -1.441625E+01
-16.000000 -14.000000 -6.360807E-01
-16.000000 -16.000000 -4.154983E+00
-16.000000 -18.000000 -1.780333E+01
-16.000000 -20.000000 -2.623027E+01
-16.000000 -22.000000 -2.888930E+01
-16.000000 -24.000000 -2.840690E+01
-16.000000 -26.000000 -2.681205E+01
-16.000000 -28.000000 -2.657371E+01
-16.000000 -30.000000 -2.639320E+01
-16.000000 -32.000000 -2.097146E+01
-16.000000 -34.000000 -1.314699E+01
-16.000000 -36.000000 -7.625682E+00
-16.000000 -38.000000 -6.004374E+00
-16.000000 -40.000000 -3.369456E+00
-14.000000 40.000000 -4.407104E+01
-14.000000 38.000000 -3.642371E+01
-14.000000 36.000000 -2.540197E+01
-14.000000 34.000000 -1.065845E+01
-14.000000 32.000000 -2.001881E+00
-14.000000 30.000000 -1.047464E+00
-14.000000 28.000000 -7.857100E+00
-14.000000 26.000000 -1.903068E+01
-14.000000 24.000000 -3.358375E+01
-14.000000 22.000000 -3.835626E+01
-14.000000 20.000000 -2.749940E+01
-14.000000 18.000000 -1.171042E+01
-14.000000 16.000000 -5.583008E+00
-14.000000 14.000000 -6.073681E+00
-14.000000 12.000000 -1.236147E+01
-14.000000 10.000000 -3.098082E+01
-14.000000 8.000000 -5.684735E+01
-14.000000 6.000000 -6.579584E+01
-14.000000 4.000000 -4.342575E+01
-14.000000 2.000000 -7.468962E+00
-14.000000 0.000000 1.575501E+01
-14.000000 -2.000000 1.635941E+01
-14.000000 -4.000000 -5.576880E+00
-14.000000 -6.000000 -3.625648E+01
-14.000000 -8.000000 -4.726141E+01
-14.000000 -10.000000 -3.616317E+01
-14.000000 -12.000000 -1.113662E+01
-14.000000 -14.000000 4.641372E+00
-14.000000 -16.000000 3.464212E-01
-14.000000 -18.000000 -1.467829E+01
-14.000000 -20.000000 -2.512606E+01
-14.000000 -22.000000 -2.948203E+01
-14.000000 -24.000000 -2.889214E+01
-14.000000 -26.000000 -2.493777E+01
-14.000000 -28.000000 -2.325789E+01
-14.000000 -30.000000 -2.189940E+01
-14.000000 -32.000000 -1.568121E+01
-14.000000 -34.000000 -1.018064E+01
-14.000000 -36.000000 -9.395549E+00
-14.000000 -38.000000 -1.035178E+01
-14.000000 -40.000000 -8.890599E+00
-12.000000 40.000000 -4.081731E+01
-12.000000 38.000000 -3.289182E+01
-12.000000 36.000000 -2.212105E+01
-12.000000 34.000000 -8.043188E+00
-12.000000 32.000000 -9.051208E-01
-12.000000 30.000000 -2.672045E+00
-12.000000 28.000000 -1.049156E+01
-12.000000 26.000000 -1.941500E+01
-12.000000 24.000000 -2.936240E+01
-12.000000 22.000000 -3.144932E+01
-12.000000 20.000000 -2.042134E+01
-12.000000 18.000000 -7.100430E+00
-12.000000 16.000000 -5.300459E+00
-12.000000 14.000000 -1.285926E+01
-12.000000 12.000000 -2.715904E+01
-12.000000 10.000000 -5.093602E+01
-12.000000 8.000000 -7.466775E+01
-12.000000 6.000000 -7.727462E+01
-12.000000 4.000000 -4.873673E+01
-12.000000 2.000000 -8.490696E+00
-12.000000 0.000000 1.644788E+01
-12.000000 -2.000000 1.756325E+01
-12.000000 -4.000000 -4.440619E+00
-12.000000 -6.000000 -3.411710E+01
-12.000000 -8.000000 -4.131231E+01
-12.000000 -10.000000 -2.695300E+01
-12.000000 -12.000000 -3.801504E+00
-12.000000 -14.000000 9.718812E+00
-12.000000 -16.000000 5.632717E+00
-12.000000 -18.000000 -7.980441E+00
-12.000000 -20.000000 -1.851718E+01
-12.000000 -22.000000 -2.422505E+01
-12.000000 -24.000000 -2.437510E+01
-12.000000 -26.000000 -1.963474E+01
-12.000000 -28.000000 -1.817341E+01
-12.000000 -30.000000 -1.704092E+01
-12.000000 -32.000000 -1.156578E+01
-12.000000 -34.000000 -9.234551E+00
-12.000000 -36.000000 -1.307867E+01
-12.000000 -38.000000 -1.609523E+01
-12.000000 -40.000000 -1.570132E+01
-10.000000 40.000000 -3.733969E+01
-10.000000 38.000000 -2.911994E+01
-10.000000 36.000000 -1.931567E+01
-10.000000 34.000000 -6.766739E+00
-10.000000 32.000000 -6.160412E-01
-10.000000 30.000000 -4.025248E+00
-10.000000 28.000000 -1.223777E+01
-10.000000 26.000000 -1.856028E+01
-10.000000 24.000000 -2.469993E+01
-10.000000 22.000000 -2.514802E+01
-10.000000 20.000000 -1.505366E+01
-10.000000 18.000000 -4.765787E+00
-10.000000 16.000000 -6.884146E+00
-10.000000 14.000000 -2.100673E+01
-10.000000 12.000000 -4.443849E+01
-10.000000 10.000000 -7.682277E+01
-10.000000 8.000000 -1.011119E+02
-10.000000 6.000000 -1.012435E+02
-10.000000 4.000000 -6.459208E+01
-10.000000 2.000000 -1.555485E+01
-10.000000 0.000000 1.553919E+01
-10.000000 -2.000000 2.216214E+01
-10.000000 -4.000000 5.599203E+00
-10.000000 -6.000000 -1.986931E+01
-10.000000 -8.000000 -2.614055E+01
-10.000000 -10.000000 -1.372184E+01
-10.000000 -12.000000 3.029655E+00
-10.000000 -14.000000 1.195895E+01
-10.000000 -16.000000 9.166830E+00
-10.000000 -18.000000 -7.796192E-02
-10.000000 -20.000000 -7.715054E+00
-10.000000 -22.000000 -1.270367E+01
-10.000000 -24.000000 -1.479813E+01
-10.000000 -26.000000 -1.290083E+01
-10.000000 -28.000000 -1.293780E+01
-10.000000 -30.000000 -1.312323E+01
-10.000000 -32.000000 -1.019361E+01
-10.000000 -34.000000 -1.116224E+01
-10.000000 -36.000000 -1.836257E+01
-10.000000 -38.000000 -2.275541E+01
-10.000000 -40.000000 -2.270509E+01
-8.000000 40.000000 -3.434756E+01
-8.000000 38.000000 -2.675529E+01
-8.000000 36.000000 -1.831867E+01
-8.000000 34.000000 -7.095333E+00
-8.000000 32.000000 -7.685261E-01
-8.000000 30.000000 -4.514334E+00
-8.000000 28.000000 -1.348265E+01
-8.000000 26.000000 -2.005599E+01
-8.000000 24.000000 -2.425378E+01
-8.000000 22.000000 -2.340749E+01
-8.000000 20.000000 -1.324407E+01
-8.000000 18.000000 -3.112761E+00
-8.000000 16.000000 -6.426935E+00
-8.000000 14.000000 -2.556132E+01
-8.000000 12.000000 -5.793317E+01
-8.000000 10.000000 -1.001391E+02
-8.000000 8.000000 -1.266634E+02
-8.000000 6.000000 -1.238236E+02
-8.000000 4.000000 -7.829178E+01
-8.000000 2.000000 -1.995850E+01
-8.000000 0.000000 1.861640E+01
-8.000000 -2.000000 3.069715E+01
-8.000000 -4.000000 2.056882E+01
-8.000000 -6.000000 1.572571E-01
-8.000000 -8.000000 -7.898976E+00
-8.000000 -10.000000 -3.562603E+00
-8.000000 -12.000000 2.910959E+00
-8.000000 -14.000000 5.691849E+00
-8.000000 -16.000000 5.294905E+00
-8.000000 -18.000000 4.067909E+00
-8.000000 -20.000000 3.073155E+00
-8.000000 -22.000000 1.255650E+00
-8.000000 -24.000000 -2.523667E+00
-8.000000 -26.000000 -5.459086E+00
-8.000000 -28.000000 -9.891170E+00
-8.000000 -30.000000 -1.257716E+01
-8.000000 -32.000000 -1.134880E+01
-8.000000 -34.000000 -1.419481E+01
-8.000000 -36.000000 -2.399799E+01
-8.000000 -38.000000 -2.964067E+01
-8.000000 -40.000000 -2.813903E+01
-6.000000 40.000000 -3.351342E+01
-6.000000 38.000000 -2.741625E+01
-6.000000 36.000000 -1.916897E+01
-6.000000 34.000000 -7.881674E+00
-6.000000 32.000000 -5.524406E-01
-6.000000 30.000000 -4.237925E+00
-6.000000 28.000000 -1.415068E+01
-6.000000 26.000000 -2.267712E+01
-6.000000 24.000000 -2.800087E+01
-6.000000 22.000000 -2.656796E+01
-6.000000 20.000000 -1.514116E+01
-6.000000 18.000000 -2.622128E+00
-6.000000 16.000000 -4.201897E+00
-6.000000 14.000000 -2.460033E+01
-6.000000 12.000000 -6.285784E+01
-6.000000 10.000000 -1.117506E+02
-6.000000 8.000000 -1.393491E+02
-6.000000 6.000000 -1.338959E+02
-6.000000 4.000000 -8.382995E+01
-6.000000 2.000000 -2.064460E+01
-6.000000 0.000000 2.254262E+01
-6.000000 -2.000000 3.780606E+01
-6.000000 -4.000000 3.327374E+01
-6.000000 -6.000000 1.747679E+01
-6.000000 -8.000000 6.490511E+00
-6.000000 -10.000000 1.361303E+00
-6.000000 -12.000000 -3.256110E+00
-6.000000 -14.000000 -6.728898E+00
-6.000000 -16.000000 -2.841745E+00
-6.000000 -18.000000 5.143219E+00
-6.000000 -20.000000 1.106705E+01
-6.000000 -22.000000 1.260973E+01
-6.000000 -24.000000 6.856019E+00
-6.000000 -26.000000 -1.309935E+00
-6.000000 -28.000000 -1.208085E+01
-6.000000 -30.000000 -1.709868E+01
-6.000000 -32.000000 -1.482087E+01
-6.000000 -34.000000 -1.675971E+01
-6.000000 -36.000000 -2.713692E+01
-6.000000 -38.000000 -3.317552E+01
-6.000000 -40.000000 -3.035432E+01
-4.000000 40.000000 -3.501834E+01
-4.000000 38.000000 -3.120384E+01
-4.000000 36.000000 -2.225074E+01
-4.000000 34.000000 -8.928734E+00
-4.000000 32.000000 4.573135E-01
-4.000000 30.000000 -2.903954E+00
-4.000000 28.000000 -1.318127E+01
-4.000000 26.000000 -2.344995E+01
-4.000000 24.000000 -3.292171E+01
-4.000000 22.000000 -3.332868E+01
-4.000000 20.000000 -2.078322E+01
-4.000000 18.000000 -3.920578E+00
-4.000000 16.000000 -2.004072E+00
-4.000000 14.000000 -1.978059E+01
-4.000000 12.000000 -5.838043E+01
-4.000000 10.000000 -1.094551E+02
-4.000000 8.000000 -1.382021E+02
-4.000000 6.000000 -1.331191E+02
-4.000000 4.000000 -8.316248E+01
-4.000000 2.000000 -1.931940E+01
-4.000000 0.000000 2.293017E+01
-4.000000 -2.000000 3.781572E+01
-4.000000 -4.000000 3.571187E+01
-4.000000 -6.000000 2.233377E+01
-4.000000 -8.000000 9.537195E+00
-4.000000 -10.000000 -7.777405E-02
-4.000000 -12.000000 -8.200119E+00
-4.000000 -14.000000 -1.083018E+01
-4.000000 -16.000000 -3.397902E+00
-4.000000 -18.000000 7.272993E+00
-4.000000 -20.000000 1.486917E+01
-4.000000 -22.000000 1.686392E+01
-4.000000 -24.000000 8.403902E+00
-4.000000 -26.000000 -4.648716E+00
-4.000000 -28.000000 -1.912094E+01
-4.000000 -30.000000 -2.396421E+01
-4.000000 -32.000000 -1.872937E+01
-4.000000 -34.000000 -1.693345E+01
-4.000000 -36.000000 -2.470685E+01
-4.000000 -38.000000 -3.133685E+01
-4.000000 -40.000000 -3.049509E+01
-2.000000 40.000000 -3.694474E+01
-2.000000 38.000000 -3.629430E+01
-2.000000 36.000000 -2.742288E+01
-2.000000 34.000000 -1.048438E+01
-2.000000 32.000000 2.178650E+00
-2.000000 30.000000 -3.039398E-01
-2.000000 28.000000 -1.123359E+01
-2.000000 26.000000 -2.337451E+01
-2.000000 24.000000 -3.752921E+01
-2.000000 22.000000 -4.168246E+01
-2.000000 20.000000 -3.140697E+01
-2.000000 18.000000 -1.198572E+01
-2.000000 16.000000 -4.808939E+00
-2.000000 14.000000 -1.551361E+01
-2.000000 12.000000 -4.704005E+01
-2.000000 10.000000 -9.320610E+01
-2.000000 8.000000 -1.219307E+02
-2.000000 6.000000 -1.197752E+02
-2.000000 4.000000 -7.543140E+01
-2.000000 2.000000 -1.898304E+01
-2.000000 0.000000 1.565165E+01
-2.000000 -2.000000 2.703217E+01
-2.000000 -4.000000 2.388847E+01
-2.000000 -6.000000 1.103824E+01
-2.000000 -8.000000 -1.278419E-01
-2.000000 -10.000000 -6.330466E+00
-2.000000 -12.000000 -8.211595E+00
-2.000000 -14.000000 -4.180305E+00
-2.000000 -16.000000 3.967450E+00
-2.000000 -18.000000 1.082660E+01
-2.000000 -20.000000 1.542826E+01
-2.000000 -22.000000 1.484213E+01
-2.000000 -24.000000 3.753016E+00
-2.000000 -26.000000 -1.169950E+01
-2.000000 -28.000000 -2.529792E+01
-2.000000 -30.000000 -2.780580E+01
-2.000000 -32.000000 -1.911955E+01
-2.000000 -34.000000 -1.312778E+01
-2.000000 -36.000000 -1.797267E+01
-2.000000 -38.000000 -2.700315E+01
-2.000000 -40.000000 -3.134277E+01
0.000000 40.000000 -3.839834E+01
0.000000 38.000000 -4.076241E+01
0.000000 36.000000 -3.257580E+01
0.000000 34.000000 -1.266973E+01
0.000000 32.000000 3.523668E+00
0.000000 30.000000 3.016375E+00
0.000000 28.000000 -8.025187E+00
0.000000 26.000000 -2.204801E+01
0.000000 24.000000 -4.053596E+01
0.000000 22.000000 -5.068324E+01
0.000000 20.000000 -4.661660E+01
0.000000 18.000000 -2.744263E+01
0.000000 16.000000 -1.327528E+01
0.000000 14.000000 -1.335808E+01
0.000000 12.000000 -3.188229E+01
0.000000 10.000000 -6.722578E+01
0.000000 8.000000 -9.404346E+01
0.000000 6.000000 -9.575215E+01
0.000000 4.000000 -6.363220E+01
0.000000 2.000000 -2.245493E+01
0.000000 0.000000 2.398066E+00
0.000000 -2.000000 9.305149E+00
0.000000 -4.000000 3.753216E+00
0.000000 -6.000000 -9.207480E+00
0.000000 -8.000000 -1.629493E+01
0.000000 -10.000000 -1.549859E+01
0.000000 -12.000000 -8.558307E+00
0.000000 -14.000000 8.212547E-01
0.000000 -16.000000 8.170853E+00
0.000000 -18.000000 1.122963E+01
0.000000 -20.000000 1.287035E+01
0.000000 -22.000000 1.022230E+01
0.000000 -24.000000 -6.556597E-01
0.000000 -26.000000 -1.417063E+01
0.000000 -28.000000 -2.379463E+01
0.000000 -30.000000 -2.444650E+01
0.000000 -32.000000 -1.463009E+01
0.000000 -34.000000 -6.738518E+00
0.000000 -36.000000 -1.121639E+01
0.000000 -38.000000 -2.413731E+01
0.000000 -40.000000 -3.438184E+01
2.000000 40.000000 -3.934099E+01
2.000000 38.000000 -4.341236E+01
2.000000 36.000000 -3.660109E+01
2.000000 34.000000 -1.714953E+01
2.000000 32.000000 1.962507E+00
2.000000 30.000000 5.316463E+00
2.000000 28.000000 -3.456738E+00
2.000000 26.000000 -1.822200E+01
2.000000 24.000000 -3.964616E+01
2.000000 22.000000 -5.543534E+01
2.000000 20.000000 -5.686455E+01
2.000000 18.000000 -3.802177E+01
2.000000 16.000000 -1.753022E+01
2.000000 14.000000 -8.125013E+00
2.000000 12.000000 -1.529480E+01
2.000000 10.000000 -4.039484E+01
2.000000 8.000000 -6.841548E+01
2.000000 6.000000 -7.710514E+01
2.000000 4.000000 -5.929070E+01
2.000000 2.000000 -3.149755E+01
2.000000 0.000000 -1.327268E+01
2.000000 -2.000000 -8.005284E+00
2.000000 -4.000000 -1.411301E+01
2.000000 -6.000000 -2.677812E+01
2.000000 -8.000000 -3.179524E+01
2.000000 -10.000000 -2.820433E+01
2.000000 -12.000000 -1.612115E+01
2.000000 -14.000000 -2.862823E+00
2.000000 -16.000000 3.857329E+00
2.000000 -18.000000 5.187415E+00
2.000000 -20.000000 7.157957E+00
2.000000 -22.000000 6.515457E+00
2.000000 -24.000000 -1.153593E-01
2.000000 -26.000000 -8.745944E+00
2.000000 -28.000000 -1.476199E+01
2.000000 -30.000000 -1.559960E+01
2.000000 -32.000000 -8.046722E+00
2.000000 -34.000000 -1.153984E+00
2.000000 -36.000000 -8.171293E+00
2.000000 -38.000000 -2.484341E+01
2.000000 -40.000000 -3.926646E+01
4.000000 40.000000 -3.905933E+01
4.000000 38.000000 -4.464183E+01
4.000000 36.000000 -4.087636E+01
4.000000 34.000000 -2.469568E+01
4.000000 32.000000 -3.264299E+00
4.000000 30.000000 5.196465E+00
4.000000 28.000000 1.026422E+00
4.000000 26.000000 -1.150573E+01
4.000000 24.000000 -3.268122E+01
4.000000 22.000000 -5.041515E+01
4.000000 20.000000 -5.106348E+01
4.000000 18.000000 -3.098088E+01
4.000000 16.000000 -8.344991E+00
4.000000 14.000000 4.577799E+00
4.000000 12.000000 -1.692429E-01
4.000000 10.000000 -2.454084E+01
4.000000 8.000000 -6.100835E+01
4.000000 6.000000 -8.115681E+01
4.000000 4.000000 -7.338960E+01
4.000000 2.000000 -4.813101E+01
4.000000 0.000000 -2.742002E+01
4.000000 -2.000000 -1.644477E+01
4.000000 -4.000000 -1.934738E+01
4.000000 -6.000000 -3.327516E+01
4.000000 -8.000000 -4.132049E+01
4.000000 -10.000000 -4.087771E+01
4.000000 -12.000000 -2.872779E+01
4.000000 -14.000000 -1.367507E+01
4.000000 -16.000000 -5.984035E+00
4.000000 -18.000000 -3.864491E+00
4.000000 -20.000000 7.250786E-03
4.000000 -22.000000 3.617368E+00
4.000000 -24.000000 3.358897E+00
4.000000 -26.000000 6.981936E-01
4.000000 -28.000000 -4.295684E+00
4.000000 -30.000000 -6.664723E+00
4.000000 -32.000000 -2.649261E+00
4.000000 -34.000000 3.638735E-01
4.000000 -36.000000 -1.092349E+01
4.000000 -38.000000 -2.932236E+01
4.000000 -40.000000 -4.509253E+01
6.000000 40.000000 -3.782244E+01
6.000000 38.000000 -4.461834E+01
6.000000 36.000000 -4.395132E+01
6.000000 34.000000 -3.169039E+01
6.000000 32.000000 -9.424639E+00
6.000000 30.000000 2.423210E+00
6.000000 28.000000 3.040047E+00
6.000000 26.000000 -3.626120E+00
6.000000 24.000000 -2.042416E+01
6.000000 22.000000 -3.603360E+01
6.000000 20.000000 -3.129763E+01
6.000000 18.000000 -1.006508E+01
6.000000 16.000000 8.070559E+00
6.000000 14.000000 1.631397E+01
6.000000 12.000000 5.838608E+00
6.000000 10.000000 -2.661662E+01
6.000000 8.000000 -7.459170E+01
6.000000 6.000000 -1.066487E+02
6.000000 4.000000 -1.022416E+02
6.000000 2.000000 -6.847263E+01
6.000000 0.000000 -3.375460E+01
6.000000 -2.000000 -9.678585E+00
6.000000 -4.000000 -6.186582E+00
6.000000 -6.000000 -2.369331E+01
6.000000 -8.000000 -3.914504E+01
6.000000 -10.000000 -4.563820E+01
6.000000 -12.000000 -3.681840E+01
6.000000 -14.000000 -2.444522E+01
6.000000 -16.000000 -1.600692E+01
6.000000 -18.000000 -1.145402E+01
6.000000 -20.000000 -6.440449E+00
6.000000 -22.000000 -7.639627E-01
6.000000 -24.000000 3.892808E+00
6.000000 -26.000000 5.398059E+00
6.000000 -28.000000 -2.489076E-01
6.000000 -30.000000 -3.781221E+00
6.000000 -32.000000 -1.560378E+00
6.000000 -34.000000 -2.233901E+00
6.000000 -36.000000 -1.723420E+01
6.000000 -38.000000 -3.617179E+01
6.000000 -40.000000 -5.147018E+01
8.000000 40.000000 -3.626503E+01
8.000000 38.000000 -4.314666E+01
8.000000 36.000000 -4.393109E+01
8.000000 34.000000 -3.456829E+01
8.000000 32.000000 -1.337344E+01
8.000000 30.000000 -3.179059E-01
8.000000 28.000000 2.610254E+00
8.000000 26.000000 8.896904E-01
8.000000 24.000000 -9.995385E+00
8.000000 22.000000 -2.010274E+01
8.000000 20.000000 -9.389019E+00
8.000000 18.000000 1.101849E+01
8.000000 16.000000 1.949532E+01
8.000000 14.000000 1.710045E+01
8.000000 12.000000 -1.588539E+00
8.000000 10.000000 -4.437234E+01
8.000000 8.000000 -1.009571E+02
8.000000 6.000000 -1.412876E+02
8.000000 4.000000 -1.346548E+02
8.000000 2.000000 -8.631400E+01
8.000000 0.000000 -3.208232E+01
8.000000 -2.000000 9.876029E+00
8.000000 -4.000000 2.339258E+01
8.000000 -6.000000 4.190435E+00
8.000000 -8.000000 -2.047496E+01
8.000000 -10.000000 -3.642615E+01
8.000000 -12.000000 -3.394416E+01
8.000000 -14.000000 -2.609980E+01
8.000000 -16.000000 -1.956891E+01
8.000000 -18.000000 -1.555290E+01
8.000000 -20.000000 -1.107349E+01
8.000000 -22.000000 -6.154372E+00
8.000000 -24.000000 -6.033216E-01
8.000000 -26.000000 1.102018E+00
8.000000 -28.000000 -5.829171E+00
8.000000 -30.000000 -1.028310E+01
8.000000 -32.000000 -8.107678E+00
8.000000 -34.000000 -8.753820E+00
8.000000 -36.000000 -2.445376E+01
8.000000 -38.000000 -4.349869E+01
8.000000 -40.000000 -5.797475E+01
10.000000 40.000000 -3.425269E+01
10.000000 38.000000 -4.088231E+01
10.000000 36.000000 -4.207830E+01
10.000000 34.000000 -3.309603E+01
10.000000 32.000000 -1.219442E+01
10.000000 30.000000 1.210025E+00
10.000000 28.000000 3.347450E+00
10.000000 26.000000 9.086037E-02
10.000000 24.000000 -9.337910E+00
10.000000 22.000000 -1.460453E+01
10.000000 20.000000 -5.704670E-01
10.000000 18.000000 1.727996E+01
10.000000 16.000000 1.906998E+01
10.000000 14.000000 9.749058E+00
10.000000 12.000000 -1.493320E+01
10.000000 10.000000 -6.555006E+01
10.000000 8.000000 -1.272433E+02
10.000000 6.000000 -1.728427E+02
10.000000 4.000000 -1.637831E+02
10.000000 2.000000 -1.029270E+02
10.000000 0.000000 -2.897358E+01
10.000000 -2.000000 3.391510E+01
10.000000 -4.000000 6.242950E+01
10.000000 -6.000000 4.577346E+01
10.000000 -8.000000 1.325370E+01
10.000000 -10.000000 -1.087702E+01
10.000000 -12.000000 -1.614112E+01
10.000000 -14.000000 -1.395345E+01
10.000000 -16.000000 -1.379436E+01
10.000000 -18.000000 -1.607601E+01
10.000000 -20.000000 -1.555422E+01
10.000000 -22.000000 -1.274875E+01
10.000000 -24.000000 -9.109051E+00
10.000000 -26.000000 -9.105265E+00
10.000000 -28.000000 -1.737969E+01
10.000000 -30.000000 -2.304343E+01
10.000000 -32.000000 -2.089499E+01
10.000000 -34.000000 -2.015195E+01
10.000000 -36.000000 -3.382154E+01
10.000000 -38.000000 -5.025014E+01
10.000000 -40.000000 -6.316193E+01
12.000000 40.000000 -3.228966E+01
12.000000 38.000000 -3.882867E+01
12.000000 36.000000 -3.957497E+01
12.000000 34.000000 -2.953842E+01
12.000000 32.000000 -7.773313E+00
12.000000 30.000000 5.335346E+00
12.000000 28.000000 5.818653E+00
12.000000 26.000000 -2.225467E+00
12.000000 24.000000 -1.585336E+01
12.000000 22.000000 -2.115326E+01
12.000000 20.000000 -9.116592E+00
12.000000 18.000000 5.446350E+00
12.000000 16.000000 8.122114E+00
12.000000 14.000000 1.263920E+00
12.000000 12.000000 -2.264628E+01
12.000000 10.000000 -7.321365E+01
12.000000 8.000000 -1.359665E+02
12.000000 6.000000 -1.859906E+02
12.000000 4.000000 -1.819363E+02
12.000000 2.000000 -1.196425E+02
12.000000 0.000000 -3.475408E+01
12.000000 -2.000000 4.526267E+01
12.000000 -4.000000 9.079973E+01
12.000000 -6.000000 8.160022E+01
12.000000 -8.000000 4.774088E+01
12.000000 -10.000000 2.374599E+01
12.000000 -12.000000 1.504547E+01
12.000000 -14.000000 1.132743E+01
12.000000 -16.000000 1.046990E+00
12.000000 -18.000000 -1.209518E+01
12.000000 -20.000000 -1.868858E+01
12.000000 -22.000000 -1.981201E+01
12.000000 -24.000000 -1.948369E+01
12.000000 -26.000000 -2.128449E+01
12.000000 -28.000000 -2.931300E+01
12.000000 -30.000000 -3.521658E+01
12.000000 -32.000000 -3.340630E+01
12.000000 -34.000000 -3.299018E+01
12.000000 -36.000000 -4.486410E+01
12.000000 -38.000000 -5.694912E+01
12.000000 -40.000000 -6.736401E+01
14.000000 40.000000 -3.117475E+01
14.000000 38.000000 -3.763573E+01
14.000000 36.000000 -3.742127E+01
14.000000 34.000000 -2.617269E+01
14.000000 32.000000 -3.988018E+00
14.000000 30.000000 8.267172E+00
14.000000 28.000000 7.415927E+00
14.000000 26.000000 -3.862308E+00
14.000000 24.000000 -2.228517E+01
14.000000 22.000000 -3.194704E+01
14.000000 20.000000 -2.625649E+01
14.000000 18.000000 -1.322123E+01
14.000000 16.000000 -2.988181E+00
14.000000 14.000000 -9.280667E-01
14.000000 12.000000 -1.680313E+01
14.000000 10.000000 -5.929842E+01
14.000000 8.000000 -1.197483E+02
14.000000 6.000000 -1.733203E+02
14.000000 4.000000 -1.823091E+02
14.000000 2.000000 -1.320184E+02
14.000000 0.000000 -5.044009E+01
14.000000 -2.000000 3.500220E+01
14.000000 -4.000000 9.010137E+01
14.000000 -6.000000 8.988324E+01
14.000000 -8.000000 6.448813E+01
14.000000 -10.000000 5.108127E+01
14.000000 -12.000000 4.798420E+01
14.000000 -14.000000 4.113077E+01
14.000000 -16.000000 2.024555E+01
14.000000 -18.000000 -3.882758E+00
14.000000 -20.000000 -1.776757E+01
14.000000 -22.000000 -2.363425E+01
14.000000 -24.000000 -2.689887E+01
14.000000 -26.000000 -3.013535E+01
14.000000 -28.000000 -3.711276E+01
14.000000 -30.000000 -4.248647E+01
14.000000 -32.000000 -4.091549E+01
14.000000 -34.000000 -4.087514E+01
14.000000 -36.000000 -5.284102E+01
14.000000 -38.000000 -6.381629E+01
14.000000 -40.000000 -7.257626E+01
16.000000 40.000000 -3.164038E+01
16.000000 38.000000 -3.781922E+01
16.000000 36.000000 -3.591843E+01
16.000000 34.000000 -2.300006E+01
16.000000 32.000000 -1.630943E+00
16.000000 30.000000 8.903016E+00
16.000000 28.000000 5.874796E+00
16.000000 26.000000 -6.903876E+00
16.000000 24.000000 -2.632636E+01
16.000000 22.000000 -3.853376E+01
16.000000 20.000000 -3.599310E+01
16.000000 18.000000 -2.095470E+01
16.000000 16.000000 -3.160158E+00
16.000000 14.000000 7.010358E+00
16.000000 12.000000 -1.080909E+00
16.000000 10.000000 -3.504881E+01
16.000000 8.000000 -9.271748E+01
16.000000 6.000000 -1.474750E+02
16.000000 4.000000 -1.685654E+02
16.000000 2.000000 -1.353358E+02
16.000000 0.000000 -6.725635E+01
16.000000 -2.000000 1.045620E+01
16.000000 -4.000000 6.286378E+01
16.000000 -6.000000 6.820886E+01
16.000000 -8.000000 5.840153E+01
16.000000 -10.000000 6.192903E+01
16.000000 -12.000000 7.185851E+01
16.000000 -14.000000 6.736053E+01
16.000000 -16.000000 4.012773E+01
16.000000 -18.000000 7.311478E+00
16.000000 -20.000000 -1.287026E+01
16.000000 -22.000000 -2.257098E+01
16.000000 -24.000000 -2.876804E+01
16.000000 -26.000000 -3.274094E+01
16.000000 -28.000000 -3.933612E+01
16.000000 -30.000000 -4.476597E+01
16.000000 -32.000000 -4.323957E+01
16.000000 -34.000000 -4.257585E+01
16.000000 -36.000000 -5.585989E+01
16.000000 -38.000000 -6.896837E+01
16.000000 -40.000000 -7.767923E+01
18.000000 40.000000 -3.452441E+01
18.000000 38.000000 -3.993166E+01
18.000000 36.000000 -3.488142E+01
18.000000 34.000000 -1.912608E+01
18.000000 32.000000 1.083980E+00
18.000000 30.000000 8.674824E+00
18.000000 28.000000 2.577620E+00
18.000000 26.000000 -1.070244E+01
18.000000 24.000000 -2.815157E+01
18.000000 22.000000 -3.887785E+01
18.000000 20.000000 -3.374960E+01
18.000000 18.000000 -1.431290E+01
18.000000 16.000000 7.231903E+00
18.000000 14.000000 2.091943E+01
18.000000 12.000000 1.504728E+01
18.000000 10.000000 -1.596029E+01
18.000000 8.000000 -7.243467E+01
18.000000 6.000000 -1.272178E+02
18.000000 4.000000 -1.554245E+02
18.000000 2.000000 -1.361780E+02
18.000000 0.000000 -8.287803E+01
18.000000 -2.000000 -1.661302E+01
18.000000 -4.000000 2.882563E+01
18.000000 -6.000000 3.722169E+01
18.000000 -8.000000 4.445835E+01
18.000000 -10.000000 6.673429E+01
18.000000 -12.000000 9.077154E+01
18.000000 -14.000000 9.083565E+01
18.000000 -16.000000 5.965968E+01
18.000000 -18.000000 1.881840E+01
18.000000 -20.000000 -7.785109E+00
18.000000 -22.000000 -2.024285E+01
18.000000 -24.000000 -2.751954E+01
18.000000 -26.000000 -3.153560E+01
18.000000 -28.000000 -3.810669E+01
18.000000 -30.000000 -4.315751E+01
18.000000 -32.000000 -4.136113E+01
18.000000 -34.000000 -4.065890E+01
18.000000 -36.000000 -5.508509E+01
18.000000 -38.000000 -7.031841E+01
18.000000 -40.000000 -8.076803E+01
20.000000 40.000000 -3.849000E+01
20.000000 38.000000 -4.284112E+01
20.000000 36.000000 -3.389500E+01
20.000000 34.000000 -1.418866E+01
20.000000 32.000000 4.993471E+00
20.000000 30.000000 8.553773E+00
20.000000 28.000000 -1.327648E+00
20.000000 26.000000 -1.533386E+01
20.000000 24.000000 -3.126762E+01
20.000000 22.000000 -3.909823E+01
20.000000 20.000000 -2.837901E+01
20.000000 18.000000 -4.319153E+00
20.000000 16.000000 1.731217E+01
20.000000 14.000000 2.967387E+01
20.000000 12.000000 2.132783E+01
20.000000 10.000000 -1.201738E+01
20.000000 8.000000 -6.948546E+01
20.000000 6.000000 -1.250858E+02
20.000000 4.000000 -1.550894E+02
20.000000 2.000000 -1.425028E+02
20.000000 0.000000 -9.894307E+01
20.000000 -2.000000 -3.797769E+01
20.000000 -4.000000 9.630396E+00
20.000000 -6.000000 3.047524E+01
20.000000 -8.000000 5.290040E+01
20.000000 -10.000000 8.577099E+01
20.000000 -12.000000 1.146583E+02
20.000000 -14.000000 1.141166E+02
20.000000 -16.000000 7.627098E+01
20.000000 -18.000000 2.569534E+01
20.000000 -20.000000 -8.851652E+00
20.000000 -22.000000 -2.289690E+01
20.000000 -24.000000 -2.759520E+01
20.000000 -26.000000 -2.950190E+01
20.000000 -28.000000 -3.502209E+01
20.000000 -30.000000 -3.840768E+01
20.000000 -32.000000 -3.597546E+01
20.000000 -34.000000 -3.600908E+01
20.000000 -36.000000 -5.128330E+01
20.000000 -38.000000 -6.863709E+01
20.000000 -40.000000 -8.248675E+01
22.000000 40.000000 -4.096629E+01
22.000000 38.000000 -4.432131E+01
22.000000 36.000000 -3.224892E+01
22.000000 34.000000 -9.041622E+00
22.000000 32.000000 8.870044E+00
22.000000 30.000000 7.807360E+00
22.000000 28.000000 -6.343734E+00
22.000000 26.000000 -2.211061E+01
22.000000 24.000000 -3.869872E+01
22.000000 22.000000 -4.553968E+01
22.000000 20.000000 -3.250233E+01
22.000000 18.000000 -7.959956E+00
22.000000 16.000000 1.175493E+01
22.000000 14.000000 2.215628E+01
22.000000 12.000000 1.165291E+01
22.000000 10.000000 -2.219212E+01
22.000000 8.000000 -7.793546E+01
22.000000 6.000000 -1.338677E+02
22.000000 4.000000 -1.645808E+02
22.000000 2.000000 -1.540181E+02
22.000000 0.000000 -1.115904E+02
22.000000 -2.000000 -4.512779E+01
22.000000 -4.000000 1.705697E+01
22.000000 -6.000000 5.929029E+01
22.000000 -8.000000 9.257079E+01
22.000000 -10.000000 1.263210E+02
22.000000 -12.000000 1.476598E+02
22.000000 -14.000000 1.369827E+02
22.000000 -16.000000 8.688549E+01
22.000000 -18.000000 2.498167E+01
22.000000 -20.000000 -1.698533E+01
22.000000 -22.000000 -3.158153E+01
22.000000 -24.000000 -3.107632E+01
22.000000 -26.000000 -2.779131E+01
22.000000 -28.000000 -3.018635E+01
22.000000 -30.000000 -3.167376E+01
22.000000 -32.000000 -2.859978E+01
22.000000 -34.000000 -2.970471E+01
22.000000 -36.000000 -4.634253E+01
22.000000 -38.000000 -6.638231E+01
22.000000 -40.000000 -8.370971E+01
24.000000 40.000000 -4.087231E+01
24.000000 38.000000 -4.412796E+01
24.000000 36.000000 -3.102242E+01
24.000000 34.000000 -6.994816E+00
24.000000 32.000000 1.004767E+01
24.000000 30.000000 6.064778E+00
24.000000 28.000000 -1.149571E+01
24.000000 26.000000 -2.934075E+01
24.000000 24.000000 -4.891948E+01
24.000000 22.000000 -5.774935E+01
24.000000 20.000000 -4.829934E+01
24.000000 18.000000 -2.850177E+01
24.000000 16.000000 -1.137865E+01
24.000000 14.000000 -1.685322E+00
24.000000 12.000000 -1.069429E+01
24.000000 10.000000 -4.042967E+01
24.000000 8.000000 -9.028105E+01
24.000000 6.000000 -1.439713E+02
24.000000 4.000000 -1.760825E+02
24.000000 2.000000 -1.641776E+02
24.000000 0.000000 -1.137270E+02
24.000000 -2.000000 -3.312706E+01
24.000000 -4.000000 4.744683E+01
24.000000 -6.000000 1.067913E+02
24.000000 -8.000000 1.449284E+02
24.000000 -10.000000 1.756579E+02
24.000000 -12.000000 1.836921E+02
24.000000 -14.000000 1.573846E+02
24.000000 -16.000000 9.273070E+01
24.000000 -18.000000 2.029029E+01
24.000000 -20.000000 -2.668272E+01
24.000000 -22.000000 -4.113528E+01
24.000000 -24.000000 -3.567794E+01
24.000000 -26.000000 -2.764895E+01
24.000000 -28.000000 -2.578850E+01
24.000000 -30.000000 -2.465528E+01
24.000000 -32.000000 -2.213313E+01
24.000000 -34.000000 -2.488467E+01
24.000000 -36.000000 -4.271699E+01
24.000000 -38.000000 -6.514795E+01
24.000000 -40.000000 -8.483290E+01
26.000000 40.000000 -3.828658E+01
26.000000 38.000000 -4.289346E+01
26.000000 36.000000 -3.217151E+01
26.000000 34.000000 -1.098925E+01
26.000000 32.000000 6.024619E+00
26.000000 30.000000 3.227731E+00
26.000000 28.000000 -1.425457E+01
26.000000 26.000000 -3.395001E+01
26.000000 24.000000 -5.708139E+01
26.000000 22.000000 -6.795377E+01
26.000000 20.000000 -6.371742E+01
26.000000 18.000000 -4.913022E+01
26.000000 16.000000 -3.518108E+01
26.000000 14.000000 -2.862452E+01
26.000000 12.000000 -3.657021E+01
26.000000 10.000000 -6.338360E+01
26.000000 8.000000 -1.091243E+02
26.000000 6.000000 -1.591216E+02
26.000000 4.000000 -1.876957E+02
26.000000 2.000000 -1.677258E+02
26.000000 0.000000 -1.029353E+02
26.000000 -2.000000 -4.404393E+00
26.000000 -4.000000 9.228805E+01
26.000000 -6.000000 1.581351E+02
26.000000 -8.000000 1.920909E+02
26.000000 -10.000000 2.149159E+02
26.000000 -12.000000 2.094501E+02
26.000000 -14.000000 1.699099E+02
26.000000 -16.000000 9.319332E+01
26.000000 -18.000000 1.253146E+01
26.000000 -20.000000 -3.756039E+01
26.000000 -22.000000 -5.041334E+01
26.000000 -24.000000 -3.937176E+01
26.000000 -26.000000 -2.724971E+01
26.000000 -28.000000 -2.361214E+01
26.000000 -30.000000 -2.079519E+01
26.000000 -32.000000 -1.974796E+01
26.000000 -34.000000 -2.391073E+01
26.000000 -36.000000 -4.175802E+01
26.000000 -38.000000 -6.446338E+01
26.000000 -40.000000 -8.453720E+01
28.000000 40.000000 -3.424894E+01
28.000000 38.000000 -4.201401E+01
28.000000 36.000000 -3.668672E+01
28.000000 34.000000 -1.996930E+01
28.000000 32.000000 -2.121763E+00
28.000000 30.000000 -3.743076E-01
28.000000 28.000000 -1.320949E+01
28.000000 26.000000 -3.192076E+01
28.000000 24.000000 -5.534002E+01
28.000000 22.000000 -6.722037E+01
28.000000 20.000000 -6.608117E+01
28.000000 18.000000 -5.597034E+01
28.000000 16.000000 -4.745356E+01
28.000000 14.000000 -4.583700E+01
28.000000 12.000000 -5.580162E+01
28.000000 10.000000 -8.458911E+01
28.000000 8.000000 -1.292490E+02
28.000000 6.000000 -1.753767E+02
28.000000 4.000000 -1.946776E+02
28.000000 2.000000 -1.614455E+02
28.000000 0.000000 -8.161987E+01
28.000000 -2.000000 3.162059E+01
28.000000 -4.000000 1.365521E+02
28.000000 -6.000000 1.967678E+02
28.000000 -8.000000 2.185266E+02
28.000000 -10.000000 2.298040E+02
28.000000 -12.000000 2.149220E+02
28.000000 -14.000000 1.689273E+02
28.000000 -16.000000 8.635367E+01
28.000000 -18.000000 9.483280E-01
28.000000 -20.000000 -5.122492E+01
28.000000 -22.000000 -6.271068E+01
28.000000 -24.000000 -4.552677E+01
28.000000 -26.000000 -2.652409E+01
28.000000 -28.000000 -2.246837E+01
28.000000 -30.000000 -2.045586E+01
28.000000 -32.000000 -2.138547E+01
28.000000 -34.000000 -2.671241E+01
28.000000 -36.000000 -4.353283E+01
28.000000 -38.000000 -6.331975E+01
28.000000 -40.000000 -8.143842E+01
30.000000 40.000000 -3.077457E+01
30.000000 38.000000 -4.238244E+01
30.000000 36.000000 -4.344402E+01
30.000000 34.000000 -3.082028E+01
30.000000 32.000000 -1.133505E+01
30.000000 30.000000 -3.604057E+00
30.000000 28.000000 -8.172791E+00
30.000000 26.000000 -2.015790E+01
30.000000 24.000000 -3.809509E+01
30.000000 22.000000 -4.991464E+01
30.000000 20.000000 -5.138063E+01
30.000000 18.000000 -4.745944E+01
30.000000 16.000000 -4.556670E+01
30.000000 14.000000 -4.906174E+01
30.000000 12.000000 -6.343732E+01
30.000000 10.000000 -9.632940E+01
30.000000 8.000000 -1.385647E+02
30.000000 6.000000 -1.793899E+02
30.000000 4.000000 -1.892076E+02
30.000000 2.000000 -1.451417E+02
30.000000 0.000000 -5.819628E+01
30.000000 -2.000000 5.707836E+01
30.000000 -4.000000 1.574377E+02
30.000000 -6.000000 2.053008E+02
30.000000 -8.000000 2.153760E+02
30.000000 -10.000000 2.185701E+02
30.000000 -12.000000 2.022552E+02
30.000000 -14.000000 1.573102E+02
30.000000 -16.000000 7.581395E+01
30.000000 -18.000000 -1.128973E+01
30.000000 -20.000000 -6.682203E+01
30.000000 -22.000000 -7.907576E+01
30.000000 -24.000000 -5.689370E+01
30.000000 -26.000000 -3.033752E+01
30.000000 -28.000000 -2.285972E+01
30.000000 -30.000000 -2.048954E+01
30.000000 -32.000000 -2.343509E+01
30.000000 -34.000000 -2.956900E+01
30.000000 -36.000000 -4.528622E+01
30.000000 -38.000000 -6.200102E+01
30.000000 -40.000000 -7.711452E+01
32.000000 40.000000 -2.954918E+01
32.000000 38.000000 -4.261272E+01
32.000000 36.000000 -4.782160E+01
32.000000 34.000000 -3.867872E+01
32.000000 32.000000 -1.823816E+01
32.000000 30.000000 -4.341120E+00
32.000000 28.000000 9.209709E-01
32.000000 26.000000 -9.160938E-01
32.000000 24.000000 -1.014358E+01
32.000000 22.000000 -2.278036E+01
32.000000 20.000000 -2.851607E+01
32.000000 18.000000 -3.160919E+01
32.000000 16.000000 -3.534541E+01
32.000000 14.000000 -4.282420E+01
32.000000 12.000000 -6.011700E+01
32.000000 10.000000 -9.363125E+01
32.000000 8.000000 -1.298147E+02
32.000000 6.000000 -1.617177E+02
32.000000 4.000000 -1.644111E+02
32.000000 2.000000 -1.189489E+02
32.000000 0.000000 -3.878888E+01
32.000000 -2.000000 6.224039E+01
32.000000 -4.000000 1.463341E+02
32.000000 -6.000000 1.817287E+02
32.000000 -8.000000 1.858057E+02
32.000000 -10.000000 1.877398E+02
32.000000 -12.000000 1.776684E+02
32.000000 -14.000000 1.406517E+02
32.000000 -16.000000 6.526145E+01
32.000000 -18.000000 -2.106324E+01
32.000000 -20.000000 -8.020140E+01
32.000000 -22.000000 -9.452787E+01
32.000000 -24.000000 -7.008190E+01
32.000000 -26.000000 -3.833788E+01
32.000000 -28.000000 -2.624534E+01
32.000000 -30.000000 -2.147304E+01
32.000000 -32.000000 -2.381030E+01
32.000000 -34.000000 -2.885744E+01
32.000000 -36.000000 -4.363148E+01
32.000000 -38.000000 -5.993444E+01
32.000000 -40.000000 -7.317606E+01
34.000000 40.000000 -3.100175E+01
34.000000 38.000000 -4.210757E+01
34.000000 36.000000 -4.581703E+01
34.000000 34.000000 -3.755640E+01
34.000000 32.000000 -1.802830E+01
34.000000 30.000000 -9.771519E-01
34.000000 28.000000 1.121532E+01
34.000000 26.000000 1.650652E+01
34.000000 24.000000 1.396566E+01
34.000000 22.000000 -2.690563E-01
34.000000 20.000000 -9.887415E+00
34.000000 18.000000 -1.675877E+01
34.000000 16.000000 -2.272782E+01
34.000000 14.000000 -3.093456E+01
34.000000 12.000000 -4.718306E+01
34.000000 10.000000 -7.645824E+01
34.000000 8.000000 -1.051281E+02
34.000000 6.000000 -1.278160E+02
34.000000 4.000000 -1.254350E+02
34.000000 2.000000 -8.602717E+01
34.000000 0.000000 -2.194827E+01
34.000000 -2.000000 5.551940E+01
34.000000 -4.000000 1.168052E+02
34.000000 -6.000000 1.392732E+02
34.000000 -8.000000 1.407606E+02
34.000000 -10.000000 1.446480E+02
34.000000 -12.000000 1.442949E+02
34.000000 -14.000000 1.203010E+02
34.000000 -16.000000 5.691629E+01
34.000000 -18.000000 -2.402230E+01
34.000000 -20.000000 -8.399197E+01
34.000000 -22.000000 -1.011658E+02
34.000000 -24.000000 -7.900954E+01
34.000000 -26.000000 -4.613823E+01
34.000000 -28.000000 -3.111513E+01
34.000000 -30.000000 -2.366585E+01
34.000000 -32.000000 -2.250171E+01
34.000000 -34.000000 -2.531929E+01
34.000000 -36.000000 -3.911185E+01
34.000000 -38.000000 -5.618975E+01
34.000000 -40.000000 -6.965544E+01
36.000000 40.000000 -3.290880E+01
36.000000 38.000000 -4.061664E+01
36.000000 36.000000 -3.889655E+01
36.000000 34.000000 -2.795358E+01
36.000000 32.000000 -1.038983E+01
36.000000 30.000000 3.447411E+00
36.000000 28.000000 1.457956E+01
36.000000 26.000000 2.068454E+01
36.000000 24.000000 2.190353E+01
36.000000 22.000000 1.080584E+01
36.000000 20.000000 3.261623E+00
36.000000 18.000000 -4.939938E-01
36.000000 16.000000 -3.358431E+00
36.000000 14.000000 -8.801079E+00
36.000000 12.000000 -2.271489E+01
36.000000 10.000000 -4.776237E+01
36.000000 8.000000 -7.180565E+01
36.000000 6.000000 -8.942394E+01
36.000000 4.000000 -8.579031E+01
36.000000 2.000000 -5.416495E+01
36.000000 0.000000 -6.862686E+00
36.000000 -2.000000 4.543233E+01
36.000000 -4.000000 8.211957E+01
36.000000 -6.000000 9.044950E+01
36.000000 -8.000000 8.884878E+01
36.000000 -10.000000 9.463659E+01
36.000000 -12.000000 1.053797E+02
36.000000 -14.000000 9.701697E+01
36.000000 -16.000000 5.133314E+01
36.000000 -18.000000 -1.687585E+01
36.000000 -20.000000 -7.193924E+01
36.000000 -22.000000 -9.141198E+01
36.000000 -24.000000 -7.629325E+01
36.000000 -26.000000 -4.885862E+01
36.000000 -28.000000 -3.418641E+01
36.000000 -30.000000 -2.518339E+01
36.000000 -32.000000 -2.052480E+01
36.000000 -34.000000 -2.185469E+01
36.000000 -36.000000 -3.496847E+01
36.000000 -38.000000 -5.191010E+01
36.000000 -40.000000 -6.608934E+01
38.000000 40.000000 -3.218025E+01
38.000000 38.000000 -3.692550E+01
38.000000 36.000000 -3.080503E+01
38.000000 34.000000 -1.665978E+01
38.000000 32.000000 -8.791733E-01
38.000000 30.000000 5.339794E+00
38.000000 28.000000 7.567757E+00
38.000000 26.000000 8.854533E+00
38.000000 24.000000 1.173808E+01
38.000000 22.000000 1.023070E+01
38.000000 20.000000 1.327345E+01
38.000000 18.000000 1.946356E+01
38.000000 16.000000 2.454596E+01
38.000000 14.000000 2.492514E+01
38.000000 12.000000 1.258227E+01
38.000000 10.000000 -1.135003E+01
38.000000 8.000000 -3.589828E+01
38.000000 6.000000 -5.268509E+01
38.000000 4.000000 -5.080014E+01
38.000000 2.000000 -2.592622E+01
38.000000 0.000000 6.144657E+00
38.000000 -2.000000 3.525437E+01
38.000000 -4.000000 4.825102E+01
38.000000 -6.000000 4.224825E+01
38.000000 -8.000000 3.677697E+01
38.000000 -10.000000 4.214803E+01
38.000000 -12.000000 6.096624E+01
38.000000 -14.000000 6.834878E+01
38.000000 -16.000000 4.562654E+01
38.000000 -18.000000 -5.326672E-01
38.000000 -20.000000 -4.237260E+01
38.000000 -22.000000 -6.146364E+01
38.000000 -24.000000 -5.729254E+01
38.000000 -26.000000 -4.266886E+01
38.000000 -28.000000 -3.403837E+01
38.000000 -30.000000 -2.656571E+01
38.000000 -32.000000 -2.026045E+01
38.000000 -34.000000 -1.998186E+01
38.000000 -36.000000 -3.188616E+01
38.000000 -38.000000 -4.753736E+01
38.000000 -40.000000 -6.166717E+01
40.000000 40.000000 -3.013679E+01
40.000000 38.000000 -3.214489E+01
40.000000 36.000000 -2.282944E+01
40.000000 34.000000 -6.065886E+00
40.000000 32.000000 8.214840E+00
40.000000 30.000000 6.309385E+00
40.000000 28.000000 -2.704977E+00
40.000000 26.000000 -9.018076E+00
40.000000 24.000000 -8.500326E+00
40.000000 22.000000 1.258049E-01
40.000000 20.000000 1.711137E+01
40.000000 18.000000 3.586082E+01
40.000000 16.000000 4.855716E+01
40.000000 14.000000 5.409469E+01
40.000000 12.000000 4.455388E+01
40.000000 10.000000 2.330312E+01
40.000000 8.000000 -2.222006E+00
40.000000 6.000000 -1.914771E+01
40.000000 4.000000 -1.916347E+01
40.000000 2.000000 -2.366064E+00
40.000000 0.000000 1.548447E+01
40.000000 -2.000000 2.511491E+01
40.000000 -4.000000 2.050611E+01
40.000000 -6.000000 4.356409E+00
40.000000 -8.000000 -6.037970E+00
40.000000 -10.000000 -4.703478E+00
40.000000 -12.000000 1.596538E+01
40.000000 -14.000000 3.570685E+01
40.000000 -16.000000 3.844887E+01
40.000000 -18.000000 2.114075E+01
40.000000 -20.000000 -1.071987E+00
40.000000 -22.000000 -1.718829E+01
