-22.000000 -22.000000 1.946643E+01
-22.000000 -24.000000 2.286419E+01
-22.000000 -26.000000 2.294124E+01
-22.000000 -28.000000 2.325633E+01
-22.000000 -30.000000 2.163096E+01
-22.000000 -32.000000 1.704358E+01
-22.000000 -34.000000 1.067202E+01
-22.000000 -36.000000 1.156280E+01
-22.000000 -38.000000 2.362819E+01
-22.000000 -40.000000 4.544586E+01
-20.000000 40.000000 2.620707E+01
-20.000000 38.000000 3.929767E+01
-20.000000 36.000000 4.520742E+01
-20.000000 34.000000 4.429041E+01
-20.000000 32.000000 4.512775E+01
-20.000000 30.000000 5.369152E+01
-20.000000 28.000000 6.002410E+01
-20.000000 26.000000 6.507216E+01
-20.000000 24.000000 6.587534E+01
-20.000000 22.000000 6.521350E+01
-20.000000 20.000000 6.558518E+01
-20.000000 18.000000 6.722455E+01
-20.000000 16.000000 6.848845E+01
-20.000000 14.000000 6.285861E+01
-20.000000 12.000000 4.534120E+01
-20.000000 10.000000 1.807499E+01
-20.000000 8.000000 -8.312920E+00
-20.000000 6.000000 -2.333500E+01
-20.000000 4.000000 -2.318636E+01
-20.000000 2.000000 -1.666881E+01
-20.000000 0.000000 -1.390382E+01
-20.000000 -2.000000 -1.043165E+01
-20.000000 -4.000000 -5.918279E+00
-20.000000 -6.000000 -2.370441E+00
-20.000000 -8.000000 4.945841E-01
-20.000000 -10.000000 1.980676E+00
-20.000000 -12.000000 -6.327231E-01
-20.000000 -14.000000 -7.013477E+00
-20.000000 -16.000000 -8.888326E+00
-20.000000 -18.000000 -3.056236E+00
-20.000000 -20.000000 7.695348E+00
-20.000000 -22.000000 1.753781E+01
-20.000000 -24.000000 2.440561E+01
-20.000000 -26.000000 2.883950E+01
-20.000000 -28.000000 3.233932E+01
-20.000000 -30.000000 2.931527E+01
-20.000000 -32.000000 1.740506E+01
-20.000000 -34.000000 3.334396E+00
-20.000000 -36.000000 -4.345856E-01
-20.000000 -38.000000 1.062879E+01
-20.000000 -40.000000 3.221900E+01
-18.000000 40.000000 2.249280E+01
-18.000000 38.000000 3.712350E+01
-18.000000 36.000000 4.367984E+01
-18.000000 34.000000 4.186185E+01
-18.000000 32.000000 4.077303E+01
-18.000000 30.000000 4.605844E+01
-18.000000 28.000000 4.839697E+01
-18.000000 26.000000 4.986582E+01
-18.000000 24.000000 4.692169E+01
-18.000000 22.000000 4.605247E+01
-18.000000 20.000000 4.635608E+01
-18.000000 18.000000 4.972614E+01
-18.000000 16.000000 5.714847E+01
-18.000000 14.000000 5.978138E+01
-18.000000 12.000000 5.195921E+01
-18.000000 10.000000 3.209012E+01
-18.000000 8.000000 6.049114E+00
-18.000000 6.000000 -1.245413E+01
-18.000000 4.000000 -1.680367E+01
-18.000000 2.000000 -1.356941E+01
-18.000000 0.000000 -1.264836E+01
-18.000000 -2.000000 -8.701931E+00
-18.000000 -4.000000 -8.915486E-01
-18.000000 -6.000000 3.245438E+00
-18.000000 -8.000000 3.339258E+00
-18.000000 -10.000000 6.832330E-01
-18.000000 -12.000000 -8.172639E+00
-18.000000 -14.000000 -1.568999E+01
-18.000000 -16.000000 -1.500842E+01
-18.000000 -18.000000 -7.537515E+00
-18.000000 -20.000000 3.480404E+00
-18.000000 -22.000000 1.316971E+01
-18.000000 -24.000000 2.072643E+01
-18.000000 -26.000000 2.788628E+01
-18.000000 -28.000000 3.361458E+01
-18.000000 -30.000000 3.041164E+01
-18.000000 -32.000000 1.522098E+01
-18.000000 -34.000000 -2.500479E+00
-18.000000 -36.000000 -8.805740E+00
-18.000000 -38.000000 1.509120E+00
-18.000000 -40.000000 2.230482E+01
-16.000000 40.000000 1.582830E+01
-16.000000 38.000000 3.358185E+01
-16.000000 36.000000 4.325737E+01
-16.000000 34.000000 4.469753E+01
-16.000000 32.000000 4.320054E+01
-16.000000 30.000000 4.668453E+01
-16.000000 28.000000 4.770664E+01
-16.000000 26.000000 4.651397E+01
-16.000000 24.000000 3.856267E+01
-16.000000 22.000000 3.289295E+01
-16.000000 20.000000 3.128568E+01
-16.000000 18.000000 3.669947E+01
-16.000000 16.000000 4.877150E+01
-16.000000 14.000000 5.815427E+01
-16.000000 12.000000 5.933767E+01
-16.000000 10.000000 4.720008E+01
-16.000000 8.000000 2.260929E+01
-16.000000 6.000000 -1.652653E+00
-16.000000 4.000000 -1.439873E+01
-16.000000 2.000000 -1.486591E+01
-16.000000 0.000000 -1.365809E+01
-16.000000 -2.000000 -9.009394E+00
-16.000000 -4.000000 6.222692E-01
-16.000000 -6.000000 5.610136E+00
-16.000000 -8.000000 3.476363E+00
-16.000000 -10.000000 -1.593519E+00
-16.000000 -12.000000 -1.151577E+01
-16.000000 -14.000000 -1.856120E+01
-16.000000 -16.000000 -1.780116E+01
-16.000000 -18.000000 -1.153256E+01
-16.000000 -20.000000 -2.718534E+00
-16.000000 -22.000000 4.732409E+00
-16.000000 -24.000000 1.154832E+01
-16.000000 -26.000000 1.825120E+01
-16.000000 -28.000000 2.263541E+01
-16.000000 -30.000000 1.995276E+01
-16.000000 -32.000000 7.661363E+00
-16.000000 -34.000000 -8.458426E+00
-16.000000 -36.000000 -1.373695E+01
-16.000000 -38.000000 -2.573247E+00
-16.000000 -40.000000 1.910792E+01
-14.000000 40.000000 7.224276E+00
-14.000000 38.000000 2.904403E+01
-14.000000 36.000000 4.296374E+01
-14.000000 34.000000 5.001186E+01
-14.000000 32.000000 4.951981E+01
-14.000000 30.000000 5.285092E+01
-14.000000 28.000000 5.438722E+01
-14.000000 26.000000 5.130240E+01
-14.000000 24.000000 3.912704E+01
-14.000000 22.000000 2.677506E+01
-14.000000 20.000000 2.165000E+01
-14.000000 18.000000 2.740162E+01
-14.000000 16.000000 4.346380E+01
-14.000000 14.000000 6.198087E+01
-14.000000 12.000000 7.453775E+01
-14.000000 10.000000 7.244554E+01
-14.000000 8.000000 4.895885E+01
-14.000000 6.000000 1.677504E+01
-14.000000 4.000000 -9.091306E+00
-14.000000 2.000000 -2.017262E+01
-14.000000 0.000000 -2.353483E+01
-14.000000 -2.000000 -1.885942E+01
-14.000000 -4.000000 -7.677696E+00
-14.000000 -6.000000 1.613146E+00
-14.000000 -8.000000 9.348177E-01
-14.000000 -10.000000 -5.706576E+00
-14.000000 -12.000000 -1.629274E+01
-14.000000 -14.000000 -2.333517E+01
-14.000000 -16.000000 -2.332234E+01
-14.000000 -18.000000 -1.857985E+01
-14.000000 -20.000000 -1.203214E+01
-14.000000 -22.000000 -6.454805E+00
-14.000000 -24.000000 -2.920702E-01
-14.000000 -26.000000 4.547955E+00
-14.000000 -28.000000 6.494977E+00
-14.000000 -30.000000 3.953220E+00
-14.000000 -32.000000 -3.738384E+00
-14.000000 -34.000000 -1.468580E+01
-14.000000 -36.000000 -1.504561E+01
-14.000000 -38.000000 -2.020277E+00
-14.000000 -40.000000 2.153423E+01
-12.000000 40.000000 -2.434610E+00
-12.000000 38.000000 2.355236E+01
-12.000000 36.000000 4.247958E+01
-12.000000 34.000000 5.644065E+01
-12.000000 32.000000 5.907170E+01
-12.000000 30.000000 6.222656E+01
-12.000000 28.000000 6.206234E+01
-12.000000 26.000000 5.630950E+01
-12.000000 24.000000 4.238564E+01
-12.000000 22.000000 2.517107E+01
-12.000000 20.000000 1.460126E+01
-12.000000 18.000000 1.811306E+01
-12.000000 16.000000 3.796425E+01
-12.000000 14.000000 6.594966E+01
-12.000000 12.000000 9.061963E+01
-12.000000 10.000000 1.013497E+02
-12.000000 8.000000 8.095410E+01
-12.000000 6.000000 4.440550E+01
-12.000000 4.000000 4.858519E+00
-12.000000 2.000000 -2.175505E+01
-12.000000 0.000000 -3.540899E+01
-12.000000 -2.000000 -3.319752E+01
-12.000000 -4.000000 -2.080724E+01
-12.000000 -6.000000 -6.663426E+00
-12.000000 -8.000000 -3.700785E+00
-12.000000 -10.000000 -1.039301E+01
-12.000000 -12.000000 -2.417099E+01
-12.000000 -14.000000 -3.304419E+01
-12.000000 -16.000000 -3.354476E+01
-12.000000 -18.000000 -2.950611E+01
-12.000000 -20.000000 -2.381637E+01
-12.000000 -22.000000 -1.868203E+01
-12.000000 -24.000000 -1.245085E+01
-12.000000 -26.000000 -7.837121E+00
-12.000000 -28.000000 -6.363760E+00
-12.000000 -30.000000 -8.284756E+00
-12.000000 -32.000000 -1.308517E+01
-12.000000 -34.000000 -1.970415E+01
-12.000000 -36.000000 -1.539493E+01
-12.000000 -38.000000 1.760840E-01
-12.000000 -40.000000 2.688821E+01
-10.000000 40.000000 -1.256560E+01
-10.000000 38.000000 1.727496E+01
-10.000000 36.000000 4.128931E+01
-10.000000 34.000000 6.040462E+01
-10.000000 32.000000 6.654679E+01
-10.000000 30.000000 6.965707E+01
-10.000000 28.000000 6.666331E+01
-10.000000 26.000000 5.883911E+01
-10.000000 24.000000 4.565470E+01
-10.000000 22.000000 2.819459E+01
-10.000000 20.000000 1.340789E+01
-10.000000 18.000000 1.210730E+01
-10.000000 16.000000 3.302892E+01
-10.000000 14.000000 6.527113E+01
-10.000000 12.000000 9.542566E+01
-10.000000 10.000000 1.143367E+02
-10.000000 8.000000 1.002529E+02
-10.000000 6.000000 6.718303E+01
-10.000000 4.000000 2.261583E+01
-10.000000 2.000000 -1.347917E+01
-10.000000 0.000000 -3.504317E+01
-10.000000 -2.000000 -3.737013E+01
-10.000000 -4.000000 -2.656006E+01
-10.000000 -6.000000 -1.157034E+01
-10.000000 -8.000000 -8.154048E+00
-10.000000 -10.000000 -1.609806E+01
-10.000000 -12.000000 -3.298839E+01
-10.000000 -14.000000 -4.378498E+01
-10.000000 -16.000000 -4.450539E+01
-10.000000 -18.000000 -4.054997E+01
-10.000000 -20.000000 -3.483276E+01
-10.000000 -22.000000 -2.928362E+01
-10.000000 -24.000000 -2.269940E+01
-10.000000 -26.000000 -1.728919E+01
-10.000000 -28.000000 -1.480290E+01
-10.000000 -30.000000 -1.450774E+01
-10.000000 -32.000000 -1.687132E+01
-10.000000 -34.000000 -2.119468E+01
-10.000000 -36.000000 -1.453038E+01
-10.000000 -38.000000 3.295744E+00
-10.000000 -40.000000 3.266868E+01
-8.000000 40.000000 -2.023247E+01
-8.000000 38.000000 1.145098E+01
-8.000000 36.000000 3.723681E+01
-8.000000 34.000000 5.656318E+01
-8.000000 32.000000 6.381762E+01
-8.000000 30.000000 6.806197E+01
-8.000000 28.000000 6.437122E+01
-8.000000 26.000000 5.735952E+01
-8.000000 24.000000 4.856716E+01
-8.000000 22.000000 3.649288E+01
-8.000000 20.000000 2.255616E+01
-8.000000 18.000000 1.739246E+01
-8.000000 16.000000 3.541754E+01
-8.000000 14.000000 6.317927E+01
-8.000000 12.000000 8.682021E+01
-8.000000 10.000000 1.031280E+02
-8.000000 8.000000 9.491284E+01
-8.000000 6.000000 7.137712E+01
-8.000000 4.000000 3.505682E+01
-8.000000 2.000000 2.121123E+00
-8.000000 0.000000 -1.987602E+01
-8.000000 -2.000000 -2.552507E+01
-8.000000 -4.000000 -2.004764E+01
-8.000000 -6.000000 -1.241108E+01
-8.000000 -8.000000 -1.438392E+01
-8.000000 -10.000000 -2.521080E+01
-8.000000 -12.000000 -4.039354E+01
-8.000000 -14.000000 -4.901887E+01
-8.000000 -16.000000 -4.795588E+01
-8.000000 -18.000000 -4.403114E+01
-8.000000 -20.000000 -3.960794E+01
-8.000000 -22.000000 -3.496073E+01
-8.000000 -24.000000 -3.005282E+01
-8.000000 -26.000000 -2.622145E+01
-8.000000 -28.000000 -2.261033E+01
-8.000000 -30.000000 -1.855022E+01
-8.000000 -32.000000 -1.688092E+01
-8.000000 -34.000000 -1.804994E+01
-8.000000 -36.000000 -9.444799E+00
-8.000000 -38.000000 8.429200E+00
-8.000000 -40.000000 3.707082E+01
-6.000000 40.000000 -2.345975E+01
-6.000000 38.000000 5.811359E+00
-6.000000 36.000000 2.784538E+01
-6.000000 34.000000 4.367087E+01
-6.000000 32.000000 5.156176E+01
-6.000000 30.000000 5.879176E+01
-6.000000 28.000000 5.662027E+01
-6.000000 26.000000 5.198580E+01
-6.000000 24.000000 4.891598E+01
-6.000000 22.000000 4.530359E+01
-6.000000 20.000000 4.033823E+01
-6.000000 18.000000 3.902949E+01
-6.000000 16.000000 4.916789E+01
-6.000000 14.000000 6.212604E+01
-6.000000 12.000000 6.774283E+01
-6.000000 10.000000 6.866771E+01
-6.000000 8.000000 6.162747E+01
-6.000000 6.000000 5.078392E+01
-6.000000 4.000000 3.407817E+01
-6.000000 2.000000 1.674850E+01
-6.000000 0.000000 2.718763E+00
-6.000000 -2.000000 -4.570490E+00
-6.000000 -4.000000 -6.929556E+00
-6.000000 -6.000000 -1.163182E+01
-6.000000 -8.000000 -2.149171E+01
-6.000000 -10.000000 -3.504124E+01
-6.000000 -12.000000 -4.572470E+01
-6.000000 -14.000000 -4.910501E+01
-6.000000 -16.000000 -4.429720E+01
-6.000000 -18.000000 -3.899690E+01
-6.000000 -20.000000 -3.610190E+01
-6.000000 -22.000000 -3.399820E+01
-6.000000 -24.000000 -3.233577E+01
-6.000000 -26.000000 -3.145135E+01
-6.000000 -28.000000 -2.741008E+01
-6.000000 -30.000000 -2.081209E+01
-6.000000 -32.000000 -1.494148E+01
-6.000000 -34.000000 -1.258650E+01
-6.000000 -36.000000 -2.431511E+00
-6.000000 -38.000000 1.383663E+01
-6.000000 -40.000000 3.959565E+01
-4.000000 40.000000 -2.523514E+01
-4.000000 38.000000 -3.823204E-01
-4.000000 36.000000 1.677946E+01
-4.000000 34.000000 2.964356E+01
-4.000000 32.000000 3.891480E+01
-4.000000 30.000000 4.910618E+01
-4.000000 28.000000 4.822611E+01
-4.000000 26.000000 4.466385E+01
-4.000000 24.000000 4.409908E+01
-4.000000 22.000000 4.659760E+01
-4.000000 20.000000 5.221004E+01
-4.000000 18.000000 5.981390E+01
-4.000000 16.000000 6.546845E+01
-4.000000 14.000000 6.366488E+01
-4.000000 12.000000 4.706841E+01
-4.000000 10.000000 2.440985E+01
-4.000000 8.000000 1.199085E+01
-4.000000 6.000000 1.026877E+01
-4.000000 4.000000 1.446090E+01
-4.000000 2.000000 1.679382E+01
-4.000000 0.000000 1.569743E+01
-4.000000 -2.000000 1.227253E+01
-4.000000 -4.000000 7.811514E+00
-4.000000 -6.000000 -4.788360E+00
-4.000000 -8.000000 -2.197456E+01
-4.000000 -10.000000 -4.002380E+01
-4.000000 -12.000000 -4.910895E+01
-4.000000 -14.000000 -4.849385E+01
-4.000000 -16.000000 -3.901268E+01
-4.000000 -18.000000 -2.920232E+01
-4.000000 -20.000000 -2.454895E+01
-4.000000 -22.000000 -2.375981E+01
-4.000000 -24.000000 -2.591148E+01
-4.000000 -26.000000 -2.801521E+01
-4.000000 -28.000000 -2.569097E+01
-4.000000 -30.000000 -2.021042E+01
-4.000000 -32.000000 -1.295526E+01
-4.000000 -34.000000 -8.908727E+00
-4.000000 -36.000000 1.906358E+00
-4.000000 -38.000000 1.644710E+01
-4.000000 -40.000000 3.974082E+01
-2.000000 40.000000 -2.769729E+01
-2.000000 38.000000 -5.260948E+00
-2.000000 36.000000 1.046005E+01
-2.000000 34.000000 2.314045E+01
-2.000000 32.000000 3.207572E+01
-2.000000 30.000000 4.140576E+01
-2.000000 28.000000 3.977079E+01
-2.000000 26.000000 3.582129E+01
-2.000000 24.000000 3.371714E+01
-2.000000 22.000000 3.661731E+01
-2.000000 20.000000 4.679856E+01
-2.000000 18.000000 6.135186E+01
-2.000000 16.000000 6.838639E+01
-2.000000 14.000000 5.937691E+01
-2.000000 12.000000 2.825383E+01
-2.000000 10.000000 -1.228391E+01
-2.000000 8.000000 -3.341918E+01
-2.000000 6.000000 -3.472066E+01
-2.000000 4.000000 -1.898544E+01
-2.000000 2.000000 -2.467508E+00
-2.000000 0.000000 8.823192E+00
-2.000000 -2.000000 1.534341E+01
-2.000000 -4.000000 1.879395E+01
-2.000000 -6.000000 9.398343E+00
-2.000000 -8.000000 -1.033322E+01
-2.000000 -10.000000 -3.274812E+01
-2.000000 -12.000000 -4.472431E+01
-2.000000 -14.000000 -4.330354E+01
-2.000000 -16.000000 -3.062432E+01
-2.000000 -18.000000 -1.691595E+01
-2.000000 -20.000000 -7.963415E+00
-2.000000 -22.000000 -5.923995E+00
-2.000000 -24.000000 -1.199885E+01
-2.000000 -26.000000 -1.848754E+01
-2.000000 -28.000000 -2.023906E+01
-2.000000 -30.000000 -1.882098E+01
-2.000000 -32.000000 -1.375848E+01
-2.000000 -34.000000 -1.001511E+01
-2.000000 -36.000000 9.772859E-01
-2.000000 -38.000000 1.501294E+01
-2.000000 -40.000000 3.789215E+01
0.000000 40.000000 -2.975680E+01
0.000000 38.000000 -7.007517E+00
0.000000 36.000000 9.365336E+00
0.000000 34.000000 2.293547E+01
0.000000 32.000000 3.013966E+01
0.000000 30.000000 3.613436E+01
0.000000 28.000000 3.284318E+01
0.000000 26.000000 2.672639E+01
0.000000 24.000000 1.995413E+01
0.000000 22.000000 1.973720E+01
0.000000 20.000000 2.807180E+01
0.000000 18.000000 4.356488E+01
0.000000 16.000000 5.227674E+01
0.000000 14.000000 4.240320E+01
0.000000 12.000000 9.141532E+00
0.000000 10.000000 -3.479186E+01
0.000000 8.000000 -6.008783E+01
0.000000 6.000000 -6.545326E+01
0.000000 4.000000 -5.027751E+01
0.000000 2.000000 -3.120115E+01
0.000000 0.000000 -1.507816E+01
0.000000 -2.000000 1.344430E+00
0.000000 -4.000000 1.985380E+01
0.000000 -6.000000 2.603550E+01
0.000000 -8.000000 1.059868E+01
0.000000 -10.000000 -1.344083E+01
0.000000 -12.000000 -3.030149E+01
0.000000 -14.000000 -3.052213E+01
0.000000 -16.000000 -1.894590E+01
0.000000 -18.000000 -4.567825E+00
0.000000 -20.000000 8.091163E+00
0.000000 -22.000000 1.254013E+01
0.000000 -24.000000 4.121847E+00
0.000000 -26.000000 -7.804074E+00
0.000000 -28.000000 -1.508733E+01
0.000000 -30.000000 -1.955117E+01
0.000000 -32.000000 -1.871905E+01
0.000000 -34.000000 -1.620005E+01
0.000000 -36.000000 -4.452706E+00
0.000000 -38.000000 1.075696E+01
0.000000 -40.000000 3.473273E+01
2.000000 40.000000 -3.175909E+01
2.000000 38.000000 -6.230844E+00
2.000000 36.000000 1.146748E+01
2.000000 34.000000 2.533944E+01
2.000000 32.000000 3.027591E+01
2.000000 30.000000 3.298628E+01
2.000000 28.000000 2.835758E+01
2.000000 26.000000 1.989558E+01
2.000000 24.000000 8.921700E+00
2.000000 22.000000 4.281614E+00
2.000000 20.000000 6.725527E+00
2.000000 18.000000 1.799673E+01
2.000000 16.000000 2.655310E+01
2.000000 14.000000 1.996570E+01
2.000000 12.000000 -5.636608E+00
2.000000 10.000000 -4.158680E+01
2.000000 8.000000 -6.362023E+01
2.000000 6.000000 -7.171013E+01
2.000000 4.000000 -6.506114E+01
2.000000 2.000000 -5.524944E+01
2.000000 0.000000 -4.373654E+01
2.000000 -2.000000 -2.201416E+01
2.000000 -4.000000 1.006793E+01
2.000000 -6.000000 3.535498E+01
2.000000 -8.000000 2.633606E+01
2.000000 -10.000000 2.005337E+00
2.000000 -12.000000 -1.791780E+01
2.000000 -14.000000 -2.013227E+01
2.000000 -16.000000 -1.031778E+01
2.000000 -18.000000 5.117621E+00
2.000000 -20.000000 2.079833E+01
2.000000 -22.000000 2.732563E+01
2.000000 -24.000000 1.786194E+01
2.000000 -26.000000 1.029109E+00
2.000000 -28.000000 -1.240934E+01
2.000000 -30.000000 -2.294923E+01
2.000000 -32.000000 -2.616950E+01
2.000000 -34.000000 -2.484581E+01
2.000000 -36.000000 -1.194126E+01
2.000000 -38.000000 5.328516E+00
2.000000 -40.000000 3.040563E+01
4.000000 40.000000 -3.407636E+01
4.000000 38.000000 -4.976232E+00
4.000000 36.000000 1.442103E+01
4.000000 34.000000 2.804543E+01
4.000000 32.000000 3.001594E+01
4.000000 30.000000 2.945277E+01
4.000000 28.000000 2.382789E+01
4.000000 26.000000 1.572098E+01
4.000000 24.000000 4.563623E+00
4.000000 22.000000 -3.378029E+00
4.000000 20.000000 -7.053110E+00
4.000000 18.000000 -2.331524E+00
4.000000 16.000000 4.244116E+00
4.000000 14.000000 2.162203E+00
4.000000 12.000000 -1.047934E+01
4.000000 10.000000 -3.011366E+01
4.000000 8.000000 -4.208895E+01
4.000000 6.000000 -4.923261E+01
4.000000 4.000000 -5.430795E+01
4.000000 2.000000 -6.130668E+01
4.000000 0.000000 -6.375789E+01
4.000000 -2.000000 -4.706506E+01
4.000000 -4.000000 -1.296718E+01
4.000000 -6.000000 1.798357E+01
4.000000 -8.000000 1.760504E+01
4.000000 -10.000000 3.317556E-01
4.000000 -12.000000 -1.732155E+01
4.000000 -14.000000 -2.079689E+01
4.000000 -16.000000 -1.051674E+01
4.000000 -18.000000 7.487626E+00
4.000000 -20.000000 2.582418E+01
4.000000 -22.000000 3.441559E+01
4.000000 -24.000000 2.567574E+01
4.000000 -26.000000 6.869998E+00
4.000000 -28.000000 -1.094318E+01
4.000000 -30.000000 -2.534009E+01
4.000000 -32.000000 -3.134372E+01
4.000000 -34.000000 -3.206377E+01
4.000000 -36.000000 -2.025344E+01
4.000000 -38.000000 -1.225093E+00
4.000000 -40.000000 2.554210E+01
6.000000 40.000000 -3.692366E+01
6.000000 38.000000 -5.775851E+00
6.000000 36.000000 1.486785E+01
6.000000 34.000000 2.768430E+01
6.000000 32.000000 2.724028E+01
6.000000 30.000000 2.511576E+01
6.000000 28.000000 2.038421E+01
6.000000 26.000000 1.490607E+01
6.000000 24.000000 7.240337E+00
6.000000 22.000000 -1.308384E+00
6.000000 20.000000 -8.682351E+00
6.000000 18.000000 -1.052252E+01
6.000000 16.000000 -7.349564E+00
6.000000 14.000000 -4.741010E+00
6.000000 12.000000 -3.104809E+00
6.000000 10.000000 -3.068927E+00
6.000000 8.000000 -3.265283E+00
6.000000 6.000000 -9.018412E+00
6.000000 4.000000 -2.762389E+01
6.000000 2.000000 -5.372154E+01
6.000000 0.000000 -7.457598E+01
6.000000 -2.000000 -7.061969E+01
6.000000 -4.000000 -4.320586E+01
6.000000 -6.000000 -1.496306E+01
6.000000 -8.000000 -7.786232E+00
6.000000 -10.000000 -1.680868E+01
6.000000 -12.000000 -2.932125E+01
6.000000 -14.000000 -3.110567E+01
6.000000 -16.000000 -1.933405E+01
6.000000 -18.000000 -1.458409E+00
6.000000 -20.000000 1.693544E+01
6.000000 -22.000000 2.746173E+01
6.000000 -24.000000 2.284736E+01
6.000000 -26.000000 8.108880E+00
6.000000 -28.000000 -7.917654E+00
6.000000 -30.000000 -2.198580E+01
6.000000 -32.000000 -2.971313E+01
6.000000 -34.000000 -3.454406E+01
6.000000 -36.000000 -2.751342E+01
6.000000 -38.000000 -8.495399E+00
6.000000 -40.000000 2.053756E+01
8.000000 40.000000 -3.944415E+01
8.000000 38.000000 -8.634534E+00
8.000000 36.000000 1.107371E+01
8.000000 34.000000 2.175799E+01
8.000000 32.000000 2.032584E+01
8.000000 30.000000 1.957495E+01
8.000000 28.000000 1.793712E+01
8.000000 26.000000 1.593346E+01
8.000000 24.000000 1.319857E+01
8.000000 22.000000 6.023085E+00
8.000000 20.000000 -3.000816E+00
8.000000 18.000000 -9.087368E+00
8.000000 16.000000 -7.277791E+00
8.000000 14.000000 1.728919E+00
8.000000 12.000000 1.677151E+01
8.000000 10.000000 3.285353E+01
8.000000 8.000000 3.951398E+01
8.000000 6.000000 3.163666E+01
8.000000 4.000000 -1.526955E+00
8.000000 2.000000 -4.650883E+01
8.000000 0.000000 -8.443148E+01
8.000000 -2.000000 -9.193305E+01
8.000000 -4.000000 -7.042388E+01
8.000000 -6.000000 -4.175600E+01
8.000000 -8.000000 -2.926102E+01
8.000000 -10.000000 -3.408503E+01
8.000000 -12.000000 -4.515567E+01
8.000000 -14.000000 -4.688884E+01
8.000000 -16.000000 -3.458954E+01
8.000000 -18.000000 -1.846418E+01
8.000000 -20.000000 -2.947257E+00
8.000000 -22.000000 8.820376E+00
8.000000 -24.000000 1.130842E+01
8.000000 -26.000000 5.575975E+00
8.000000 -28.000000 -2.934590E+00
8.000000 -30.000000 -1.312098E+01
8.000000 -32.000000 -2.152729E+01
8.000000 -34.000000 -3.094693E+01
8.000000 -36.000000 -3.000311E+01
8.000000 -38.000000 -1.391900E+01
8.000000 -40.000000 1.560211E+01
10.000000 40.000000 -3.952826E+01
10.000000 38.000000 -1.211914E+01
10.000000 36.000000 3.701794E+00
10.000000 34.000000 1.141516E+01
10.000000 32.000000 9.902332E+00
10.000000 30.000000 1.129033E+01
10.000000 28.000000 1.267863E+01
10.000000 26.000000 1.388547E+01
10.000000 24.000000 1.624796E+01
10.000000 22.000000 1.173310E+01
10.000000 20.000000 3.168785E+00
10.000000 18.000000 -3.395259E+00
10.000000 16.000000 -6.144900E-01
10.000000 14.000000 1.302395E+01
10.000000 12.000000 3.679687E+01
10.000000 10.000000 6.310224E+01
10.000000 8.000000 7.420520E+01
10.000000 6.000000 6.471225E+01
10.000000 4.000000 2.093038E+01
10.000000 2.000000 -4.185717E+01
10.000000 0.000000 -9.721729E+01
10.000000 -2.000000 -1.144420E+02
10.000000 -4.000000 -9.368667E+01
10.000000 -6.000000 -5.728169E+01
10.000000 -8.000000 -3.773253E+01
10.000000 -10.000000 -3.965241E+01
10.000000 -12.000000 -5.341277E+01
10.000000 -14.000000 -5.917381E+01
10.000000 -16.000000 -4.928736E+01
10.000000 -18.000000 -3.335292E+01
10.000000 -20.000000 -1.976019E+01
10.000000 -22.000000 -7.465439E+00
10.000000 -24.000000 1.474203E+00
10.000000 -26.000000 4.022064E+00
10.000000 -28.000000 3.143088E+00
10.000000 -30.000000 -2.110234E+00
10.000000 -32.000000 -1.000626E+01
10.000000 -34.000000 -2.325238E+01
10.000000 -36.000000 -2.766781E+01
10.000000 -38.000000 -1.618342E+01
10.000000 -40.000000 1.166070E+01
12.000000 40.000000 -3.730870E+01
12.000000 38.000000 -1.529493E+01
12.000000 36.000000 -3.927482E+00
12.000000 34.000000 1.662246E+00
12.000000 32.000000 -2.627492E-02
12.000000 30.000000 1.624474E+00
12.000000 28.000000 3.508388E+00
12.000000 26.000000 5.857195E+00
12.000000 24.000000 1.058336E+01
12.000000 22.000000 9.780354E+00
12.000000 20.000000 4.406777E+00
12.000000 18.000000 -1.367431E-01
12.000000 16.000000 3.854067E+00
12.000000 14.000000 1.899503E+01
12.000000 12.000000 4.551209E+01
12.000000 10.000000 7.618528E+01
12.000000 8.000000 9.234071E+01
12.000000 6.000000 8.650653E+01
12.000000 4.000000 4.020609E+01
12.000000 2.000000 -3.564561E+01
12.000000 0.000000 -1.084369E+02
12.000000 -2.000000 -1.376619E+02
12.000000 -4.000000 -1.168792E+02
12.000000 -6.000000 -6.901965E+01
12.000000 -8.000000 -3.857563E+01
12.000000 -10.000000 -3.458574E+01
12.000000 -12.000000 -5.179003E+01
12.000000 -14.000000 -6.157551E+01
12.000000 -16.000000 -5.343216E+01
12.000000 -18.000000 -3.557498E+01
12.000000 -20.000000 -2.056300E+01
12.000000 -22.000000 -7.812413E+00
12.000000 -24.000000 3.382116E+00
12.000000 -26.000000 9.367795E+00
12.000000 -28.000000 1.264570E+01
12.000000 -30.000000 1.116546E+01
12.000000 -32.000000 3.455845E+00
12.000000 -34.000000 -1.399674E+01
12.000000 -36.000000 -2.363293E+01
12.000000 -38.000000 -1.650955E+01
12.000000 -40.000000 8.824359E+00
14.000000 40.000000 -3.553955E+01
14.000000 38.000000 -1.731919E+01
14.000000 36.000000 -7.706261E+00
14.000000 34.000000 -3.307223E+00
14.000000 32.000000 -5.896506E+00
14.000000 30.000000 -6.355067E+00
14.000000 28.000000 -7.626092E+00
14.000000 26.000000 -7.215077E+00
14.000000 24.000000 -3.232892E+00
14.000000 22.000000 1.037659E+00
14.000000 20.000000 1.262347E+00
14.000000 18.000000 6.652994E-01
14.000000 16.000000 6.445861E+00
14.000000 14.000000 2.029169E+01
14.000000 12.000000 4.294394E+01
14.000000 10.000000 7.034076E+01
14.000000 8.000000 9.002702E+01
14.000000 6.000000 9.189016E+01
14.000000 4.000000 5.229083E+01
14.000000 2.000000 -2.695282E+01
14.000000 0.000000 -1.127565E+02
14.000000 -2.000000 -1.557110E+02
14.000000 -4.000000 -1.371687E+02
14.000000 -6.000000 -8.166339E+01
14.000000 -8.000000 -4.318789E+01
14.000000 -10.000000 -3.339624E+01
14.000000 -12.000000 -5.114348E+01
14.000000 -14.000000 -5.966562E+01
14.000000 -16.000000 -4.687251E+01
14.000000 -18.000000 -2.224084E+01
14.000000 -20.000000 -2.001282E+00
14.000000 -22.000000 1.124746E+01
14.000000 -24.000000 1.987001E+01
14.000000 -26.000000 2.429626E+01
14.000000 -28.000000 2.722385E+01
14.000000 -30.000000 2.653865E+01
14.000000 -32.000000 1.765705E+01
14.000000 -34.000000 -3.274971E+00
14.000000 -36.000000 -1.719754E+01
14.000000 -38.000000 -1.465875E+01
14.000000 -40.000000 6.142558E+00
16.000000 40.000000 -3.559136E+01
16.000000 38.000000 -1.816627E+01
16.000000 36.000000 -7.272282E+00
16.000000 34.000000 -2.853242E+00
16.000000 32.000000 -6.833752E+00
16.000000 30.000000 -1.153271E+01
16.000000 28.000000 -1.883136E+01
16.000000 26.000000 -2.225914E+01
16.000000 24.000000 -1.996705E+01
16.000000 22.000000 -1.014502E+01
16.000000 20.000000 -2.403530E+00
16.000000 18.000000 5.103023E+00
16.000000 16.000000 1.574441E+01
16.000000 14.000000 2.702284E+01
16.000000 12.000000 3.966234E+01
16.000000 10.000000 5.538033E+01
16.000000 8.000000 7.195577E+01
16.000000 6.000000 7.981900E+01
16.000000 4.000000 5.286342E+01
16.000000 2.000000 -1.855411E+01
16.000000 0.000000 -1.065309E+02
16.000000 -2.000000 -1.588465E+02
16.000000 -4.000000 -1.499846E+02
16.000000 -6.000000 -1.022571E+02
16.000000 -8.000000 -6.691408E+01
16.000000 -10.000000 -5.530663E+01
16.000000 -12.000000 -6.571031E+01
16.000000 -14.000000 -6.282156E+01
16.000000 -16.000000 -3.429445E+01
16.000000 -18.000000 4.782055E+00
16.000000 -20.000000 3.213506E+01
16.000000 -22.000000 4.339883E+01
16.000000 -24.000000 4.497202E+01
16.000000 -26.000000 4.359912E+01
16.000000 -28.000000 4.353922E+01
16.000000 -30.000000 4.140257E+01
16.000000 -32.000000 3.181862E+01
16.000000 -34.000000 9.386376E+00
16.000000 -36.000000 -7.685792E+00
16.000000 -38.000000 -1.042741E+01
16.000000 -40.000000 3.570254E+00
18.000000 40.000000 -3.818887E+01
18.000000 38.000000 -1.959424E+01
18.000000 36.000000 -5.232748E+00
18.000000 34.000000 2.095832E+00
18.000000 32.000000 -1.944850E+00
18.000000 30.000000 -1.179328E+01
18.000000 28.000000 -2.586199E+01
18.000000 26.000000 -3.393108E+01
18.000000 24.000000 -3.250986E+01
18.000000 22.000000 -1.719574E+01
18.000000 20.000000 -1.495274E+00
18.000000 18.000000 1.556507E+01
18.000000 16.000000 3.174471E+01
18.000000 14.000000 4.145247E+01
18.000000 12.000000 4.205659E+01
18.000000 10.000000 4.020214E+01
18.000000 8.000000 4.478233E+01
18.000000 6.000000 5.312071E+01
18.000000 4.000000 4.110805E+01
18.000000 2.000000 -1.272705E+01
18.000000 0.000000 -8.990754E+01
18.000000 -2.000000 -1.458608E+02
18.000000 -4.000000 -1.563253E+02
18.000000 -6.000000 -1.316100E+02
18.000000 -8.000000 -1.081016E+02
18.000000 -10.000000 -9.800731E+01
18.000000 -12.000000 -9.522549E+01
18.000000 -14.000000 -7.317397E+01
18.000000 -16.000000 -2.231271E+01
18.000000 -18.000000 3.396758E+01
18.000000 -20.000000 6.775431E+01
18.000000 -22.000000 7.484075E+01
18.000000 -24.000000 6.824311E+01
18.000000 -26.000000 6.025684E+01
18.000000 -28.000000 5.677853E+01
18.000000 -30.000000 5.362335E+01
18.000000 -32.000000 4.496247E+01
18.000000 -34.000000 2.214702E+01
18.000000 -36.000000 1.936715E+00
18.000000 -38.000000 -5.860201E+00
18.000000 -40.000000 1.936163E+00
20.000000 40.000000 -4.383100E+01
20.000000 38.000000 -2.361006E+01
20.000000 36.000000 -4.931358E+00
20.000000 34.000000 8.028371E+00
20.000000 32.000000 7.220447E+00
20.000000 30.000000 -4.161626E+00
20.000000 28.000000 -2.212921E+01
20.000000 26.000000 -3.344136E+01
20.000000 24.000000 -3.186439E+01
20.000000 22.000000 -1.480238E+01
20.000000 20.000000 3.474630E+00
20.000000 18.000000 2.421938E+01
20.000000 16.000000 4.324461E+01
20.000000 14.000000 5.229129E+01
20.000000 12.000000 4.325609E+01
20.000000 10.000000 2.373110E+01
20.000000 8.000000 1.439687E+01
20.000000 6.000000 2.106911E+01
20.000000 4.000000 2.398856E+01
20.000000 2.000000 -8.027912E+00
20.000000 0.000000 -6.748010E+01
20.000000 -2.000000 -1.227460E+02
20.000000 -4.000000 -1.519692E+02
20.000000 -6.000000 -1.540866E+02
20.000000 -8.000000 -1.481950E+02
20.000000 -10.000000 -1.450703E+02
20.000000 -12.000000 -1.303146E+02
20.000000 -14.000000 -8.894116E+01
20.000000 -16.000000 -1.865846E+01
20.000000 -18.000000 5.094013E+01
20.000000 -20.000000 8.990028E+01
20.000000 -22.000000 9.463274E+01
20.000000 -24.000000 8.178158E+01
20.000000 -26.000000 6.892949E+01
20.000000 -28.000000 6.333077E+01
20.000000 -30.000000 6.007856E+01
20.000000 -32.000000 5.296176E+01
20.000000 -34.000000 3.110686E+01
20.000000 -36.000000 8.906327E+00
20.000000 -38.000000 -1.967603E+00
20.000000 -40.000000 1.713624E+00
22.000000 40.000000 -5.174104E+01
22.000000 38.000000 -3.069270E+01
22.000000 36.000000 -8.485647E+00
22.000000 34.000000 1.095577E+01
22.000000 32.000000 1.642172E+01
22.000000 30.000000 9.308553E+00
22.000000 28.000000 -6.898012E+00
22.000000 26.000000 -1.767518E+01
22.000000 24.000000 -1.590214E+01
22.000000 22.000000 -3.184072E+00
22.000000 20.000000 1.051007E+01
22.000000 18.000000 2.600216E+01
22.000000 16.000000 4.162155E+01
22.000000 14.000000 4.709532E+01
22.000000 12.000000 3.204081E+01
22.000000 10.000000 3.515076E+00
22.000000 8.000000 -1.127140E+01
22.000000 6.000000 -3.805359E+00
22.000000 4.000000 1.254982E+01
22.000000 2.000000 -1.435375E-01
22.000000 0.000000 -4.285009E+01
22.000000 -2.000000 -9.539336E+01
22.000000 -4.000000 -1.385589E+02
22.000000 -6.000000 -1.635292E+02
22.000000 -8.000000 -1.748558E+02
22.000000 -10.000000 -1.799473E+02
22.000000 -12.000000 -1.576592E+02
22.000000 -14.000000 -1.038291E+02
22.000000 -16.000000 -2.361378E+01
22.000000 -18.000000 5.032472E+01
22.000000 -20.000000 9.144258E+01
22.000000 -22.000000 9.713237E+01
22.000000 -24.000000 8.204972E+01
22.000000 -26.000000 6.714060E+01
22.000000 -28.000000 6.155620E+01
22.000000 -30.000000 5.832639E+01
22.000000 -32.000000 5.196284E+01
22.000000 -34.000000 3.231559E+01
22.000000 -36.000000 1.113877E+01
22.000000 -38.000000 3.552971E-01
22.000000 -40.000000 2.786280E+00
24.000000 40.000000 -6.103767E+01
24.000000 38.000000 -3.970034E+01
24.000000 36.000000 -1.485642E+01
24.000000 34.000000 1.060421E+01
24.000000 32.000000 2.319568E+01
24.000000 30.000000 2.250366E+01
24.000000 28.000000 1.128714E+01
24.000000 26.000000 2.062780E+00
24.000000 24.000000 2.823997E+00
24.000000 22.000000 8.872499E+00
24.000000 20.000000 1.691733E+01
24.000000 18.000000 2.462955E+01
24.000000 16.000000 3.151423E+01
24.000000 14.000000 2.944079E+01
24.000000 12.000000 1.123112E+01
24.000000 10.000000 -1.672356E+01
24.000000 8.000000 -2.574448E+01
24.000000 6.000000 -1.164835E+01
24.000000 4.000000 1.613435E+01
24.000000 2.000000 1.527989E+01
24.000000 0.000000 -2.008882E+01
24.000000 -2.000000 -7.307825E+01
24.000000 -4.000000 -1.242012E+02
24.000000 -6.000000 -1.629510E+02
24.000000 -8.000000 -1.844880E+02
24.000000 -10.000000 -1.932290E+02
24.000000 -12.000000 -1.679714E+02
24.000000 -14.000000 -1.113633E+02
24.000000 -16.000000 -3.384578E+01
24.000000 -18.000000 3.338515E+01
24.000000 -20.000000 7.232747E+01
24.000000 -22.000000 8.127232E+01
24.000000 -24.000000 7.075519E+01
24.000000 -26.000000 5.874751E+01
24.000000 -28.000000 5.330036E+01
24.000000 -30.000000 4.854870E+01
24.000000 -32.000000 4.113973E+01
24.000000 -34.000000 2.441871E+01
24.000000 -36.000000 8.220987E+00
24.000000 -38.000000 6.558781E-01
24.000000 -40.000000 3.971931E+00
26.000000 40.000000 -6.975693E+01
26.000000 38.000000 -4.935331E+01
26.000000 36.000000 -2.315453E+01
26.000000 34.000000 6.819130E+00
26.000000 32.000000 2.554753E+01
26.000000 30.000000 3.024049E+01
26.000000 28.000000 2.233873E+01
26.000000 26.000000 1.182899E+01
26.000000 24.000000 8.488770E+00
26.000000 22.000000 8.896873E+00
26.000000 20.000000 1.517322E+01
26.000000 18.000000 2.119954E+01
26.000000 16.000000 2.394842E+01
26.000000 14.000000 1.862577E+01
26.000000 12.000000 1.590796E+00
26.000000 10.000000 -2.038409E+01
26.000000 8.000000 -2.026104E+01
26.000000 6.000000 4.535103E-02
26.000000 4.000000 2.998717E+01
26.000000 2.000000 2.739849E+01
26.000000 0.000000 -1.008687E+01
26.000000 -2.000000 -6.266665E+01
26.000000 -4.000000 -1.121371E+02
26.000000 -6.000000 -1.538811E+02
26.000000 -8.000000 -1.796166E+02
26.000000 -10.000000 -1.893622E+02
26.000000 -12.000000 -1.637039E+02
26.000000 -14.000000 -1.109937E+02
26.000000 -16.000000 -4.499243E+01
26.000000 -18.000000 9.305515E+00
26.000000 -20.000000 4.223967E+01
26.000000 -22.000000 5.487522E+01
26.000000 -24.000000 5.343275E+01
26.000000 -26.000000 4.701264E+01
26.000000 -28.000000 4.000836E+01
26.000000 -30.000000 3.174260E+01
26.000000 -32.000000 2.277370E+01
26.000000 -34.000000 1.034991E+01
26.000000 -36.000000 2.230823E+00
26.000000 -38.000000 -4.997840E-01
26.000000 -40.000000 4.293778E+00
28.000000 40.000000 -7.570573E+01
28.000000 38.000000 -5.834195E+01
28.000000 36.000000 -3.281939E+01
28.000000 34.000000 -6.143494E-01
28.000000 32.000000 2.240352E+01
28.000000 30.000000 3.000229E+01
28.000000 28.000000 2.117406E+01
28.000000 26.000000 5.798790E+00
28.000000 24.000000 -5.946377E+00
28.000000 22.000000 -9.013860E+00
28.000000 20.000000 6.374130E-01
28.000000 18.000000 1.413029E+01
28.000000 16.000000 2.358215E+01
28.000000 14.000000 2.528658E+01
28.000000 12.000000 1.718740E+01
28.000000 10.000000 5.781525E+00
28.000000 8.000000 9.003254E+00
28.000000 6.000000 2.399573E+01
28.000000 4.000000 3.624155E+01
28.000000 2.000000 1.769693E+01
28.000000 0.000000 -2.350809E+01
28.000000 -2.000000 -6.805805E+01
28.000000 -4.000000 -1.052991E+02
28.000000 -6.000000 -1.393997E+02
28.000000 -8.000000 -1.643153E+02
28.000000 -10.000000 -1.731277E+02
28.000000 -12.000000 -1.462276E+02
28.000000 -14.000000 -9.846290E+01
28.000000 -16.000000 -4.715150E+01
28.000000 -18.000000 -1.004753E+01
28.000000 -20.000000 1.209371E+01
28.000000 -22.000000 2.602236E+01
28.000000 -24.000000 3.386495E+01
28.000000 -26.000000 3.342463E+01
28.000000 -28.000000 2.465315E+01
28.000000 -30.000000 1.316124E+01
28.000000 -32.000000 3.253390E+00
28.000000 -34.000000 -4.810443E+00
28.000000 -36.000000 -5.490467E+00
28.000000 -38.000000 -3.589172E+00
28.000000 -40.000000 3.200647E+00
30.000000 40.000000 -7.855644E+01
30.000000 38.000000 -6.517241E+01
30.000000 36.000000 -4.180438E+01
30.000000 34.000000 -9.726799E+00
30.000000 32.000000 1.545314E+01
30.000000 30.000000 2.349085E+01
30.000000 28.000000 1.086491E+01
30.000000 26.000000 -1.154918E+01
30.000000 24.000000 -3.448784E+01
30.000000 22.000000 -4.041529E+01
30.000000 20.000000 -2.589638E+01
30.000000 18.000000 -8.391857E-01
30.000000 16.000000 2.250949E+01
30.000000 14.000000 3.956943E+01
30.000000 12.000000 4.772630E+01
30.000000 10.000000 4.965440E+01
30.000000 8.000000 4.860027E+01
30.000000 6.000000 4.639167E+01
30.000000 4.000000 2.837200E+01
30.000000 2.000000 -1.131143E+01
30.000000 0.000000 -5.489076E+01
30.000000 -2.000000 -8.472738E+01
30.000000 -4.000000 -1.019691E+02
30.000000 -6.000000 -1.207510E+02
30.000000 -8.000000 -1.409362E+02
30.000000 -10.000000 -1.461959E+02
30.000000 -12.000000 -1.163847E+02
30.000000 -14.000000 -7.213276E+01
30.000000 -16.000000 -3.667671E+01
30.000000 -18.000000 -2.002628E+01
30.000000 -20.000000 -1.185832E+01
30.000000 -22.000000 -4.381371E-01
30.000000 -24.000000 1.355978E+01
30.000000 -26.000000 1.931277E+01
30.000000 -28.000000 1.177090E+01
30.000000 -30.000000 1.073804E-01
30.000000 -32.000000 -1.003869E+01
30.000000 -34.000000 -1.658096E+01
30.000000 -36.000000 -1.431147E+01
30.000000 -38.000000 -9.093875E+00
30.000000 -40.000000 1.518331E-01
32.000000 40.000000 -7.739617E+01
32.000000 38.000000 -6.814445E+01
32.000000 36.000000 -4.829289E+01
32.000000 34.000000 -1.875718E+01
32.000000 32.000000 6.662645E+00
32.000000 30.000000 1.373655E+01
32.000000 28.000000 -3.507759E+00
32.000000 26.000000 -3.215576E+01
32.000000 24.000000 -6.524370E+01
32.000000 22.000000 -7.407972E+01
32.000000 20.000000 -5.762397E+01
32.000000 18.000000 -2.444965E+01
32.000000 16.000000 1.328965E+01
32.000000 14.000000 4.894456E+01
32.000000 12.000000 7.593922E+01
32.000000 10.000000 9.040812E+01
32.000000 8.000000 8.263260E+01
32.000000 6.000000 6.036217E+01
32.000000 4.000000 1.528752E+01
32.000000 2.000000 -4.039118E+01
32.000000 0.000000 -8.512756E+01
32.000000 -2.000000 -1.005469E+02
32.000000 -4.000000 -9.798279E+01
32.000000 -6.000000 -1.012210E+02
32.000000 -8.000000 -1.156043E+02
32.000000 -10.000000 -1.171062E+02
32.000000 -12.000000 -8.537850E+01
32.000000 -14.000000 -4.548603E+01
32.000000 -16.000000 -2.686136E+01
32.000000 -18.000000 -2.799453E+01
32.000000 -20.000000 -3.014181E+01
32.000000 -22.000000 -2.130069E+01
32.000000 -24.000000 -4.153147E+00
32.000000 -26.000000 6.605437E+00
32.000000 -28.000000 4.296165E+00
32.000000 -30.000000 -3.328352E+00
32.000000 -32.000000 -1.281677E+01
32.000000 -34.000000 -2.126164E+01
32.000000 -36.000000 -2.107949E+01
32.000000 -38.000000 -1.488785E+01
32.000000 -40.000000 -3.998751E+00
34.000000 40.000000 -7.268160E+01
34.000000 38.000000 -6.704340E+01
34.000000 36.000000 -5.124348E+01
34.000000 34.000000 -2.529982E+01
34.000000 32.000000 -1.239405E+00
34.000000 30.000000 3.979046E+00
34.000000 28.000000 -1.664170E+01
34.000000 26.000000 -4.760660E+01
34.000000 24.000000 -8.500158E+01
34.000000 22.000000 -9.644929E+01
34.000000 20.000000 -8.342324E+01
34.000000 18.000000 -4.985915E+01
34.000000 16.000000 -1.897966E+00
34.000000 14.000000 5.117024E+01
34.000000 12.000000 9.535533E+01
34.000000 10.000000 1.182625E+02
34.000000 8.000000 1.028737E+02
34.000000 6.000000 6.425048E+01
34.000000 4.000000 2.761490E+00
34.000000 2.000000 -6.005804E+01
34.000000 0.000000 -1.026923E+02
34.000000 -2.000000 -1.059619E+02
34.000000 -4.000000 -8.888510E+01
34.000000 -6.000000 -8.100575E+01
34.000000 -8.000000 -9.035475E+01
34.000000 -10.000000 -9.328425E+01
34.000000 -12.000000 -7.009306E+01
34.000000 -14.000000 -4.264724E+01
34.000000 -16.000000 -3.862727E+01
34.000000 -18.000000 -4.734516E+01
34.000000 -20.000000 -4.847952E+01
34.000000 -22.000000 -3.538808E+01
34.000000 -24.000000 -1.371142E+01
34.000000 -26.000000 1.537177E+00
34.000000 -28.000000 5.544486E+00
34.000000 -30.000000 3.193801E+00
34.000000 -32.000000 -5.678206E+00
34.000000 -34.000000 -1.770687E+01
34.000000 -36.000000 -2.238700E+01
34.000000 -38.000000 -1.786512E+01
34.000000 -40.000000 -7.590350E+00
36.000000 40.000000 -6.849038E+01
36.000000 38.000000 -6.411097E+01
36.000000 36.000000 -4.977525E+01
36.000000 34.000000 -2.544191E+01
36.000000 32.000000 -2.842808E+00
36.000000 30.000000 5.132961E-01
36.000000 28.000000 -2.085122E+01
36.000000 26.000000 -5.069091E+01
36.000000 24.000000 -8.624034E+01
36.000000 22.000000 -9.999941E+01
36.000000 20.000000 -9.449774E+01
36.000000 18.000000 -6.674352E+01
36.000000 16.000000 -1.466255E+01
36.000000 14.000000 4.954475E+01
36.000000 12.000000 1.038254E+02
36.000000 10.000000 1.297776E+02
36.000000 8.000000 1.063898E+02
36.000000 6.000000 5.657672E+01
36.000000 4.000000 -1.218596E+01
36.000000 2.000000 -7.277172E+01
36.000000 0.000000 -1.072422E+02
36.000000 -2.000000 -1.002784E+02
36.000000 -4.000000 -7.329971E+01
36.000000 -6.000000 -5.762326E+01
36.000000 -8.000000 -6.521054E+01
36.000000 -10.000000 -7.786186E+01
36.000000 -12.000000 -7.769104E+01
36.000000 -14.000000 -7.116758E+01
36.000000 -16.000000 -7.315961E+01
36.000000 -18.000000 -7.709569E+01
36.000000 -20.000000 -6.712880E+01
36.000000 -22.000000 -4.291916E+01
36.000000 -24.000000 -1.325587E+01
36.000000 -26.000000 7.966232E+00
36.000000 -28.000000 1.641757E+01
36.000000 -30.000000 1.741593E+01
36.000000 -32.000000 7.877087E+00
36.000000 -34.000000 -8.626727E+00
36.000000 -36.000000 -1.936873E+01
36.000000 -38.000000 -1.821467E+01
36.000000 -40.000000 -1.029986E+01
38.000000 40.000000 -6.618095E+01
38.000000 38.000000 -6.024030E+01
38.000000 36.000000 -4.460464E+01
38.000000 34.000000 -1.941620E+01
38.000000 32.000000 2.889799E+00
38.000000 30.000000 5.521511E+00
38.000000 28.000000 -1.387780E+01
38.000000 26.000000 -4.018810E+01
38.000000 24.000000 -6.925008E+01
38.000000 22.000000 -8.367524E+01
38.000000 20.000000 -8.532709E+01
38.000000 18.000000 -6.614421E+01
38.000000 16.000000 -1.788012E+01
38.000000 14.000000 4.581581E+01
38.000000 12.000000 9.850450E+01
38.000000 10.000000 1.203843E+02
38.000000 8.000000 9.106774E+01
38.000000 6.000000 3.680966E+01
38.000000 4.000000 -3.107089E+01
38.000000 2.000000 -8.296038E+01
38.000000 0.000000 -1.037246E+02
38.000000 -2.000000 -8.752286E+01
38.000000 -4.000000 -5.589003E+01
38.000000 -6.000000 -3.765750E+01
38.000000 -8.000000 -4.646816E+01
38.000000 -10.000000 -6.858712E+01
38.000000 -12.000000 -8.843491E+01
38.000000 -14.000000 -1.007778E+02
38.000000 -16.000000 -1.069515E+02
38.000000 -18.000000 -1.037209E+02
38.000000 -20.000000 -8.183736E+01
38.000000 -22.000000 -4.629712E+01
38.000000 -24.000000 -7.700876E+00
38.000000 -26.000000 1.910968E+01
38.000000 -28.000000 2.993000E+01
38.000000 -30.000000 3.230581E+01
38.000000 -32.000000 2.163408E+01
38.000000 -34.000000 1.653054E+00
38.000000 -36.000000 -1.389944E+01
38.000000 -38.000000 -1.662422E+01
38.000000 -40.000000 -1.210074E+01
40.000000 40.000000 -6.411178E+01
40.000000 38.000000 -5.491778E+01
40.000000 36.000000 -3.698736E+01
40.000000 34.000000 -9.895895E+00
40.000000 32.000000 1.306838E+01
40.000000 30.000000 1.618729E+01
40.000000 28.000000 3.013020E-01
40.000000 26.000000 -2.047665E+01
40.000000 24.000000 -4.005036E+01
40.000000 22.000000 -5.337849E+01
40.000000 20.000000 -5.916754E+01
40.000000 18.000000 -4.952930E+01
40.000000 16.000000 -1.340461E+01
40.000000 14.000000 3.708250E+01
40.000000 12.000000 7.653651E+01
40.000000 10.000000 8.713767E+01
40.000000 8.000000 5.751065E+01
40.000000 6.000000 9.189665E+00
40.000000 4.000000 -4.533191E+01
40.000000 2.000000 -8.205017E+01
40.000000 0.000000 -9.015104E+01
40.000000 -2.000000 -6.993907E+01
40.000000 -4.000000 -4.053589E+01
40.000000 -6.000000 -2.424163E+01
40.000000 -8.000000 -3.303270E+01
40.000000 -10.000000 -5.784880E+01
40.000000 -12.000000 -8.758157E+01
40.000000 -14.000000 -1.114091E+02
40.000000 -16.000000 -1.223307E+02
40.000000 -18.000000 -1.157346E+02
40.000000 -20.000000 -8.820935E+01
40.000000 -22.000000 -4.705340E+01
40.000000 -24.000000 -3.298403E+00
40.000000 -26.000000 2.590446E+01
40.000000 -28.000000 3.751740E+01
40.000000 -30.000000 4.028023E+01
40.000000 -32.000000 2.997670E+01
40.000000 -34.000000 9.700088E+00
40.000000 -36.000000 -7.436858E+00
40.000000 -38.000000 -1.327776E+01
40.000000 -40.000000 -1.222053E+01
42.000000 40.000000 -6.100542E+01
42.000000 38.000000 -4.845476E+01
42.000000 36.000000 -2.883248E+01
42.000000 34.000000 -3.628273E-01
42.000000 32.000000 2.360968E+01
42.000000 30.000000 2.903391E+01
42.000000 28.000000 1.746875E+01
42.000000 26.000000 1.424917E+00
42.000000 24.000000 -1.047227E+01
42.000000 22.000000 -2.229841E+01
42.000000 20.000000 -2.970249E+01
42.000000 18.000000 -2.810847E+01
42.000000 16.000000 -6.602212E+00
42.000000 14.000000 2.409998E+01
42.000000 12.000000 4.407633E+01
42.000000 10.000000 4.184089E+01
42.000000 8.000000 1.755704E+01
42.000000 6.000000 -1.566424E+01
42.000000 4.000000 -4.721710E+01
42.000000 2.000000 -6.587556E+01
42.000000 0.000000 -6.774032E+01
42.000000 -2.000000 -5.083756E+01
42.000000 -4.000000 -2.727340E+01
42.000000 -6.000000 -1.290620E+01
42.000000 -8.000000 -1.874373E+01
42.000000 -10.000000 -4.055206E+01
42.000000 -12.000000 -7.318777E+01
42.000000 -14.000000 -1.027703E+02
42.000000 -16.000000 -1.186918E+02
42.000000 -18.000000 -1.141600E+02
42.000000 -20.000000 -8.727620E+01
42.000000 -22.000000 -4.600410E+01
42.000000 -24.000000 -2.433400E+00
42.000000 -26.000000 2.581014E+01
42.000000 -28.000000 3.678584E+01
42.000000 -30.000000 3.973452E+01
42.000000 -32.000000 3.110312E+01
42.000000 -34.000000 1.283359E+01
42.000000 -36.000000 -3.339569E+00
42.000000 -38.000000 -9.685635E+00
42.000000 -40.000000 -9.942167E+00
44.000000 40.000000 -5.622393E+01
44.000000 38.000000 -4.256481E+01
44.000000 36.000000 -2.343417E+01
44.000000 34.000000 4.782252E+00
44.000000 32.000000 3.027949E+01
44.000000 30.000000 3.972375E+01
44.000000 28.000000 3.257177E+01
44.000000 26.000000 1.940238E+01
44.000000 24.000000 1.120667E+01
44.000000 22.000000 5.108547E-01
44.000000 20.000000 -7.416183E+00
44.000000 18.000000 -1.230208E+01
44.000000 16.000000 -3.521385E+00
44.000000 14.000000 1.018474E+01
44.000000 12.000000 1.405491E+01
44.000000 10.000000 2.175577E+00
44.000000 8.000000 -1.470912E+01
44.000000 6.000000 -2.961499E+01
44.000000 4.000000 -3.795630E+01
44.000000 2.000000 -4.151331E+01
44.000000 0.000000 -4.048611E+01
44.000000 -2.000000 -2.914676E+01
44.000000 -4.000000 -1.184011E+01
44.000000 -6.000000 8.667316E-01
44.000000 -8.000000 -2.444098E+00
44.000000 -10.000000 -2.021785E+01
44.000000 -12.000000 -5.258588E+01
44.000000 -14.000000 -8.372142E+01
44.000000 -16.000000 -1.032328E+02
44.000000 -18.000000 -1.029807E+02
44.000000 -20.000000 -7.964243E+01
44.000000 -22.000000 -4.220493E+01
44.000000 -24.000000 -4.386790E+00
44.000000 -26.000000 1.908408E+01
44.000000 -28.000000 2.702571E+01
44.000000 -30.000000 2.932685E+01
44.000000 -32.000000 2.333420E+01
44.000000 -34.000000 9.919586E+00
44.000000 -36.000000 -2.135260E+00
44.000000 -38.000000 -5.547387E+00
44.000000 -40.000000 -4.699521E+00
46.000000 40.000000 -4.931819E+01
46.000000 38.000000 -3.764146E+01
46.000000 36.000000 -2.155078E+01
46.000000 34.000000 3.793538E+00
46.000000 32.000000 3.001804E+01
46.000000 30.000000 4.348550E+01
46.000000 28.000000 3.988316E+01
46.000000 26.000000 2.832477E+01
46.000000 24.000000 1.966007E+01
46.000000 22.000000 9.234732E+00
46.000000 20.000000 1.499953E+00
46.000000 18.000000 -6.431223E+00
46.000000 16.000000 -5.063653E+00
46.000000 14.000000 -3.412113E-01
46.000000 12.000000 -4.023644E+00
46.000000 10.000000 -1.916436E+01
46.000000 8.000000 -2.843824E+01
46.000000 6.000000 -2.799900E+01
46.000000 4.000000 -1.957006E+01
46.000000 2.000000 -1.357248E+01
46.000000 0.000000 -1.059701E+01
46.000000 -2.000000 -3.574028E+00
46.000000 -4.000000 5.437117E+00
46.000000 -6.000000 1.229574E+01
46.000000 -8.000000 8.836952E+00
46.000000 -10.000000 -5.303379E+00
46.000000 -12.000000 -3.415869E+01
46.000000 -14.000000 -6.242787E+01
46.000000 -16.000000 -8.192136E+01
46.000000 -18.000000 -8.525070E+01
46.000000 -20.000000 -6.764694E+01
46.000000 -22.000000 -3.776486E+01
46.000000 -24.000000 -9.667220E+00
46.000000 -26.000000 5.982328E+00
46.000000 -28.000000 9.220187E+00
46.000000 -30.000000 1.083838E+01
46.000000 -32.000000 9.508166E+00
46.000000 -34.000000 4.351175E+00
46.000000 -36.000000 -3.513250E-01
46.000000 -38.000000 -1.228368E-01
46.000000 -40.000000 2.025816E+00
48.000000 40.000000 -4.036054E+01
48.000000 38.000000 -3.240953E+01
48.000000 36.000000 -2.163807E+01
48.000000 34.000000 -3.056648E+00
48.000000 32.000000 2.151461E+01
48.000000 30.000000 3.788132E+01
48.000000 28.000000 3.695895E+01
48.000000 26.000000 2.566003E+01
48.000000 24.000000 1.395058E+01
48.000000 22.000000 3.669250E+00
48.000000 20.000000 -3.655479E+00
48.000000 18.000000 -7.803272E+00
48.000000 16.000000 -2.786447E+00
48.000000 14.000000 3.009844E+00
