-22.000000 10.000000 1.297986E+01
-22.000000 8.000000 4.933559E+00
-22.000000 6.000000 8.114674E+00
-22.000000 4.000000 2.333731E+01
-22.000000 2.000000 3.612697E+01
-22.000000 0.000000 4.335128E+01
-22.000000 -2.000000 4.176903E+01
-22.000000 -4.000000 3.406373E+01
-22.000000 -6.000000 2.476400E+01
-22.000000 -8.000000 1.651982E+01
-22.000000 -10.000000 1.013825E+01
-22.000000 -12.000000 7.367429E+00
-22.000000 -14.000000 9.854442E+00
-22.000000 -16.000000 1.321531E+01
-22.000000 -18.000000 1.230567E+01
-22.000000 -20.000000 1.244603E+01
-22.000000 -22.000000 1.219732E+01
-22.000000 -24.000000 1.121426E+01
-22.000000 -26.000000 6.435965E+00
-22.000000 -28.000000 -3.815222E-02
-22.000000 -30.000000 -3.385222E+00
-22.000000 -32.000000 -1.231351E-01
-22.000000 -34.000000 2.087212E-01
-22.000000 -36.000000 5.479187E+00
-22.000000 -38.000000 1.098451E+01
-22.000000 -40.000000 1.455931E+01
-20.000000 40.000000 2.687634E+01
-20.000000 38.000000 3.349741E+01
-20.000000 36.000000 3.063639E+01
-20.000000 34.000000 1.739288E+01
-20.000000 32.000000 1.243719E+01
-20.000000 30.000000 2.833251E+01
-20.000000 28.000000 4.792780E+01
-20.000000 26.000000 6.126723E+01
-20.000000 24.000000 6.519222E+01
-20.000000 22.000000 5.830870E+01
-20.000000 20.000000 5.219357E+01
-20.000000 18.000000 4.783010E+01
-20.000000 16.000000 4.316039E+01
-20.000000 14.000000 3.191842E+01
-20.000000 12.000000 1.771586E+01
-20.000000 10.000000 -3.752682E+00
-20.000000 8.000000 -1.718903E+01
-20.000000 6.000000 -1.561199E+01
-20.000000 4.000000 5.823803E+00
-20.000000 2.000000 2.646854E+01
-20.000000 0.000000 4.059225E+01
-20.000000 -2.000000 4.712627E+01
-20.000000 -4.000000 4.727449E+01
-20.000000 -6.000000 4.270195E+01
-20.000000 -8.000000 3.476128E+01
-20.000000 -10.000000 2.647611E+01
-20.000000 -12.000000 2.398220E+01
-20.000000 -14.000000 2.781325E+01
-20.000000 -16.000000 3.170354E+01
-20.000000 -18.000000 3.077729E+01
-20.000000 -20.000000 2.994320E+01
-20.000000 -22.000000 2.714042E+01
-20.000000 -24.000000 2.322639E+01
-20.000000 -26.000000 1.601674E+01
-20.000000 -28.000000 7.049842E+00
-20.000000 -30.000000 2.162629E+00
-20.000000 -32.000000 4.609441E+00
-20.000000 -34.000000 4.502616E+00
-20.000000 -36.000000 8.646824E+00
-20.000000 -38.000000 1.281899E+01
-20.000000 -40.000000 1.522299E+01
-18.000000 40.000000 2.555543E+01
-18.000000 38.000000 3.240490E+01
-18.000000 36.000000 3.059866E+01
-18.000000 34.000000 2.015453E+01
-18.000000 32.000000 1.643369E+01
-18.000000 30.000000 3.156462E+01
-18.000000 28.000000 4.843888E+01
-18.000000 26.000000 5.643499E+01
-18.000000 24.000000 5.248496E+01
-18.000000 22.000000 4.246872E+01
-18.000000 20.000000 3.741802E+01
-18.000000 18.000000 4.070881E+01
-18.000000 16.000000 5.097940E+01
-18.000000 14.000000 5.444066E+01
-18.000000 12.000000 4.199690E+01
-18.000000 10.000000 5.122555E+00
-18.000000 8.000000 -2.590928E+01
-18.000000 6.000000 -3.449426E+01
-18.000000 4.000000 -1.345023E+01
-18.000000 2.000000 1.347599E+01
-18.000000 0.000000 3.531729E+01
-18.000000 -2.000000 5.055161E+01
-18.000000 -4.000000 5.939754E+01
-18.000000 -6.000000 5.804301E+01
-18.000000 -8.000000 4.794316E+01
-18.000000 -10.000000 3.567228E+01
-18.000000 -12.000000 3.166438E+01
-18.000000 -14.000000 3.765691E+01
-18.000000 -16.000000 4.165337E+01
-18.000000 -18.000000 4.024529E+01
-18.000000 -20.000000 3.870252E+01
-18.000000 -22.000000 3.595188E+01
-18.000000 -24.000000 3.101223E+01
-18.000000 -26.000000 2.415769E+01
-18.000000 -28.000000 1.558230E+01
-18.000000 -30.000000 1.030052E+01
-18.000000 -32.000000 9.957053E+00
-18.000000 -34.000000 7.303336E+00
-18.000000 -36.000000 8.308134E+00
-18.000000 -38.000000 1.142616E+01
-18.000000 -40.000000 1.390120E+01
-16.000000 40.000000 2.113953E+01
-16.000000 38.000000 3.075006E+01
-16.000000 36.000000 3.099846E+01
-16.000000 34.000000 2.206137E+01
-16.000000 32.000000 1.850788E+01
-16.000000 30.000000 3.368401E+01
-16.000000 28.000000 4.643093E+01
-16.000000 26.000000 4.613260E+01
-16.000000 24.000000 3.285653E+01
-16.000000 22.000000 2.081524E+01
-16.000000 20.000000 1.939054E+01
-16.000000 18.000000 4.016167E+01
-16.000000 16.000000 7.863887E+01
-16.000000 14.000000 1.076698E+02
-16.000000 12.000000 1.002723E+02
-16.000000 10.000000 4.626755E+01
-16.000000 8.000000 -8.590561E+00
-16.000000 6.000000 -3.367415E+01
-16.000000 4.000000 -2.338359E+01
-16.000000 2.000000 1.095314E+00
-16.000000 0.000000 2.649410E+01
-16.000000 -2.000000 4.904295E+01
-16.000000 -4.000000 6.539137E+01
-16.000000 -6.000000 6.624912E+01
-16.000000 -8.000000 5.415923E+01
-16.000000 -10.000000 3.901737E+01
-16.000000 -12.000000 3.148432E+01
-16.000000 -14.000000 3.514030E+01
-16.000000 -16.000000 3.668077E+01
-16.000000 -18.000000 3.437063E+01
-16.000000 -20.000000 3.185099E+01
-16.000000 -22.000000 2.961743E+01
-16.000000 -24.000000 2.738601E+01
-16.000000 -26.000000 2.473625E+01
-16.000000 -28.000000 2.048722E+01
-16.000000 -30.000000 1.711428E+01
-16.000000 -32.000000 1.408830E+01
-16.000000 -34.000000 7.933187E+00
-16.000000 -36.000000 5.921559E+00
-16.000000 -38.000000 8.919801E+00
-16.000000 -40.000000 1.230330E+01
-14.000000 40.000000 1.491562E+01
-14.000000 38.000000 2.728964E+01
-14.000000 36.000000 2.978694E+01
-14.000000 34.000000 2.199266E+01
-14.000000 32.000000 1.915729E+01
-14.000000 30.000000 3.456611E+01
-14.000000 28.000000 4.469019E+01
-14.000000 26.000000 3.862644E+01
-14.000000 24.000000 1.665424E+01
-14.000000 22.000000 3.969040E-01
-14.000000 20.000000 5.001526E-01
-14.000000 18.000000 3.685441E+01
-14.000000 16.000000 1.018389E+02
-14.000000 14.000000 1.576115E+02
-14.000000 12.000000 1.684402E+02
-14.000000 10.000000 1.200910E+02
-14.000000 8.000000 4.836500E+01
-14.000000 6.000000 5.820541E-01
-14.000000 4.000000 -1.212331E+01
-14.000000 2.000000 -3.287708E+00
-14.000000 0.000000 1.716343E+01
-14.000000 -2.000000 4.242614E+01
-14.000000 -4.000000 6.101619E+01
-14.000000 -6.000000 6.172741E+01
-14.000000 -8.000000 4.921886E+01
-14.000000 -10.000000 3.445353E+01
-14.000000 -12.000000 2.436872E+01
-14.000000 -14.000000 2.203351E+01
-14.000000 -16.000000 2.021381E+01
-14.000000 -18.000000 1.629709E+01
-14.000000 -20.000000 1.265916E+01
-14.000000 -22.000000 1.064272E+01
-14.000000 -24.000000 1.230263E+01
-14.000000 -26.000000 1.604823E+01
-14.000000 -28.000000 1.908635E+01
-14.000000 -30.000000 1.860847E+01
-14.000000 -32.000000 1.346659E+01
-14.000000 -34.000000 4.744474E+00
-14.000000 -36.000000 2.683303E+00
-14.000000 -38.000000 6.990145E+00
-14.000000 -40.000000 1.193333E+01
-12.000000 40.000000 8.110086E+00
-12.000000 38.000000 2.215662E+01
-12.000000 36.000000 2.731182E+01
-12.000000 34.000000 2.104111E+01
-12.000000 32.000000 1.889124E+01
-12.000000 30.000000 3.290780E+01
-12.000000 28.000000 4.383073E+01
-12.000000 26.000000 3.869822E+01
-12.000000 24.000000 1.169495E+01
-12.000000 22.000000 -1.156963E+01
-12.000000 20.000000 -1.594915E+01
-12.000000 18.000000 2.595261E+01
-12.000000 16.000000 1.078015E+02
-12.000000 14.000000 1.876641E+02
-12.000000 12.000000 2.257679E+02
-12.000000 10.000000 2.023162E+02
-12.000000 8.000000 1.255877E+02
-12.000000 6.000000 5.519576E+01
-12.000000 4.000000 1.140792E+01
-12.000000 2.000000 -2.627014E+00
-12.000000 0.000000 6.845482E+00
-12.000000 -2.000000 2.904656E+01
-12.000000 -4.000000 4.641150E+01
-12.000000 -6.000000 4.609096E+01
-12.000000 -8.000000 3.425516E+01
-12.000000 -10.000000 2.196633E+01
-12.000000 -12.000000 1.317890E+01
-12.000000 -14.000000 9.964954E+00
-12.000000 -16.000000 7.982573E+00
-12.000000 -18.000000 1.441282E+00
-12.000000 -20.000000 -5.114393E+00
-12.000000 -22.000000 -8.841904E+00
-12.000000 -24.000000 -5.846715E+00
-12.000000 -26.000000 1.913617E+00
-12.000000 -28.000000 1.064752E+01
-12.000000 -30.000000 1.207041E+01
-12.000000 -32.000000 5.467733E+00
-12.000000 -34.000000 -3.470276E+00
-12.000000 -36.000000 -2.174658E+00
-12.000000 -38.000000 5.451180E+00
-12.000000 -40.000000 1.325016E+01
-10.000000 40.000000 -7.939415E-01
-10.000000 38.000000 1.581133E+01
-10.000000 36.000000 2.524728E+01
-10.000000 34.000000 2.113523E+01
-10.000000 32.000000 1.813123E+01
-10.000000 30.000000 3.037723E+01
-10.000000 28.000000 4.375779E+01
-10.000000 26.000000 4.243574E+01
-10.000000 24.000000 1.682115E+01
-10.000000 22.000000 -9.952820E+00
-10.000000 20.000000 -2.062983E+01
-10.000000 18.000000 1.792147E+01
-10.000000 16.000000 1.049595E+02
-10.000000 14.000000 1.993164E+02
-10.000000 12.000000 2.594586E+02
-10.000000 10.000000 2.593925E+02
-10.000000 8.000000 1.864430E+02
-10.000000 6.000000 1.029278E+02
-10.000000 4.000000 3.257894E+01
-10.000000 2.000000 -1.086708E+00
-10.000000 0.000000 -3.476490E+00
-10.000000 -2.000000 1.110319E+01
-10.000000 -4.000000 2.380799E+01
-10.000000 -6.000000 2.151605E+01
-10.000000 -8.000000 1.074585E+01
-10.000000 -10.000000 2.290791E+00
-10.000000 -12.000000 6.483383E-01
-10.000000 -14.000000 5.232485E+00
-10.000000 -16.000000 8.687897E+00
-10.000000 -18.000000 2.074497E+00
-10.000000 -20.000000 -9.066593E+00
-10.000000 -22.000000 -1.751117E+01
-10.000000 -24.000000 -1.709407E+01
-10.000000 -26.000000 -9.983871E+00
-10.000000 -28.000000 -1.546067E+00
-10.000000 -30.000000 -6.732340E-01
-10.000000 -32.000000 -7.111073E+00
-10.000000 -34.000000 -1.396993E+01
-10.000000 -36.000000 -9.003650E+00
-10.000000 -38.000000 2.818776E+00
-10.000000 -40.000000 1.447351E+01
-8.000000 40.000000 -1.296581E+01
-8.000000 38.000000 6.427444E+00
-8.000000 36.000000 2.119295E+01
-8.000000 34.000000 2.217640E+01
-8.000000 32.000000 2.002327E+01
-8.000000 30.000000 3.168210E+01
-8.000000 28.000000 4.644091E+01
-8.000000 26.000000 4.826245E+01
-8.000000 24.000000 2.788763E+01
-8.000000 22.000000 2.938847E+00
-8.000000 20.000000 -1.012514E+01
-8.000000 18.000000 2.010841E+01
-8.000000 16.000000 1.005895E+02
-8.000000 14.000000 1.947435E+02
-8.000000 12.000000 2.618007E+02
-8.000000 10.000000 2.725169E+02
-8.000000 8.000000 2.104742E+02
-8.000000 6.000000 1.295480E+02
-8.000000 4.000000 4.960563E+01
-8.000000 2.000000 3.985558E+00
-8.000000 0.000000 -1.036854E+01
-8.000000 -2.000000 -5.064598E+00
-8.000000 -4.000000 2.066269E-01
-8.000000 -6.000000 -5.483154E+00
-8.000000 -8.000000 -1.539214E+01
-8.000000 -10.000000 -2.113194E+01
-8.000000 -12.000000 -1.234770E+01
-8.000000 -14.000000 4.230583E+00
-8.000000 -16.000000 1.775234E+01
-8.000000 -18.000000 1.484596E+01
-8.000000 -20.000000 -2.135334E-01
-8.000000 -22.000000 -1.415665E+01
-8.000000 -24.000000 -1.873307E+01
-8.000000 -26.000000 -1.673821E+01
-8.000000 -28.000000 -1.333769E+01
-8.000000 -30.000000 -1.375945E+01
-8.000000 -32.000000 -1.815701E+01
-8.000000 -34.000000 -2.245121E+01
-8.000000 -36.000000 -1.570006E+01
-8.000000 -38.000000 -8.198991E-01
-8.000000 -40.000000 1.403379E+01
-6.000000 40.000000 -2.635700E+01
-6.000000 38.000000 -5.960283E+00
-6.000000 36.000000 1.220187E+01
-6.000000 34.000000 2.179314E+01
-6.000000 32.000000 2.420369E+01
-6.000000 30.000000 3.598111E+01
-6.000000 28.000000 4.983325E+01
-6.000000 26.000000 5.380540E+01
-6.000000 24.000000 4.024637E+01
-6.000000 22.000000 1.964618E+01
-6.000000 20.000000 9.111691E+00
-6.000000 18.000000 3.079567E+01
-6.000000 16.000000 9.633543E+01
-6.000000 14.000000 1.779307E+02
-6.000000 12.000000 2.378451E+02
-6.000000 10.000000 2.497045E+02
-6.000000 8.000000 2.016661E+02
-6.000000 6.000000 1.311322E+02
-6.000000 4.000000 5.631673E+01
-6.000000 2.000000 9.318470E+00
-6.000000 0.000000 -1.070516E+01
-6.000000 -2.000000 -1.087919E+01
-6.000000 -4.000000 -1.087753E+01
-6.000000 -6.000000 -2.077870E+01
-6.000000 -8.000000 -3.292329E+01
-6.000000 -10.000000 -3.980172E+01
-6.000000 -12.000000 -2.342662E+01
-6.000000 -14.000000 3.134178E+00
-6.000000 -16.000000 2.730613E+01
-6.000000 -18.000000 2.787114E+01
-6.000000 -20.000000 1.001242E+01
-6.000000 -22.000000 -6.808510E+00
-6.000000 -24.000000 -1.470523E+01
-6.000000 -26.000000 -1.919052E+01
-6.000000 -28.000000 -2.227809E+01
-6.000000 -30.000000 -2.300010E+01
-6.000000 -32.000000 -2.455934E+01
-6.000000 -34.000000 -2.716094E+01
-6.000000 -36.000000 -2.017779E+01
-6.000000 -38.000000 -4.602420E+00
-6.000000 -40.000000 1.198297E+01
-4.000000 40.000000 -3.627562E+01
-4.000000 38.000000 -1.700814E+01
-4.000000 36.000000 1.487282E+00
-4.000000 34.000000 1.786356E+01
-4.000000 32.000000 2.481980E+01
-4.000000 30.000000 3.559844E+01
-4.000000 28.000000 4.697792E+01
-4.000000 26.000000 5.171119E+01
-4.000000 24.000000 4.325695E+01
-4.000000 22.000000 2.806795E+01
-4.000000 20.000000 2.314915E+01
-4.000000 18.000000 4.001408E+01
-4.000000 16.000000 8.980274E+01
-4.000000 14.000000 1.562364E+02
-4.000000 12.000000 2.066764E+02
-4.000000 10.000000 2.181484E+02
-4.000000 8.000000 1.813261E+02
-4.000000 6.000000 1.191120E+02
-4.000000 4.000000 5.347227E+01
-4.000000 2.000000 1.273808E+01
-4.000000 0.000000 -3.081440E+00
-4.000000 -2.000000 -1.121777E+00
-4.000000 -4.000000 -6.467209E-01
-4.000000 -6.000000 -1.320435E+01
-4.000000 -8.000000 -2.951162E+01
-4.000000 -10.000000 -4.149965E+01
-4.000000 -12.000000 -2.670275E+01
-4.000000 -14.000000 7.775497E-02
-4.000000 -16.000000 2.420188E+01
-4.000000 -18.000000 2.509299E+01
-4.000000 -20.000000 8.509556E+00
-4.000000 -22.000000 -5.876440E+00
-4.000000 -24.000000 -1.254466E+01
-4.000000 -26.000000 -1.890536E+01
-4.000000 -28.000000 -2.504260E+01
-4.000000 -30.000000 -2.618692E+01
-4.000000 -32.000000 -2.661717E+01
-4.000000 -34.000000 -2.873636E+01
-4.000000 -36.000000 -2.209307E+01
-4.000000 -38.000000 -7.329389E+00
-4.000000 -40.000000 9.874841E+00
-2.000000 40.000000 -3.965341E+01
-2.000000 38.000000 -2.314115E+01
-2.000000 36.000000 -7.395666E+00
-2.000000 34.000000 9.398350E+00
-2.000000 32.000000 1.828499E+01
-2.000000 30.000000 2.805224E+01
-2.000000 28.000000 3.618557E+01
-2.000000 26.000000 3.901610E+01
-2.000000 24.000000 3.019644E+01
-2.000000 22.000000 1.952206E+01
-2.000000 20.000000 1.944459E+01
-2.000000 18.000000 3.540021E+01
-2.000000 16.000000 7.791420E+01
-2.000000 14.000000 1.376769E+02
-2.000000 12.000000 1.876114E+02
-2.000000 10.000000 2.040950E+02
-2.000000 8.000000 1.736732E+02
-2.000000 6.000000 1.143238E+02
-2.000000 4.000000 5.210733E+01
-2.000000 2.000000 1.632100E+01
-2.000000 0.000000 7.651165E+00
-2.000000 -2.000000 1.587863E+01
-2.000000 -4.000000 2.177905E+01
-2.000000 -6.000000 1.217776E+01
-2.000000 -8.000000 -5.412647E+00
-2.000000 -10.000000 -2.171381E+01
-2.000000 -12.000000 -1.870749E+01
-2.000000 -14.000000 -4.180225E+00
-2.000000 -16.000000 8.444355E+00
-2.000000 -18.000000 5.403664E+00
-2.000000 -20.000000 -7.284256E+00
-2.000000 -22.000000 -1.496159E+01
-2.000000 -24.000000 -1.554120E+01
-2.000000 -26.000000 -1.740012E+01
-2.000000 -28.000000 -2.160095E+01
-2.000000 -30.000000 -2.393234E+01
-2.000000 -32.000000 -2.651811E+01
-2.000000 -34.000000 -2.973372E+01
-2.000000 -36.000000 -2.320148E+01
-2.000000 -38.000000 -8.199850E+00
-2.000000 -40.000000 9.743129E+00
0.000000 40.000000 -3.698300E+01
0.000000 38.000000 -2.344034E+01
0.000000 36.000000 -1.355956E+01
0.000000 34.000000 -3.760578E+00
0.000000 32.000000 4.561813E+00
0.000000 30.000000 1.645134E+01
0.000000 28.000000 2.241595E+01
0.000000 26.000000 2.074894E+01
0.000000 24.000000 7.794960E+00
0.000000 22.000000 -8.838348E-01
0.000000 20.000000 5.415840E-01
0.000000 18.000000 2.023638E+01
0.000000 16.000000 6.662774E+01
0.000000 14.000000 1.299286E+02
0.000000 12.000000 1.892559E+02
0.000000 10.000000 2.162604E+02
0.000000 8.000000 1.863270E+02
0.000000 6.000000 1.226909E+02
0.000000 4.000000 5.417719E+01
0.000000 2.000000 1.612467E+01
0.000000 0.000000 1.105729E+01
0.000000 -2.000000 2.593236E+01
0.000000 -4.000000 4.041924E+01
0.000000 -6.000000 3.904092E+01
0.000000 -8.000000 2.398367E+01
0.000000 -10.000000 6.577030E+00
0.000000 -12.000000 -4.192776E+00
0.000000 -14.000000 -5.637688E+00
0.000000 -16.000000 -6.189198E+00
0.000000 -18.000000 -1.486435E+01
0.000000 -20.000000 -2.500718E+01
0.000000 -22.000000 -2.670206E+01
0.000000 -24.000000 -1.924033E+01
0.000000 -26.000000 -1.351699E+01
0.000000 -28.000000 -1.396307E+01
0.000000 -30.000000 -1.878834E+01
0.000000 -32.000000 -2.647050E+01
0.000000 -34.000000 -3.271090E+01
0.000000 -36.000000 -2.521940E+01
0.000000 -38.000000 -7.864264E+00
0.000000 -40.000000 1.188983E+01
2.000000 40.000000 -3.178302E+01
2.000000 38.000000 -1.949455E+01
2.000000 36.000000 -1.621977E+01
2.000000 34.000000 -1.642781E+01
2.000000 32.000000 -9.837189E+00
2.000000 30.000000 5.983734E+00
2.000000 28.000000 1.255748E+01
2.000000 26.000000 7.853035E+00
2.000000 24.000000 -8.672871E+00
2.000000 22.000000 -1.778704E+01
2.000000 20.000000 -1.758633E+01
2.000000 18.000000 6.031994E+00
2.000000 16.000000 6.011117E+01
2.000000 14.000000 1.323321E+02
2.000000 12.000000 2.042316E+02
2.000000 10.000000 2.423914E+02
2.000000 8.000000 2.097317E+02
2.000000 6.000000 1.384282E+02
2.000000 4.000000 5.714556E+01
2.000000 2.000000 9.463932E+00
2.000000 0.000000 1.248955E+00
2.000000 -2.000000 2.053992E+01
2.000000 -4.000000 4.363988E+01
2.000000 -6.000000 5.140099E+01
2.000000 -8.000000 4.198983E+01
2.000000 -10.000000 2.653722E+01
2.000000 -12.000000 8.382862E+00
2.000000 -14.000000 -2.915268E+00
2.000000 -16.000000 -1.194014E+01
2.000000 -18.000000 -2.311113E+01
2.000000 -20.000000 -3.119676E+01
2.000000 -22.000000 -2.975531E+01
2.000000 -24.000000 -1.686545E+01
2.000000 -26.000000 -4.801897E+00
2.000000 -28.000000 -3.173555E+00
2.000000 -30.000000 -1.194361E+01
2.000000 -32.000000 -2.655519E+01
2.000000 -34.000000 -3.680391E+01
2.000000 -36.000000 -2.771978E+01
2.000000 -38.000000 -7.059330E+00
2.000000 -40.000000 1.531167E+01
4.000000 40.000000 -2.894239E+01
4.000000 38.000000 -1.496774E+01
4.000000 36.000000 -1.448688E+01
4.000000 34.000000 -2.046326E+01
4.000000 32.000000 -1.650149E+01
4.000000 30.000000 1.129761E+00
4.000000 28.000000 1.215523E+01
4.000000 26.000000 9.970547E+00
4.000000 24.000000 -5.928364E+00
4.000000 22.000000 -1.636076E+01
4.000000 20.000000 -1.967490E+01
4.000000 18.000000 7.714806E-01
4.000000 16.000000 5.585912E+01
4.000000 14.000000 1.331600E+02
4.000000 12.000000 2.144566E+02
4.000000 10.000000 2.634680E+02
4.000000 8.000000 2.310599E+02
4.000000 6.000000 1.533692E+02
4.000000 4.000000 5.790742E+01
4.000000 2.000000 -3.183613E+00
4.000000 0.000000 -1.988326E+01
4.000000 -2.000000 -6.203041E-01
4.000000 -4.000000 2.796379E+01
4.000000 -6.000000 4.276493E+01
4.000000 -8.000000 3.981897E+01
4.000000 -10.000000 2.860801E+01
4.000000 -12.000000 1.145252E+01
4.000000 -14.000000 6.905823E-01
4.000000 -16.000000 -6.620724E+00
4.000000 -18.000000 -1.506182E+01
4.000000 -20.000000 -2.097425E+01
4.000000 -22.000000 -1.948376E+01
4.000000 -24.000000 -5.825020E+00
4.000000 -26.000000 8.203169E+00
4.000000 -28.000000 8.338560E+00
4.000000 -30.000000 -5.036308E+00
4.000000 -32.000000 -2.549474E+01
4.000000 -34.000000 -3.874508E+01
4.000000 -36.000000 -2.851425E+01
4.000000 -38.000000 -5.524366E+00
4.000000 -40.000000 1.914343E+01
6.000000 40.000000 -3.063904E+01
6.000000 38.000000 -1.148829E+01
6.000000 36.000000 -8.320587E+00
6.000000 34.000000 -1.415315E+01
6.000000 32.000000 -1.224562E+01
6.000000 30.000000 5.844740E+00
6.000000 28.000000 2.235806E+01
6.000000 26.000000 2.607737E+01
6.000000 24.000000 1.593125E+01
6.000000 22.000000 3.834259E+00
6.000000 20.000000 -4.611073E+00
6.000000 18.000000 3.703083E+00
6.000000 16.000000 4.676584E+01
6.000000 14.000000 1.202360E+02
6.000000 12.000000 2.059438E+02
6.000000 10.000000 2.647982E+02
6.000000 8.000000 2.417570E+02
6.000000 6.000000 1.656741E+02
6.000000 4.000000 6.132518E+01
6.000000 2.000000 -1.374233E+01
6.000000 0.000000 -4.354388E+01
6.000000 -2.000000 -3.034937E+01
6.000000 -4.000000 3.793716E-02
6.000000 -6.000000 2.085756E+01
6.000000 -8.000000 2.326639E+01
6.000000 -10.000000 1.642903E+01
6.000000 -12.000000 6.140953E+00
6.000000 -14.000000 2.549786E+00
6.000000 -16.000000 3.783760E+00
6.000000 -18.000000 1.347763E+00
6.000000 -20.000000 -2.180857E+00
6.000000 -22.000000 -2.829966E+00
6.000000 -24.000000 7.004773E+00
6.000000 -26.000000 1.828731E+01
6.000000 -28.000000 1.610393E+01
6.000000 -30.000000 6.813669E-01
6.000000 -32.000000 -2.164969E+01
6.000000 -34.000000 -3.552113E+01
6.000000 -36.000000 -2.452119E+01
6.000000 -38.000000 -8.821263E-01
6.000000 -40.000000 2.450237E+01
8.000000 40.000000 -3.547776E+01
8.000000 38.000000 -9.366796E+00
8.000000 36.000000 2.498865E-01
8.000000 34.000000 -8.921700E-01
8.000000 32.000000 1.027788E+00
8.000000 30.000000 1.922240E+01
8.000000 28.000000 3.761941E+01
8.000000 26.000000 4.519804E+01
8.000000 24.000000 4.231341E+01
8.000000 22.000000 2.876989E+01
8.000000 20.000000 1.427050E+01
8.000000 18.000000 5.306992E+00
8.000000 16.000000 2.888630E+01
8.000000 14.000000 9.191591E+01
8.000000 12.000000 1.780506E+02
8.000000 10.000000 2.459395E+02
8.000000 8.000000 2.408811E+02
8.000000 6.000000 1.786602E+02
8.000000 4.000000 7.607678E+01
8.000000 2.000000 -1.234571E+01
8.000000 0.000000 -5.953370E+01
8.000000 -2.000000 -5.709536E+01
8.000000 -4.000000 -2.788818E+01
8.000000 -6.000000 -1.806808E+00
8.000000 -8.000000 5.204670E+00
8.000000 -10.000000 1.053043E+00
8.000000 -12.000000 -3.545139E+00
8.000000 -14.000000 8.677292E-02
8.000000 -16.000000 9.974394E+00
8.000000 -18.000000 1.403806E+01
8.000000 -20.000000 1.251044E+01
8.000000 -22.000000 1.021946E+01
8.000000 -24.000000 1.467969E+01
8.000000 -26.000000 2.062664E+01
8.000000 -28.000000 1.792798E+01
8.000000 -30.000000 4.736297E+00
8.000000 -32.000000 -1.423552E+01
8.000000 -34.000000 -2.527672E+01
8.000000 -36.000000 -1.423481E+01
8.000000 -38.000000 7.730061E+00
8.000000 -40.000000 3.174065E+01
10.000000 40.000000 -3.988095E+01
10.000000 38.000000 -8.806120E+00
10.000000 36.000000 7.881536E+00
10.000000 34.000000 1.375115E+01
10.000000 32.000000 1.610673E+01
10.000000 30.000000 3.136624E+01
10.000000 28.000000 4.694363E+01
10.000000 26.000000 5.370760E+01
10.000000 24.000000 5.333691E+01
10.000000 22.000000 3.916305E+01
10.000000 20.000000 2.088968E+01
10.000000 18.000000 -5.408096E-02
10.000000 16.000000 9.369007E+00
10.000000 14.000000 6.224580E+01
10.000000 12.000000 1.460661E+02
10.000000 10.000000 2.214803E+02
10.000000 8.000000 2.357231E+02
10.000000 6.000000 1.921386E+02
10.000000 4.000000 9.840266E+01
10.000000 2.000000 -5.719070E-01
10.000000 0.000000 -6.540223E+01
10.000000 -2.000000 -7.408772E+01
10.000000 -4.000000 -4.679811E+01
10.000000 -6.000000 -1.674179E+01
10.000000 -8.000000 -6.913216E+00
10.000000 -10.000000 -1.088543E+01
10.000000 -12.000000 -1.395918E+01
10.000000 -14.000000 -5.804371E+00
10.000000 -16.000000 1.011686E+01
10.000000 -18.000000 1.886573E+01
10.000000 -20.000000 1.793243E+01
10.000000 -22.000000 1.460931E+01
10.000000 -24.000000 1.564496E+01
10.000000 -26.000000 1.856682E+01
10.000000 -28.000000 1.748160E+01
10.000000 -30.000000 8.700741E+00
10.000000 -32.000000 -2.638387E+00
10.000000 -34.000000 -7.813768E+00
10.000000 -36.000000 9.406772E-01
10.000000 -38.000000 1.640905E+01
10.000000 -40.000000 3.698936E+01
12.000000 40.000000 -4.183035E+01
12.000000 38.000000 -8.932221E+00
12.000000 36.000000 1.299257E+01
12.000000 34.000000 2.352722E+01
12.000000 32.000000 2.355350E+01
12.000000 30.000000 3.219479E+01
12.000000 28.000000 4.166554E+01
12.000000 26.000000 4.417502E+01
12.000000 24.000000 4.119335E+01
12.000000 22.000000 2.748911E+01
12.000000 20.000000 1.013091E+01
12.000000 18.000000 -8.788044E+00
12.000000 16.000000 -3.332634E-01
12.000000 14.000000 4.875231E+01
12.000000 12.000000 1.298671E+02
12.000000 10.000000 2.068055E+02
12.000000 8.000000 2.282373E+02
12.000000 6.000000 1.949233E+02
12.000000 4.000000 1.073812E+02
12.000000 2.000000 6.911301E+00
12.000000 0.000000 -6.274638E+01
12.000000 -2.000000 -7.594779E+01
12.000000 -4.000000 -5.067534E+01
12.000000 -6.000000 -2.044656E+01
12.000000 -8.000000 -1.189088E+01
12.000000 -10.000000 -1.906344E+01
12.000000 -12.000000 -2.282944E+01
12.000000 -14.000000 -1.055576E+01
12.000000 -16.000000 1.135907E+01
12.000000 -18.000000 2.247192E+01
12.000000 -20.000000 1.995056E+01
12.000000 -22.000000 1.409260E+01
12.000000 -24.000000 1.318777E+01
12.000000 -26.000000 1.546659E+01
12.000000 -28.000000 1.726618E+01
12.000000 -30.000000 1.367405E+01
12.000000 -32.000000 1.007835E+01
12.000000 -34.000000 9.302046E+00
12.000000 -36.000000 1.422179E+01
12.000000 -38.000000 2.201079E+01
12.000000 -40.000000 3.859103E+01
14.000000 40.000000 -4.342041E+01
14.000000 38.000000 -9.743441E+00
14.000000 36.000000 1.593794E+01
14.000000 34.000000 2.628831E+01
14.000000 32.000000 1.992324E+01
14.000000 30.000000 1.991120E+01
14.000000 28.000000 2.187623E+01
14.000000 26.000000 2.000600E+01
14.000000 24.000000 1.349766E+01
14.000000 22.000000 3.280613E+00
14.000000 20.000000 -8.064697E+00
14.000000 18.000000 -1.327826E+01
14.000000 16.000000 5.713226E+00
14.000000 14.000000 5.606580E+01
14.000000 12.000000 1.307730E+02
14.000000 10.000000 1.983361E+02
14.000000 8.000000 2.132193E+02
14.000000 6.000000 1.811375E+02
14.000000 4.000000 9.961125E+01
14.000000 2.000000 8.724590E+00
14.000000 0.000000 -5.195157E+01
14.000000 -2.000000 -6.262873E+01
14.000000 -4.000000 -4.113028E+01
14.000000 -6.000000 -1.831602E+01
14.000000 -8.000000 -1.790509E+01
14.000000 -10.000000 -3.104631E+01
14.000000 -12.000000 -3.369624E+01
14.000000 -14.000000 -1.222010E+01
14.000000 -16.000000 1.979338E+01
14.000000 -18.000000 3.357195E+01
14.000000 -20.000000 2.755241E+01
14.000000 -22.000000 1.629752E+01
14.000000 -24.000000 1.193560E+01
14.000000 -26.000000 1.319137E+01
14.000000 -28.000000 1.634000E+01
14.000000 -30.000000 1.676897E+01
14.000000 -32.000000 1.714734E+01
14.000000 -34.000000 1.538878E+01
14.000000 -36.000000 1.798988E+01
14.000000 -38.000000 2.387059E+01
14.000000 -40.000000 3.816827E+01
16.000000 40.000000 -4.737013E+01
16.000000 38.000000 -1.450273E+01
16.000000 36.000000 1.334082E+01
16.000000 34.000000 2.169670E+01
16.000000 32.000000 8.713276E+00
16.000000 30.000000 8.551292E-01
16.000000 28.000000 -2.890605E+00
16.000000 26.000000 -5.264673E+00
16.000000 24.000000 -1.123390E+01
16.000000 22.000000 -1.509525E+01
16.000000 20.000000 -1.783081E+01
16.000000 18.000000 -8.573481E+00
16.000000 16.000000 2.320884E+01
16.000000 14.000000 7.374868E+01
16.000000 12.000000 1.352438E+02
16.000000 10.000000 1.852166E+02
16.000000 8.000000 1.911900E+02
16.000000 6.000000 1.601063E+02
16.000000 4.000000 9.194098E+01
16.000000 2.000000 1.788116E+01
16.000000 0.000000 -3.137460E+01
16.000000 -2.000000 -4.171774E+01
16.000000 -4.000000 -3.054175E+01
16.000000 -6.000000 -2.425195E+01
16.000000 -8.000000 -3.733243E+01
16.000000 -10.000000 -5.523944E+01
16.000000 -12.000000 -5.174931E+01
16.000000 -14.000000 -1.558176E+01
16.000000 -16.000000 3.030603E+01
16.000000 -18.000000 4.964989E+01
16.000000 -20.000000 4.043381E+01
16.000000 -22.000000 2.211106E+01
16.000000 -24.000000 1.202072E+01
16.000000 -26.000000 1.226467E+01
16.000000 -28.000000 1.537482E+01
16.000000 -30.000000 1.606264E+01
16.000000 -32.000000 1.509323E+01
16.000000 -34.000000 1.038662E+01
16.000000 -36.000000 1.259974E+01
16.000000 -38.000000 2.021147E+01
16.000000 -40.000000 3.438987E+01
18.000000 40.000000 -5.547161E+01
18.000000 38.000000 -2.502566E+01
18.000000 36.000000 2.722204E+00
18.000000 34.000000 1.114678E+01
18.000000 32.000000 -4.419429E+00
18.000000 30.000000 -1.613326E+01
18.000000 28.000000 -2.088986E+01
18.000000 26.000000 -1.966210E+01
18.000000 24.000000 -2.040059E+01
18.000000 22.000000 -1.696198E+01
18.000000 20.000000 -1.087273E+01
18.000000 18.000000 6.885626E+00
18.000000 16.000000 4.362707E+01
18.000000 14.000000 9.065520E+01
18.000000 12.000000 1.386336E+02
18.000000 10.000000 1.728311E+02
18.000000 8.000000 1.731186E+02
18.000000 6.000000 1.460048E+02
18.000000 4.000000 9.450343E+01
18.000000 2.000000 3.745582E+01
18.000000 0.000000 -5.100040E+00
18.000000 -2.000000 -2.372116E+01
18.000000 -4.000000 -3.120520E+01
18.000000 -6.000000 -4.585255E+01
18.000000 -8.000000 -7.188697E+01
18.000000 -10.000000 -9.380682E+01
18.000000 -12.000000 -8.037326E+01
18.000000 -14.000000 -2.781792E+01
18.000000 -16.000000 3.226105E+01
18.000000 -18.000000 5.864664E+01
18.000000 -20.000000 4.857549E+01
18.000000 -22.000000 2.491799E+01
18.000000 -24.000000 9.806483E+00
18.000000 -26.000000 9.327283E+00
18.000000 -28.000000 1.272850E+01
18.000000 -30.000000 1.161194E+01
18.000000 -32.000000 5.839163E+00
18.000000 -34.000000 -1.335800E+00
18.000000 -36.000000 1.504962E+00
18.000000 -38.000000 1.108770E+01
18.000000 -40.000000 2.676407E+01
20.000000 40.000000 -6.764537E+01
20.000000 38.000000 -3.895012E+01
20.000000 36.000000 -1.247254E+01
20.000000 34.000000 -1.294679E+00
20.000000 32.000000 -1.416484E+01
20.000000 30.000000 -2.350383E+01
20.000000 28.000000 -2.471855E+01
20.000000 26.000000 -1.919903E+01
20.000000 24.000000 -1.495259E+01
20.000000 22.000000 -7.172711E+00
20.000000 20.000000 4.054276E+00
20.000000 18.000000 2.416892E+01
20.000000 16.000000 5.821989E+01
20.000000 14.000000 9.998668E+01
20.000000 12.000000 1.398981E+02
20.000000 10.000000 1.667556E+02
20.000000 8.000000 1.681543E+02
20.000000 6.000000 1.497771E+02
20.000000 4.000000 1.120216E+02
20.000000 2.000000 6.409157E+01
20.000000 0.000000 1.940236E+01
20.000000 -2.000000 -1.588592E+01
20.000000 -4.000000 -4.634467E+01
20.000000 -6.000000 -7.945748E+01
20.000000 -8.000000 -1.128470E+02
20.000000 -10.000000 -1.372003E+02
20.000000 -12.000000 -1.128524E+02
20.000000 -14.000000 -4.809656E+01
20.000000 -16.000000 1.994457E+01
20.000000 -18.000000 5.022116E+01
20.000000 -20.000000 4.204912E+01
20.000000 -22.000000 1.798417E+01
20.000000 -24.000000 2.193784E+00
20.000000 -26.000000 9.359670E-01
20.000000 -28.000000 3.472575E+00
20.000000 -30.000000 1.120331E+00
20.000000 -32.000000 -7.955984E+00
20.000000 -34.000000 -1.725319E+01
20.000000 -36.000000 -1.334097E+01
20.000000 -38.000000 -6.135250E-01
20.000000 -40.000000 1.821638E+01
22.000000 40.000000 -8.404404E+01
22.000000 38.000000 -5.509069E+01
22.000000 36.000000 -2.734940E+01
22.000000 34.000000 -8.947176E+00
22.000000 32.000000 -1.364395E+01
22.000000 30.000000 -1.631113E+01
22.000000 28.000000 -1.394536E+01
22.000000 26.000000 -7.900644E+00
22.000000 24.000000 -3.342531E+00
22.000000 22.000000 3.010784E+00
22.000000 20.000000 1.303019E+01
22.000000 18.000000 2.985793E+01
22.000000 16.000000 5.925255E+01
22.000000 14.000000 9.626702E+01
22.000000 12.000000 1.340937E+02
22.000000 10.000000 1.634232E+02
22.000000 8.000000 1.720033E+02
22.000000 6.000000 1.657406E+02
22.000000 4.000000 1.364987E+02
22.000000 2.000000 8.735031E+01
22.000000 0.000000 3.238190E+01
22.000000 -2.000000 -1.987696E+01
22.000000 -4.000000 -6.658012E+01
22.000000 -6.000000 -1.098490E+02
22.000000 -8.000000 -1.442997E+02
22.000000 -10.000000 -1.659919E+02
22.000000 -12.000000 -1.341877E+02
22.000000 -14.000000 -6.669101E+01
22.000000 -16.000000 -5.247822E-01
22.000000 -18.000000 2.651457E+01
22.000000 -20.000000 1.796414E+01
22.000000 -22.000000 -3.088727E+00
22.000000 -24.000000 -1.517706E+01
22.000000 -26.000000 -1.504704E+01
22.000000 -28.000000 -1.309472E+01
22.000000 -30.000000 -1.526538E+01
22.000000 -32.000000 -2.481333E+01
22.000000 -34.000000 -3.496686E+01
22.000000 -36.000000 -2.918651E+01
22.000000 -38.000000 -1.199161E+01
22.000000 -40.000000 1.080023E+01
24.000000 40.000000 -1.041318E+02
24.000000 38.000000 -7.240411E+01
24.000000 36.000000 -3.747012E+01
24.000000 34.000000 -7.409148E+00
24.000000 32.000000 -3.969450E-01
24.000000 30.000000 3.154347E+00
24.000000 28.000000 3.388594E+00
24.000000 26.000000 3.540726E+00
24.000000 24.000000 4.613743E+00
24.000000 22.000000 5.716656E+00
24.000000 20.000000 1.027331E+01
24.000000 18.000000 2.019834E+01
24.000000 16.000000 4.376027E+01
24.000000 14.000000 7.697295E+01
24.000000 12.000000 1.162212E+02
24.000000 10.000000 1.532751E+02
24.000000 8.000000 1.736847E+02
24.000000 6.000000 1.802848E+02
24.000000 4.000000 1.558378E+02
24.000000 2.000000 9.985238E+01
24.000000 0.000000 3.287024E+01
24.000000 -2.000000 -2.941683E+01
24.000000 -4.000000 -7.976458E+01
24.000000 -6.000000 -1.217054E+02
24.000000 -8.000000 -1.522696E+02
24.000000 -10.000000 -1.687572E+02
24.000000 -12.000000 -1.357537E+02
24.000000 -14.000000 -7.339906E+01
24.000000 -16.000000 -1.826658E+01
24.000000 -18.000000 -2.507777E+00
24.000000 -20.000000 -1.727039E+01
24.000000 -22.000000 -3.688102E+01
24.000000 -24.000000 -4.412834E+01
24.000000 -26.000000 -3.948768E+01
24.000000 -28.000000 -3.323760E+01
24.000000 -30.000000 -3.259273E+01
24.000000 -32.000000 -4.118350E+01
24.000000 -34.000000 -5.080217E+01
24.000000 -36.000000 -4.249405E+01
24.000000 -38.000000 -2.098822E+01
24.000000 -40.000000 5.264456E+00
26.000000 40.000000 -1.217420E+02
26.000000 38.000000 -8.775983E+01
26.000000 36.000000 -4.604399E+01
26.000000 34.000000 -5.119890E+00
26.000000 32.000000 1.419963E+01
26.000000 30.000000 2.319755E+01
26.000000 28.000000 1.782489E+01
26.000000 26.000000 8.179261E+00
26.000000 24.000000 3.497039E+00
26.000000 22.000000 -2.324140E-01
26.000000 20.000000 -2.557020E-01
26.000000 18.000000 4.254375E+00
26.000000 16.000000 2.159546E+01
26.000000 14.000000 5.120486E+01
26.000000 12.000000 9.154274E+01
26.000000 10.000000 1.335843E+02
26.000000 8.000000 1.636682E+02
26.000000 6.000000 1.786917E+02
26.000000 4.000000 1.577912E+02
26.000000 2.000000 9.807469E+01
26.000000 0.000000 2.622151E+01
26.000000 -2.000000 -3.568086E+01
26.000000 -4.000000 -7.963194E+01
26.000000 -6.000000 -1.117039E+02
26.000000 -8.000000 -1.368135E+02
26.000000 -10.000000 -1.500048E+02
26.000000 -12.000000 -1.219939E+02
26.000000 -14.000000 -6.897309E+01
26.000000 -16.000000 -2.822682E+01
26.000000 -18.000000 -2.713156E+01
26.000000 -20.000000 -5.078706E+01
26.000000 -22.000000 -7.132157E+01
26.000000 -24.000000 -7.403579E+01
26.000000 -26.000000 -6.326741E+01
26.000000 -28.000000 -4.956170E+01
26.000000 -30.000000 -4.441388E+01
26.000000 -32.000000 -5.102601E+01
26.000000 -34.000000 -6.000089E+01
26.000000 -36.000000 -5.097510E+01
26.000000 -38.000000 -2.785477E+01
26.000000 -40.000000 -2.104616E-01
28.000000 40.000000 -1.316459E+02
28.000000 38.000000 -1.000161E+02
28.000000 36.000000 -5.787266E+01
28.000000 34.000000 -1.045037E+01
28.000000 32.000000 1.927618E+01
28.000000 30.000000 3.314848E+01
28.000000 28.000000 2.322269E+01
28.000000 26.000000 4.578732E+00
28.000000 24.000000 -7.104361E+00
28.000000 22.000000 -1.207197E+01
28.000000 20.000000 -1.268825E+01
28.000000 18.000000 -9.790098E+00
28.000000 16.000000 3.672373E+00
28.000000 14.000000 2.936435E+01
28.000000 12.000000 6.923017E+01
28.000000 10.000000 1.128912E+02
28.000000 8.000000 1.451418E+02
28.000000 6.000000 1.600556E+02
28.000000 4.000000 1.403032E+02
28.000000 2.000000 8.231224E+01
28.000000 0.000000 1.538839E+01
28.000000 -2.000000 -3.686548E+01
28.000000 -4.000000 -6.789574E+01
28.000000 -6.000000 -8.793161E+01
28.000000 -8.000000 -1.102060E+02
28.000000 -10.000000 -1.248546E+02
28.000000 -12.000000 -1.053347E+02
28.000000 -14.000000 -6.229607E+01
28.000000 -16.000000 -3.232622E+01
28.000000 -18.000000 -4.115592E+01
28.000000 -20.000000 -6.988596E+01
28.000000 -22.000000 -9.056280E+01
28.000000 -24.000000 -8.970015E+01
28.000000 -26.000000 -7.396377E+01
28.000000 -28.000000 -5.508367E+01
28.000000 -30.000000 -4.653773E+01
28.000000 -32.000000 -5.097740E+01
28.000000 -34.000000 -6.007246E+01
28.000000 -36.000000 -5.378435E+01
28.000000 -38.000000 -3.352026E+01
28.000000 -40.000000 -7.854300E+00
30.000000 40.000000 -1.371881E+02
30.000000 38.000000 -1.094863E+02
30.000000 36.000000 -6.869608E+01
30.000000 34.000000 -1.855602E+01
30.000000 32.000000 1.569812E+01
30.000000 30.000000 2.937311E+01
30.000000 28.000000 1.527185E+01
30.000000 26.000000 -8.587172E+00
30.000000 24.000000 -2.337443E+01
30.000000 22.000000 -2.500637E+01
30.000000 20.000000 -2.250059E+01
30.000000 18.000000 -1.733974E+01
30.000000 16.000000 -2.580788E+00
30.000000 14.000000 2.377016E+01
30.000000 12.000000 6.357163E+01
30.000000 10.000000 1.032461E+02
30.000000 8.000000 1.264477E+02
30.000000 6.000000 1.305760E+02
30.000000 4.000000 1.061981E+02
30.000000 2.000000 5.316233E+01
30.000000 0.000000 -1.052436E+00
30.000000 -2.000000 -3.825014E+01
30.000000 -4.000000 -5.492897E+01
30.000000 -6.000000 -6.550768E+01
30.000000 -8.000000 -8.782339E+01
30.000000 -10.000000 -1.078294E+02
30.000000 -12.000000 -9.731959E+01
30.000000 -14.000000 -6.298232E+01
30.000000 -16.000000 -3.704933E+01
30.000000 -18.000000 -4.393265E+01
30.000000 -20.000000 -6.912993E+01
30.000000 -22.000000 -8.701809E+01
30.000000 -24.000000 -8.379503E+01
30.000000 -26.000000 -6.689232E+01
30.000000 -28.000000 -4.848426E+01
30.000000 -30.000000 -3.993686E+01
30.000000 -32.000000 -4.396507E+01
30.000000 -34.000000 -5.414900E+01
30.000000 -36.000000 -5.210850E+01
30.000000 -38.000000 -3.667368E+01
30.000000 -40.000000 -1.590958E+01
32.000000 40.000000 -1.435147E+02
32.000000 38.000000 -1.184168E+02
32.000000 36.000000 -7.745596E+01
32.000000 34.000000 -2.697614E+01
32.000000 32.000000 7.282141E+00
32.000000 30.000000 1.686940E+01
32.000000 28.000000 -2.238655E-01
32.000000 26.000000 -2.426049E+01
32.000000 24.000000 -3.623267E+01
32.000000 22.000000 -3.196791E+01
32.000000 20.000000 -2.547656E+01
32.000000 18.000000 -1.656517E+01
32.000000 16.000000 7.900849E+00
32.000000 14.000000 4.533180E+01
32.000000 12.000000 8.699731E+01
32.000000 10.000000 1.140912E+02
32.000000 8.000000 1.149281E+02
32.000000 6.000000 9.627105E+01
32.000000 4.000000 5.928936E+01
32.000000 2.000000 1.064437E+01
32.000000 0.000000 -3.050233E+01
32.000000 -2.000000 -5.061191E+01
32.000000 -4.000000 -5.283920E+01
32.000000 -6.000000 -5.576636E+01
32.000000 -8.000000 -7.769027E+01
32.000000 -10.000000 -1.032636E+02
32.000000 -12.000000 -1.025778E+02
32.000000 -14.000000 -7.651210E+01
32.000000 -16.000000 -4.991558E+01
32.000000 -18.000000 -4.569192E+01
32.000000 -20.000000 -5.867764E+01
32.000000 -22.000000 -6.943648E+01
32.000000 -24.000000 -6.384932E+01
32.000000 -26.000000 -4.793238E+01
32.000000 -28.000000 -3.327142E+01
32.000000 -30.000000 -2.737296E+01
32.000000 -32.000000 -3.296582E+01
32.000000 -34.000000 -4.454175E+01
32.000000 -36.000000 -4.606335E+01
32.000000 -38.000000 -3.553237E+01
32.000000 -40.000000 -2.185672E+01
34.000000 40.000000 -1.517067E+02
34.000000 38.000000 -1.292912E+02
34.000000 36.000000 -8.926629E+01
34.000000 34.000000 -3.987205E+01
34.000000 32.000000 -4.682631E+00
34.000000 30.000000 5.207354E+00
34.000000 28.000000 -8.694470E+00
34.000000 26.000000 -2.756967E+01
34.000000 24.000000 -3.827029E+01
34.000000 22.000000 -3.526506E+01
34.000000 20.000000 -2.846064E+01
34.000000 18.000000 -1.476666E+01
34.000000 16.000000 2.440427E+01
34.000000 14.000000 7.942215E+01
34.000000 12.000000 1.275125E+02
34.000000 10.000000 1.443758E+02
34.000000 8.000000 1.163274E+02
34.000000 6.000000 6.782072E+01
34.000000 4.000000 1.297769E+01
34.000000 2.000000 -3.357474E+01
34.000000 0.000000 -6.464003E+01
34.000000 -2.000000 -6.904810E+01
34.000000 -4.000000 -5.863835E+01
34.000000 -6.000000 -5.653056E+01
34.000000 -8.000000 -7.839364E+01
34.000000 -10.000000 -1.084783E+02
34.000000 -12.000000 -1.171954E+02
34.000000 -14.000000 -9.992713E+01
34.000000 -16.000000 -7.285493E+01
34.000000 -18.000000 -5.749206E+01
34.000000 -20.000000 -5.588592E+01
34.000000 -22.000000 -5.699711E+01
34.000000 -24.000000 -4.740329E+01
34.000000 -26.000000 -3.173085E+01
34.000000 -28.000000 -1.842996E+01
34.000000 -30.000000 -1.280385E+01
34.000000 -32.000000 -1.864960E+01
34.000000 -34.000000 -3.078498E+01
34.000000 -36.000000 -3.469081E+01
34.000000 -38.000000 -2.987244E+01
34.000000 -40.000000 -2.457565E+01
36.000000 40.000000 -1.591485E+02
36.000000 38.000000 -1.412331E+02
36.000000 36.000000 -1.045761E+02
36.000000 34.000000 -5.698061E+01
36.000000 32.000000 -1.903255E+01
36.000000 30.000000 -3.145121E+00
36.000000 28.000000 -7.809772E+00
36.000000 26.000000 -2.018837E+01
36.000000 24.000000 -3.239696E+01
36.000000 22.000000 -3.865135E+01
36.000000 20.000000 -3.979636E+01
36.000000 18.000000 -2.384302E+01
36.000000 16.000000 2.899423E+01
36.000000 14.000000 1.015992E+02
36.000000 12.000000 1.592989E+02
36.000000 10.000000 1.738538E+02
36.000000 8.000000 1.225416E+02
36.000000 6.000000 5.055995E+01
36.000000 4.000000 -1.968786E+01
36.000000 2.000000 -6.426368E+01
36.000000 0.000000 -8.496957E+01
36.000000 -2.000000 -7.774118E+01
36.000000 -4.000000 -6.117503E+01
36.000000 -6.000000 -5.904607E+01
36.000000 -8.000000 -8.156984E+01
36.000000 -10.000000 -1.157659E+02
36.000000 -12.000000 -1.322053E+02
36.000000 -14.000000 -1.233714E+02
36.000000 -16.000000 -9.951245E+01
36.000000 -18.000000 -7.884773E+01
36.000000 -20.000000 -6.603804E+01
36.000000 -22.000000 -5.817950E+01
36.000000 -24.000000 -4.322640E+01
36.000000 -26.000000 -2.659449E+01
36.000000 -28.000000 -1.145932E+01
36.000000 -30.000000 -3.370168E+00
36.000000 -32.000000 -6.569942E+00
36.000000 -34.000000 -1.655477E+01
36.000000 -36.000000 -1.958221E+01
36.000000 -38.000000 -2.000265E+01
36.000000 -40.000000 -2.356815E+01
38.000000 40.000000 -1.641245E+02
38.000000 38.000000 -1.518453E+02
38.000000 36.000000 -1.193914E+02
38.000000 34.000000 -7.360922E+01
38.000000 32.000000 -3.294026E+01
38.000000 30.000000 -9.716274E+00
38.000000 28.000000 -5.027834E+00
38.000000 26.000000 -1.270358E+01
38.000000 24.000000 -2.626731E+01
38.000000 22.000000 -4.312698E+01
38.000000 20.000000 -5.666498E+01
38.000000 18.000000 -4.478480E+01
38.000000 16.000000 1.455881E+01
38.000000 14.000000 9.606499E+01
38.000000 12.000000 1.585240E+02
38.000000 10.000000 1.728132E+02
38.000000 8.000000 1.124835E+02
38.000000 6.000000 3.362404E+01
38.000000 4.000000 -3.759465E+01
38.000000 2.000000 -7.440784E+01
38.000000 0.000000 -8.328860E+01
38.000000 -2.000000 -6.907142E+01
38.000000 -4.000000 -5.205663E+01
38.000000 -6.000000 -5.303796E+01
38.000000 -8.000000 -7.747165E+01
38.000000 -10.000000 -1.145064E+02
38.000000 -12.000000 -1.357117E+02
38.000000 -14.000000 -1.345765E+02
38.000000 -16.000000 -1.183095E+02
38.000000 -18.000000 -9.991991E+01
38.000000 -20.000000 -8.154518E+01
38.000000 -22.000000 -6.679362E+01
38.000000 -24.000000 -4.742478E+01
38.000000 -26.000000 -2.848708E+01
38.000000 -28.000000 -1.162448E+01
38.000000 -30.000000 -1.708430E+00
38.000000 -32.000000 -1.987769E+00
38.000000 -34.000000 -7.492921E+00
38.000000 -36.000000 -6.553852E+00
38.000000 -38.000000 -9.615311E+00
38.000000 -40.000000 -2.064484E+01
40.000000 40.000000 -1.669389E+02
40.000000 38.000000 -1.601644E+02
40.000000 36.000000 -1.328945E+02
40.000000 34.000000 -9.052527E+01
40.000000 32.000000 -4.748224E+01
40.000000 30.000000 -1.734681E+01
40.000000 28.000000 -4.612206E+00
40.000000 26.000000 -7.788721E+00
40.000000 24.000000 -2.142695E+01
40.000000 22.000000 -4.545484E+01
40.000000 20.000000 -6.775535E+01
40.000000 18.000000 -6.419848E+01
40.000000 16.000000 -1.177137E+01
40.000000 14.000000 6.160710E+01
40.000000 12.000000 1.169755E+02
40.000000 10.000000 1.280043E+02
40.000000 8.000000 7.470528E+01
40.000000 6.000000 7.315352E+00
40.000000 4.000000 -4.588635E+01
40.000000 2.000000 -6.717218E+01
40.000000 0.000000 -6.458494E+01
40.000000 -2.000000 -4.828810E+01
40.000000 -4.000000 -3.437116E+01
40.000000 -6.000000 -3.753220E+01
40.000000 -8.000000 -6.196759E+01
40.000000 -10.000000 -9.675471E+01
40.000000 -12.000000 -1.197151E+02
40.000000 -14.000000 -1.255578E+02
40.000000 -16.000000 -1.204279E+02
40.000000 -18.000000 -1.112335E+02
40.000000 -20.000000 -9.417311E+01
40.000000 -22.000000 -7.491251E+01
40.000000 -24.000000 -5.245092E+01
40.000000 -26.000000 -3.111831E+01
40.000000 -28.000000 -1.362978E+01
40.000000 -30.000000 -2.460513E+00
40.000000 -32.000000 -1.463545E+00
40.000000 -34.000000 -5.235957E+00
40.000000 -36.000000 -3.564652E+00
40.000000 -38.000000 -6.987665E+00
40.000000 -40.000000 -1.979717E+01
42.000000 40.000000 -1.660069E+02
42.000000 38.000000 -1.654786E+02
42.000000 36.000000 -1.463567E+02
42.000000 34.000000 -1.102910E+02
42.000000 32.000000 -6.636461E+01
42.000000 30.000000 -3.042520E+01
42.000000 28.000000 -1.013613E+01
42.000000 26.000000 -8.403860E+00
42.000000 24.000000 -2.016497E+01
42.000000 22.000000 -4.414938E+01
42.000000 20.000000 -6.727255E+01
42.000000 18.000000 -7.042080E+01
42.000000 16.000000 -3.452499E+01
42.000000 14.000000 1.841917E+01
42.000000 12.000000 5.796786E+01
42.000000 10.000000 6.224475E+01
42.000000 8.000000 2.368432E+01
42.000000 6.000000 -2.374156E+01
42.000000 4.000000 -5.261603E+01
42.000000 2.000000 -5.478607E+01
42.000000 0.000000 -4.157007E+01
42.000000 -2.000000 -2.384296E+01
42.000000 -4.000000 -1.202007E+01
42.000000 -6.000000 -1.587069E+01
42.000000 -8.000000 -3.743259E+01
42.000000 -10.000000 -6.496156E+01
42.000000 -12.000000 -8.684278E+01
42.000000 -14.000000 -9.889982E+01
42.000000 -16.000000 -1.062136E+02
42.000000 -18.000000 -1.098621E+02
42.000000 -20.000000 -1.002423E+02
42.000000 -22.000000 -8.039988E+01
42.000000 -24.000000 -5.627110E+01
42.000000 -26.000000 -3.424225E+01
42.000000 -28.000000 -1.705574E+01
42.000000 -30.000000 -4.931915E+00
42.000000 -32.000000 -3.787571E+00
42.000000 -34.000000 -8.810614E+00
42.000000 -36.000000 -1.019634E+01
42.000000 -38.000000 -1.307948E+01
42.000000 -40.000000 -2.237826E+01
44.000000 40.000000 -1.595381E+02
44.000000 38.000000 -1.663985E+02
44.000000 36.000000 -1.579200E+02
44.000000 34.000000 -1.310160E+02
44.000000 32.000000 -8.956861E+01
44.000000 30.000000 -5.052223E+01
44.000000 28.000000 -2.336269E+01
44.000000 26.000000 -1.623722E+01
44.000000 24.000000 -2.387421E+01
44.000000 22.000000 -4.096451E+01
44.000000 20.000000 -5.862820E+01
44.000000 18.000000 -6.348974E+01
44.000000 16.000000 -4.272898E+01
44.000000 14.000000 -1.111648E+01
44.000000 12.000000 1.080893E+01
44.000000 10.000000 6.496651E+00
44.000000 8.000000 -1.906108E+01
44.000000 6.000000 -4.674497E+01
44.000000 4.000000 -5.487495E+01
44.000000 2.000000 -4.196877E+01
44.000000 0.000000 -2.177420E+01
44.000000 -2.000000 -3.058831E+00
44.000000 -4.000000 7.373425E+00
44.000000 -6.000000 3.814968E+00
44.000000 -8.000000 -1.213738E+01
44.000000 -10.000000 -3.014361E+01
44.000000 -12.000000 -4.886113E+01
44.000000 -14.000000 -6.593244E+01
44.000000 -16.000000 -8.402055E+01
44.000000 -18.000000 -9.908076E+01
44.000000 -20.000000 -9.814610E+01
44.000000 -22.000000 -8.166779E+01
44.000000 -24.000000 -5.810489E+01
44.000000 -26.000000 -3.737232E+01
44.000000 -28.000000 -2.344495E+01
44.000000 -30.000000 -1.476116E+01
44.000000 -32.000000 -1.520139E+01
44.000000 -34.000000 -1.901083E+01
44.000000 -36.000000 -1.974378E+01
44.000000 -38.000000 -2.076687E+01
44.000000 -40.000000 -2.644373E+01
46.000000 40.000000 -1.479513E+02
46.000000 38.000000 -1.610444E+02
46.000000 36.000000 -1.620337E+02
46.000000 34.000000 -1.462108E+02
46.000000 32.000000 -1.116272E+02
46.000000 30.000000 -7.344160E+01
46.000000 28.000000 -4.160791E+01
46.000000 26.000000 -2.860208E+01
46.000000 24.000000 -3.054796E+01
46.000000 22.000000 -3.780538E+01
46.000000 20.000000 -4.691829E+01
46.000000 18.000000 -4.862759E+01
46.000000 16.000000 -3.559346E+01
46.000000 14.000000 -1.906987E+01
46.000000 12.000000 -1.117978E+01
46.000000 10.000000 -2.151940E+01
46.000000 8.000000 -3.923404E+01
46.000000 6.000000 -5.129757E+01
46.000000 4.000000 -4.417976E+01
46.000000 2.000000 -2.489573E+01
46.000000 0.000000 -5.310479E+00
46.000000 -2.000000 1.042023E+01
46.000000 -4.000000 1.822091E+01
46.000000 -6.000000 1.526406E+01
46.000000 -8.000000 5.202479E+00
46.000000 -10.000000 -5.440258E+00
46.000000 -12.000000 -2.216685E+01
46.000000 -14.000000 -4.272203E+01
46.000000 -16.000000 -6.775490E+01
46.000000 -18.000000 -8.824895E+01
46.000000 -20.000000 -9.110689E+01
46.000000 -22.000000 -7.753794E+01
46.000000 -24.000000 -5.669182E+01
46.000000 -26.000000 -3.915122E+01
46.000000 -28.000000 -3.150881E+01
46.000000 -30.000000 -3.048586E+01
46.000000 -32.000000 -3.432018E+01
46.000000 -34.000000 -3.469411E+01
46.000000 -36.000000 -3.014094E+01
46.000000 -38.000000 -2.706921E+01
