-26.000000 -22.000000 3.825085E+01
-26.000000 -24.000000 4.451948E+01
-26.000000 -26.000000 3.629002E+01
-26.000000 -28.000000 2.969432E+01
-26.000000 -30.000000 2.654068E+01
-26.000000 -32.000000 2.547910E+01
-26.000000 -34.000000 1.746975E+01
-26.000000 -36.000000 6.354439E+00
-26.000000 -38.000000 6.226330E-01
-26.000000 -40.000000 -2.936766E+00
-24.000000 40.000000 1.667891E+00
-24.000000 38.000000 -4.094807E+00
-24.000000 36.000000 -2.579781E+00
-24.000000 34.000000 -2.532648E+00
-24.000000 32.000000 -1.355406E+01
-24.000000 30.000000 -2.256206E+01
-24.000000 28.000000 -2.884236E+01
-24.000000 26.000000 -2.917169E+01
-24.000000 24.000000 -2.782642E+01
-24.000000 22.000000 -3.468327E+01
-24.000000 20.000000 -4.369511E+01
-24.000000 18.000000 -4.695328E+01
-24.000000 16.000000 -4.676181E+01
-24.000000 14.000000 -4.449740E+01
-24.000000 12.000000 -4.248050E+01
-24.000000 10.000000 -5.060176E+01
-24.000000 8.000000 -6.017732E+01
-24.000000 6.000000 -6.025768E+01
-24.000000 4.000000 -4.409233E+01
-24.000000 2.000000 -2.767399E+01
-24.000000 0.000000 -1.033260E+01
-24.000000 -2.000000 -1.396103E-01
-24.000000 -4.000000 3.174252E+00
-24.000000 -6.000000 -1.991432E+00
-24.000000 -8.000000 -6.352765E+00
-24.000000 -10.000000 -5.020788E+00
-24.000000 -12.000000 -2.990623E-01
-24.000000 -14.000000 2.795846E+00
-24.000000 -16.000000 3.225748E+00
-24.000000 -18.000000 6.551666E+00
-24.000000 -20.000000 1.555438E+01
-24.000000 -22.000000 2.962461E+01
-24.000000 -24.000000 3.249120E+01
-24.000000 -26.000000 2.017093E+01
-24.000000 -28.000000 1.194994E+01
-24.000000 -30.000000 1.247963E+01
-24.000000 -32.000000 1.856325E+01
-24.000000 -34.000000 1.631174E+01
-24.000000 -36.000000 1.022870E+01
-24.000000 -38.000000 4.853441E+00
-24.000000 -40.000000 -3.145301E-02
-22.000000 40.000000 -1.234495E+00
-22.000000 38.000000 -3.611116E+00
-22.000000 36.000000 -8.784256E-01
-22.000000 34.000000 2.441776E+00
-22.000000 32.000000 2.731632E+00
-22.000000 30.000000 -3.413702E+00
-22.000000 28.000000 -1.493354E+01
-22.000000 26.000000 -1.713025E+01
-22.000000 24.000000 -9.854271E+00
-22.000000 22.000000 -1.135936E+01
-22.000000 20.000000 -1.935331E+01
-22.000000 18.000000 -2.531199E+01
-22.000000 16.000000 -2.677672E+01
-22.000000 14.000000 -2.852146E+01
-22.000000 12.000000 -3.257547E+01
-22.000000 10.000000 -4.705789E+01
-22.000000 8.000000 -6.158439E+01
-22.000000 6.000000 -6.651570E+01
-22.000000 4.000000 -5.408465E+01
-22.000000 2.000000 -3.896620E+01
-22.000000 0.000000 -2.200382E+01
-22.000000 -2.000000 -1.231256E+01
-22.000000 -4.000000 -1.033714E+01
-22.000000 -6.000000 -1.714455E+01
-22.000000 -8.000000 -2.526816E+01
-22.000000 -10.000000 -1.936184E+01
-22.000000 -12.000000 -7.731000E+00
-22.000000 -14.000000 1.558591E+00
-22.000000 -16.000000 4.498261E+00
-22.000000 -18.000000 7.473851E+00
-22.000000 -20.000000 1.612718E+01
-22.000000 -22.000000 2.474741E+01
-22.000000 -24.000000 2.231310E+01
-22.000000 -26.000000 4.358808E+00
-22.000000 -28.000000 -4.774038E+00
-22.000000 -30.000000 -5.990710E-01
-22.000000 -32.000000 1.081018E+01
-22.000000 -34.000000 1.463723E+01
-22.000000 -36.000000 1.434939E+01
-22.000000 -38.000000 1.194257E+01
-22.000000 -40.000000 6.086571E+00
-20.000000 40.000000 3.366606E+00
-20.000000 38.000000 -8.923988E-01
-20.000000 36.000000 -3.179743E+00
-20.000000 34.000000 -1.456499E+00
-20.000000 32.000000 5.194666E+00
-20.000000 30.000000 5.047764E+00
-20.000000 28.000000 -2.275616E+00
-20.000000 26.000000 -3.761467E+00
-20.000000 24.000000 1.301613E+00
-20.000000 22.000000 -3.097450E+00
-20.000000 20.000000 -1.229187E+01
-20.000000 18.000000 -1.596377E+01
-20.000000 16.000000 -1.274541E+01
-20.000000 14.000000 -7.875488E+00
-20.000000 12.000000 -7.612110E+00
-20.000000 10.000000 -1.817618E+01
-20.000000 8.000000 -3.756715E+01
-20.000000 6.000000 -5.101947E+01
-20.000000 4.000000 -5.318009E+01
-20.000000 2.000000 -4.997798E+01
-20.000000 0.000000 -4.320914E+01
-20.000000 -2.000000 -3.627165E+01
-20.000000 -4.000000 -3.306217E+01
-20.000000 -6.000000 -3.325861E+01
-20.000000 -8.000000 -3.740028E+01
-20.000000 -10.000000 -2.884115E+01
-20.000000 -12.000000 -1.298985E+01
-20.000000 -14.000000 -1.142035E+00
-20.000000 -16.000000 3.033260E+00
-20.000000 -18.000000 5.085567E+00
-20.000000 -20.000000 1.336503E+01
-20.000000 -22.000000 1.995432E+01
-20.000000 -24.000000 1.457505E+01
-20.000000 -26.000000 -3.766223E+00
-20.000000 -28.000000 -1.084706E+01
-20.000000 -30.000000 -5.337982E+00
-20.000000 -32.000000 8.268240E+00
-20.000000 -34.000000 1.502498E+01
-20.000000 -36.000000 1.637156E+01
-20.000000 -38.000000 1.557641E+01
-20.000000 -40.000000 1.015626E+01
-18.000000 40.000000 7.638935E+00
-18.000000 38.000000 -1.178684E-01
-18.000000 36.000000 -5.043524E+00
-18.000000 34.000000 -3.605183E+00
-18.000000 32.000000 2.353895E+00
-18.000000 30.000000 5.710560E+00
-18.000000 28.000000 7.516773E+00
-18.000000 26.000000 8.523403E+00
-18.000000 24.000000 5.615295E+00
-18.000000 22.000000 -7.450096E+00
-18.000000 20.000000 -1.790336E+01
-18.000000 18.000000 -1.800098E+01
-18.000000 16.000000 -1.326246E+01
-18.000000 14.000000 -2.665268E+00
-18.000000 12.000000 5.394154E+00
-18.000000 10.000000 3.665527E+00
-18.000000 8.000000 -1.488129E+01
-18.000000 6.000000 -2.870515E+01
-18.000000 4.000000 -3.932002E+01
-18.000000 2.000000 -4.529520E+01
-18.000000 0.000000 -4.799151E+01
-18.000000 -2.000000 -4.558598E+01
-18.000000 -4.000000 -4.317979E+01
-18.000000 -6.000000 -4.318180E+01
-18.000000 -8.000000 -4.681066E+01
-18.000000 -10.000000 -4.037713E+01
-18.000000 -12.000000 -2.289939E+01
-18.000000 -14.000000 -1.151249E+01
-18.000000 -16.000000 -7.122018E+00
-18.000000 -18.000000 -3.687332E+00
-18.000000 -20.000000 5.575291E+00
-18.000000 -22.000000 1.374108E+01
-18.000000 -24.000000 1.031494E+01
-18.000000 -26.000000 -1.311016E+00
-18.000000 -28.000000 -3.965188E+00
-18.000000 -30.000000 1.080391E+00
-18.000000 -32.000000 1.365021E+01
-18.000000 -34.000000 1.918111E+01
-18.000000 -36.000000 1.771375E+01
-18.000000 -38.000000 1.502626E+01
-18.000000 -40.000000 9.703331E+00
-16.000000 40.000000 1.214782E+01
-16.000000 38.000000 2.601357E+00
-16.000000 36.000000 -2.043755E+00
-16.000000 34.000000 -5.487442E-03
-16.000000 32.000000 3.021250E+00
-16.000000 30.000000 4.536877E+00
-16.000000 28.000000 8.725368E+00
-16.000000 26.000000 9.465748E+00
-16.000000 24.000000 2.200623E-01
-16.000000 22.000000 -1.720347E+01
-16.000000 20.000000 -2.849261E+01
-16.000000 18.000000 -2.894773E+01
-16.000000 16.000000 -2.886609E+01
-16.000000 14.000000 -2.334884E+01
-16.000000 12.000000 -1.501477E+01
-16.000000 10.000000 -1.135049E+01
-16.000000 8.000000 -2.104584E+01
-16.000000 6.000000 -2.212197E+01
-16.000000 4.000000 -2.039633E+01
-16.000000 2.000000 -2.127792E+01
-16.000000 0.000000 -2.538082E+01
-16.000000 -2.000000 -2.903054E+01
-16.000000 -4.000000 -3.382050E+01
-16.000000 -6.000000 -4.264314E+01
-16.000000 -8.000000 -4.909368E+01
-16.000000 -10.000000 -4.406232E+01
-16.000000 -12.000000 -2.868173E+01
-16.000000 -14.000000 -2.073187E+01
-16.000000 -16.000000 -1.801886E+01
-16.000000 -18.000000 -1.315742E+01
-16.000000 -20.000000 -3.205097E+00
-16.000000 -22.000000 8.514451E+00
-16.000000 -24.000000 1.109461E+01
-16.000000 -26.000000 7.044237E+00
-16.000000 -28.000000 8.127220E+00
-16.000000 -30.000000 1.414718E+01
-16.000000 -32.000000 2.372809E+01
-16.000000 -34.000000 2.386176E+01
-16.000000 -36.000000 1.811284E+01
-16.000000 -38.000000 1.280604E+01
-16.000000 -40.000000 6.370461E+00
-14.000000 40.000000 1.410699E+01
-14.000000 38.000000 6.863552E+00
-14.000000 36.000000 5.754860E+00
-14.000000 34.000000 9.173887E+00
-14.000000 32.000000 1.149629E+01
-14.000000 30.000000 8.458557E+00
-14.000000 28.000000 6.157372E+00
-14.000000 26.000000 2.584805E+00
-14.000000 24.000000 -9.410450E+00
-14.000000 22.000000 -2.511926E+01
-14.000000 20.000000 -3.419436E+01
-14.000000 18.000000 -3.744142E+01
-14.000000 16.000000 -4.406509E+01
-14.000000 14.000000 -5.227617E+01
-14.000000 12.000000 -6.054658E+01
-14.000000 10.000000 -6.876838E+01
-14.000000 8.000000 -6.890677E+01
-14.000000 6.000000 -5.083689E+01
-14.000000 4.000000 -2.025472E+01
-14.000000 2.000000 -2.116032E+00
-14.000000 0.000000 1.690876E+00
-14.000000 -2.000000 -3.623690E+00
-14.000000 -4.000000 -1.480367E+01
-14.000000 -6.000000 -3.143652E+01
-14.000000 -8.000000 -4.035599E+01
-14.000000 -10.000000 -3.286956E+01
-14.000000 -12.000000 -1.793699E+01
-14.000000 -14.000000 -1.596230E+01
-14.000000 -16.000000 -1.902210E+01
-14.000000 -18.000000 -1.613367E+01
-14.000000 -20.000000 -5.907421E+00
-14.000000 -22.000000 9.931509E+00
-14.000000 -24.000000 1.891100E+01
-14.000000 -26.000000 1.889708E+01
-14.000000 -28.000000 2.127324E+01
-14.000000 -30.000000 2.647281E+01
-14.000000 -32.000000 3.194206E+01
-14.000000 -34.000000 2.522939E+01
-14.000000 -36.000000 1.463318E+01
-14.000000 -38.000000 9.130131E+00
-14.000000 -40.000000 2.152461E+00
-12.000000 40.000000 1.284936E+01
-12.000000 38.000000 9.531767E+00
-12.000000 36.000000 1.312904E+01
-12.000000 34.000000 1.943120E+01
-12.000000 32.000000 2.178746E+01
-12.000000 30.000000 1.475226E+01
-12.000000 28.000000 6.227222E+00
-12.000000 26.000000 -9.744186E-01
-12.000000 24.000000 -1.304614E+01
-12.000000 22.000000 -2.628791E+01
-12.000000 20.000000 -3.076199E+01
-12.000000 18.000000 -3.201482E+01
-12.000000 16.000000 -4.399710E+01
-12.000000 14.000000 -6.535534E+01
-12.000000 12.000000 -9.949626E+01
-12.000000 10.000000 -1.356698E+02
-12.000000 8.000000 -1.369097E+02
-12.000000 6.000000 -1.074944E+02
-12.000000 4.000000 -5.035034E+01
-12.000000 2.000000 -1.108208E+01
-12.000000 0.000000 4.491955E+00
-12.000000 -2.000000 6.539371E+00
-12.000000 -4.000000 -1.803642E+00
-12.000000 -6.000000 -1.825606E+01
-12.000000 -8.000000 -2.434336E+01
-12.000000 -10.000000 -1.085193E+01
-12.000000 -12.000000 3.838694E+00
-12.000000 -14.000000 -7.083702E-02
-12.000000 -16.000000 -9.889323E+00
-12.000000 -18.000000 -1.053272E+01
-12.000000 -20.000000 1.008062E+00
-12.000000 -22.000000 1.973597E+01
-12.000000 -24.000000 3.135986E+01
-12.000000 -26.000000 3.319237E+01
-12.000000 -28.000000 3.418073E+01
-12.000000 -30.000000 3.446462E+01
-12.000000 -32.000000 3.292626E+01
-12.000000 -34.000000 2.035554E+01
-12.000000 -36.000000 6.173797E+00
-12.000000 -38.000000 3.715985E+00
-12.000000 -40.000000 -5.956163E-01
-10.000000 40.000000 1.219108E+01
-10.000000 38.000000 9.809113E+00
-10.000000 36.000000 1.515040E+01
-10.000000 34.000000 2.554926E+01
-10.000000 32.000000 2.962857E+01
-10.000000 30.000000 2.183442E+01
-10.000000 28.000000 1.004540E+01
-10.000000 26.000000 9.564209E-02
-10.000000 24.000000 -1.080779E+01
-10.000000 22.000000 -2.160221E+01
-10.000000 20.000000 -2.216009E+01
-10.000000 18.000000 -1.932477E+01
-10.000000 16.000000 -3.432063E+01
-10.000000 14.000000 -6.675221E+01
-10.000000 12.000000 -1.197914E+02
-10.000000 10.000000 -1.741493E+02
-10.000000 8.000000 -1.779650E+02
-10.000000 6.000000 -1.400090E+02
-10.000000 4.000000 -7.267340E+01
-10.000000 2.000000 -3.122777E+01
-10.000000 0.000000 -1.652901E+01
-10.000000 -2.000000 -1.123997E+01
-10.000000 -4.000000 -1.199685E+01
-10.000000 -6.000000 -1.462539E+01
-10.000000 -8.000000 -9.400312E+00
-10.000000 -10.000000 7.521015E+00
-10.000000 -12.000000 1.534385E+01
-10.000000 -14.000000 8.398094E+00
-10.000000 -16.000000 -2.242367E+00
-10.000000 -18.000000 -2.855452E+00
-10.000000 -20.000000 1.147055E+01
-10.000000 -22.000000 3.176430E+01
-10.000000 -24.000000 4.333565E+01
-10.000000 -26.000000 4.403004E+01
-10.000000 -28.000000 4.155677E+01
-10.000000 -30.000000 3.758741E+01
-10.000000 -32.000000 2.800585E+01
-10.000000 -34.000000 1.123423E+01
-10.000000 -36.000000 -2.635496E+00
-10.000000 -38.000000 -9.860330E-01
-10.000000 -40.000000 -5.862451E-01
-8.000000 40.000000 1.201878E+01
-8.000000 38.000000 7.674943E+00
-8.000000 36.000000 1.421529E+01
-8.000000 34.000000 2.867182E+01
-8.000000 32.000000 3.546251E+01
-8.000000 30.000000 2.885996E+01
-8.000000 28.000000 1.369462E+01
-8.000000 26.000000 1.829597E+00
-8.000000 24.000000 -6.896509E+00
-8.000000 22.000000 -1.538350E+01
-8.000000 20.000000 -1.473671E+01
-8.000000 18.000000 -1.048505E+01
-8.000000 16.000000 -2.683539E+01
-8.000000 14.000000 -6.548289E+01
-8.000000 12.000000 -1.227784E+02
-8.000000 10.000000 -1.757962E+02
-8.000000 8.000000 -1.759868E+02
-8.000000 6.000000 -1.307311E+02
-8.000000 4.000000 -6.775175E+01
-8.000000 2.000000 -3.700018E+01
-8.000000 0.000000 -3.310597E+01
-8.000000 -2.000000 -3.460443E+01
-8.000000 -4.000000 -2.949413E+01
-8.000000 -6.000000 -1.778674E+01
-8.000000 -8.000000 -5.766279E+00
-8.000000 -10.000000 8.984310E+00
-8.000000 -12.000000 1.343421E+01
-8.000000 -14.000000 5.574865E+00
-8.000000 -16.000000 -3.321680E+00
-8.000000 -18.000000 -1.062239E+00
-8.000000 -20.000000 1.528159E+01
-8.000000 -22.000000 3.434522E+01
-8.000000 -24.000000 4.528296E+01
-8.000000 -26.000000 4.076706E+01
-8.000000 -28.000000 3.592581E+01
-8.000000 -30.000000 3.275519E+01
-8.000000 -32.000000 2.163402E+01
-8.000000 -34.000000 6.031188E+00
-8.000000 -36.000000 -4.067786E+00
-8.000000 -38.000000 -1.717617E+00
-8.000000 -40.000000 5.186353E-01
-6.000000 40.000000 1.543407E+01
-6.000000 38.000000 8.584904E+00
-6.000000 36.000000 1.683278E+01
-6.000000 34.000000 3.028139E+01
-6.000000 32.000000 3.202141E+01
-6.000000 30.000000 2.467229E+01
-6.000000 28.000000 1.005841E+01
-6.000000 26.000000 1.049145E+00
-6.000000 24.000000 -1.841496E+00
-6.000000 22.000000 -7.627068E+00
-6.000000 20.000000 -9.976816E+00
-6.000000 18.000000 -1.059266E+01
-6.000000 16.000000 -2.809257E+01
-6.000000 14.000000 -6.242602E+01
-6.000000 12.000000 -1.126133E+02
-6.000000 10.000000 -1.557832E+02
-6.000000 8.000000 -1.475506E+02
-6.000000 6.000000 -1.012740E+02
-6.000000 4.000000 -5.140343E+01
-6.000000 2.000000 -2.870708E+01
-6.000000 0.000000 -2.749707E+01
-6.000000 -2.000000 -3.078081E+01
-6.000000 -4.000000 -2.487038E+01
-6.000000 -6.000000 -1.680690E+01
-6.000000 -8.000000 -1.116234E+01
-6.000000 -10.000000 7.528000E-01
-6.000000 -12.000000 8.741251E+00
-6.000000 -14.000000 4.067669E-01
-6.000000 -16.000000 -9.644184E+00
-6.000000 -18.000000 -5.607186E+00
-6.000000 -20.000000 9.532591E+00
-6.000000 -22.000000 2.331092E+01
-6.000000 -24.000000 3.119403E+01
-6.000000 -26.000000 2.293127E+01
-6.000000 -28.000000 1.976355E+01
-6.000000 -30.000000 2.037816E+01
-6.000000 -32.000000 1.506513E+01
-6.000000 -34.000000 6.228408E+00
-6.000000 -36.000000 2.048020E+00
-6.000000 -38.000000 2.242612E+00
-6.000000 -40.000000 1.392320E+00
-4.000000 40.000000 2.575950E+01
-4.000000 38.000000 1.609812E+01
-4.000000 36.000000 2.394804E+01
-4.000000 34.000000 3.081127E+01
-4.000000 32.000000 1.962741E+01
-4.000000 30.000000 8.325205E+00
-4.000000 28.000000 1.547911E+00
-4.000000 26.000000 -1.164074E-01
-4.000000 24.000000 1.234245E+00
-4.000000 22.000000 -2.501171E+00
-4.000000 20.000000 -7.934507E+00
-4.000000 18.000000 -1.472153E+01
-4.000000 16.000000 -3.335667E+01
-4.000000 14.000000 -6.039522E+01
-4.000000 12.000000 -9.950170E+01
-4.000000 10.000000 -1.325375E+02
-4.000000 8.000000 -1.166424E+02
-4.000000 6.000000 -7.018557E+01
-4.000000 4.000000 -2.759599E+01
-4.000000 2.000000 -9.745098E+00
-4.000000 0.000000 -8.300213E+00
-4.000000 -2.000000 -1.074389E+01
-4.000000 -4.000000 -8.860764E+00
-4.000000 -6.000000 -1.198155E+01
-4.000000 -8.000000 -1.339755E+01
-4.000000 -10.000000 -3.588390E+00
-4.000000 -12.000000 3.284706E+00
-4.000000 -14.000000 -4.644524E+00
-4.000000 -16.000000 -1.516586E+01
-4.000000 -18.000000 -1.197387E+01
-4.000000 -20.000000 1.126377E+00
-4.000000 -22.000000 1.121284E+01
-4.000000 -24.000000 1.230308E+01
-4.000000 -26.000000 5.154640E+00
-4.000000 -28.000000 6.386303E+00
-4.000000 -30.000000 8.527168E+00
-4.000000 -32.000000 9.321119E+00
-4.000000 -34.000000 6.702869E+00
-4.000000 -36.000000 7.811257E+00
-4.000000 -38.000000 7.353471E+00
-4.000000 -40.000000 8.975739E-01
-2.000000 40.000000 3.644681E+01
-2.000000 38.000000 2.607639E+01
-2.000000 36.000000 3.190751E+01
-2.000000 34.000000 3.215067E+01
-2.000000 32.000000 1.186827E+01
-2.000000 30.000000 -3.660791E+00
-2.000000 28.000000 -2.516638E+00
-2.000000 26.000000 2.476885E+00
-2.000000 24.000000 3.273470E+00
-2.000000 22.000000 -1.107227E+00
-2.000000 20.000000 -7.756243E+00
-2.000000 18.000000 -1.431432E+01
-2.000000 16.000000 -2.983871E+01
-2.000000 14.000000 -5.209757E+01
-2.000000 12.000000 -8.289775E+01
-2.000000 10.000000 -1.094512E+02
-2.000000 8.000000 -9.512509E+01
-2.000000 6.000000 -5.481721E+01
-2.000000 4.000000 -1.673126E+01
-2.000000 2.000000 -2.337509E+00
-2.000000 0.000000 -9.953690E-02
-2.000000 -2.000000 -1.183685E+00
-2.000000 -4.000000 -4.290257E+00
-2.000000 -6.000000 -1.260273E+01
-2.000000 -8.000000 -1.285284E+01
-2.000000 -10.000000 -1.938074E+00
-2.000000 -12.000000 2.481260E+00
-2.000000 -14.000000 -5.048420E+00
-2.000000 -16.000000 -1.385083E+01
-2.000000 -18.000000 -1.160842E+01
-2.000000 -20.000000 3.476353E-01
-2.000000 -22.000000 9.802680E+00
-2.000000 -24.000000 5.328091E+00
-2.000000 -26.000000 -2.113459E+00
-2.000000 -28.000000 1.026697E+00
-2.000000 -30.000000 4.173306E+00
-2.000000 -32.000000 7.836704E+00
-2.000000 -34.000000 6.062617E+00
-2.000000 -36.000000 7.227236E+00
-2.000000 -38.000000 7.248473E+00
-2.000000 -40.000000 -2.330640E+00
0.000000 40.000000 4.486421E+01
0.000000 38.000000 3.641525E+01
0.000000 36.000000 3.942696E+01
0.000000 34.000000 3.418603E+01
0.000000 32.000000 1.099333E+01
0.000000 30.000000 -5.422318E+00
0.000000 28.000000 -8.639526E-02
0.000000 26.000000 8.221346E+00
0.000000 24.000000 9.278412E+00
0.000000 22.000000 5.786953E-01
0.000000 20.000000 -7.171907E+00
0.000000 18.000000 -1.090601E+01
0.000000 16.000000 -2.014280E+01
0.000000 14.000000 -3.182982E+01
0.000000 12.000000 -5.529953E+01
0.000000 10.000000 -8.258289E+01
0.000000 8.000000 -8.315171E+01
0.000000 6.000000 -6.026573E+01
0.000000 4.000000 -3.237230E+01
0.000000 2.000000 -1.679103E+01
0.000000 0.000000 -8.538528E+00
0.000000 -2.000000 -4.490120E+00
0.000000 -4.000000 -8.890646E+00
0.000000 -6.000000 -1.889848E+01
0.000000 -8.000000 -1.667108E+01
0.000000 -10.000000 -1.498583E+00
0.000000 -12.000000 5.676624E+00
0.000000 -14.000000 -8.081436E-02
0.000000 -16.000000 -8.175300E+00
0.000000 -18.000000 -5.970536E+00
0.000000 -20.000000 7.360588E+00
0.000000 -22.000000 1.737497E+01
0.000000 -24.000000 1.206435E+01
0.000000 -26.000000 1.610465E+00
0.000000 -28.000000 4.123426E+00
0.000000 -30.000000 1.147015E+01
0.000000 -32.000000 1.490412E+01
0.000000 -34.000000 5.161420E+00
0.000000 -36.000000 -2.384703E+00
0.000000 -38.000000 -1.301489E-01
0.000000 -40.000000 -6.737602E+00
2.000000 40.000000 5.558597E+01
2.000000 38.000000 4.684108E+01
2.000000 36.000000 4.617014E+01
2.000000 34.000000 3.581621E+01
2.000000 32.000000 8.805175E+00
2.000000 30.000000 -5.538652E+00
2.000000 28.000000 3.561407E+00
2.000000 26.000000 1.347409E+01
2.000000 24.000000 1.364475E+01
2.000000 22.000000 7.608604E-02
2.000000 20.000000 -8.624561E+00
2.000000 18.000000 -9.596272E+00
2.000000 16.000000 -1.137001E+01
2.000000 14.000000 -8.963699E+00
2.000000 12.000000 -2.463671E+01
2.000000 10.000000 -5.606229E+01
2.000000 8.000000 -7.739434E+01
2.000000 6.000000 -7.138031E+01
2.000000 4.000000 -4.767807E+01
2.000000 2.000000 -2.966855E+01
2.000000 0.000000 -1.901306E+01
2.000000 -2.000000 -1.416143E+01
2.000000 -4.000000 -1.852896E+01
2.000000 -6.000000 -2.447121E+01
2.000000 -8.000000 -1.914663E+01
2.000000 -10.000000 -2.772188E+00
2.000000 -12.000000 4.866625E+00
2.000000 -14.000000 2.816124E-01
2.000000 -16.000000 -6.459028E+00
2.000000 -18.000000 -2.546876E+00
2.000000 -20.000000 1.192560E+01
2.000000 -22.000000 2.324267E+01
2.000000 -24.000000 2.180438E+01
2.000000 -26.000000 1.292890E+01
2.000000 -28.000000 1.613018E+01
2.000000 -30.000000 2.781067E+01
2.000000 -32.000000 2.994769E+01
2.000000 -34.000000 5.585680E+00
2.000000 -36.000000 -1.590545E+01
2.000000 -38.000000 -8.726051E+00
2.000000 -40.000000 -9.912572E+00
4.000000 40.000000 6.503403E+01
4.000000 38.000000 5.439411E+01
4.000000 36.000000 5.136960E+01
4.000000 34.000000 3.901231E+01
4.000000 32.000000 1.209913E+01
4.000000 30.000000 -5.775204E-01
4.000000 28.000000 7.377864E+00
4.000000 26.000000 1.460501E+01
4.000000 24.000000 9.728680E+00
4.000000 22.000000 -6.817896E+00
4.000000 20.000000 -1.657211E+01
4.000000 18.000000 -1.491254E+01
4.000000 16.000000 -1.009466E+01
4.000000 14.000000 -2.447760E+00
4.000000 12.000000 -1.457497E+01
4.000000 10.000000 -4.745063E+01
4.000000 8.000000 -7.850603E+01
4.000000 6.000000 -7.595332E+01
4.000000 4.000000 -4.459932E+01
4.000000 2.000000 -2.347757E+01
4.000000 0.000000 -1.856100E+01
4.000000 -2.000000 -2.088775E+01
4.000000 -4.000000 -2.532091E+01
4.000000 -6.000000 -2.262246E+01
4.000000 -8.000000 -1.478101E+01
4.000000 -10.000000 -2.069239E+00
4.000000 -12.000000 2.760002E+00
4.000000 -14.000000 -4.119160E+00
4.000000 -16.000000 -1.053772E+01
4.000000 -18.000000 -4.104518E+00
4.000000 -20.000000 1.040237E+01
4.000000 -22.000000 2.344752E+01
4.000000 -24.000000 2.654864E+01
4.000000 -26.000000 2.010608E+01
4.000000 -28.000000 2.522499E+01
4.000000 -30.000000 4.026065E+01
4.000000 -32.000000 4.467118E+01
4.000000 -34.000000 1.549778E+01
4.000000 -36.000000 -1.479979E+01
4.000000 -38.000000 -1.091424E+01
4.000000 -40.000000 -1.316909E+01
6.000000 40.000000 6.975282E+01
6.000000 38.000000 5.846760E+01
6.000000 36.000000 5.493885E+01
6.000000 34.000000 4.407356E+01
6.000000 32.000000 2.264424E+01
6.000000 30.000000 1.012812E+01
6.000000 28.000000 1.092343E+01
6.000000 26.000000 1.234176E+01
6.000000 24.000000 3.832588E+00
6.000000 22.000000 -1.548746E+01
6.000000 20.000000 -2.729453E+01
6.000000 18.000000 -2.831248E+01
6.000000 16.000000 -2.475237E+01
6.000000 14.000000 -2.046339E+01
6.000000 12.000000 -3.363259E+01
6.000000 10.000000 -6.855393E+01
6.000000 8.000000 -9.743378E+01
6.000000 6.000000 -8.771906E+01
6.000000 4.000000 -4.146108E+01
6.000000 2.000000 -7.859028E+00
6.000000 0.000000 -3.968029E-01
6.000000 -2.000000 -7.892015E+00
6.000000 -4.000000 -1.615398E+01
6.000000 -6.000000 -1.393109E+01
6.000000 -8.000000 -8.891272E+00
6.000000 -10.000000 -1.483839E+00
6.000000 -12.000000 2.222225E+00
6.000000 -14.000000 -5.007980E+00
6.000000 -16.000000 -1.101992E+01
6.000000 -18.000000 -4.835376E+00
6.000000 -20.000000 8.244185E+00
6.000000 -22.000000 2.297035E+01
6.000000 -24.000000 2.799094E+01
6.000000 -26.000000 2.110681E+01
6.000000 -28.000000 2.665260E+01
6.000000 -30.000000 4.299000E+01
6.000000 -32.000000 5.171938E+01
6.000000 -34.000000 3.384370E+01
6.000000 -36.000000 5.903762E+00
6.000000 -38.000000 -5.168033E+00
6.000000 -40.000000 -1.699910E+01
8.000000 40.000000 7.370568E+01
8.000000 38.000000 6.089224E+01
8.000000 36.000000 5.539670E+01
8.000000 34.000000 4.542409E+01
8.000000 32.000000 2.739723E+01
8.000000 30.000000 1.461851E+01
8.000000 28.000000 1.010724E+01
8.000000 26.000000 7.964269E+00
8.000000 24.000000 3.448200E-01
8.000000 22.000000 -1.945274E+01
8.000000 20.000000 -3.461584E+01
8.000000 18.000000 -4.172433E+01
8.000000 16.000000 -4.258307E+01
8.000000 14.000000 -4.496419E+01
8.000000 12.000000 -6.422527E+01
8.000000 10.000000 -1.060990E+02
8.000000 8.000000 -1.339014E+02
8.000000 6.000000 -1.203294E+02
8.000000 4.000000 -5.830289E+01
8.000000 2.000000 -1.845226E+00
8.000000 0.000000 2.365008E+01
8.000000 -2.000000 2.077158E+01
8.000000 -4.000000 6.056950E+00
8.000000 -6.000000 -1.754616E+00
8.000000 -8.000000 -3.988792E+00
8.000000 -10.000000 -1.142248E+00
8.000000 -12.000000 1.737169E+00
8.000000 -14.000000 -3.251279E+00
8.000000 -16.000000 -5.735303E+00
8.000000 -18.000000 1.197271E-01
8.000000 -20.000000 1.312124E+01
8.000000 -22.000000 2.862107E+01
8.000000 -24.000000 3.364604E+01
8.000000 -26.000000 2.713720E+01
8.000000 -28.000000 3.084709E+01
8.000000 -30.000000 4.287604E+01
8.000000 -32.000000 5.138156E+01
8.000000 -34.000000 4.497502E+01
8.000000 -36.000000 2.575952E+01
8.000000 -38.000000 4.236574E+00
8.000000 -40.000000 -1.791977E+01
10.000000 40.000000 7.567366E+01
10.000000 38.000000 6.068618E+01
10.000000 36.000000 5.258537E+01
10.000000 34.000000 4.118434E+01
10.000000 32.000000 2.175445E+01
10.000000 30.000000 8.155880E+00
10.000000 28.000000 4.082036E+00
10.000000 26.000000 2.518282E+00
10.000000 24.000000 -3.838689E+00
10.000000 22.000000 -2.085569E+01
10.000000 20.000000 -3.548649E+01
10.000000 18.000000 -4.149623E+01
10.000000 16.000000 -4.206055E+01
10.000000 14.000000 -4.973994E+01
10.000000 12.000000 -8.008724E+01
10.000000 10.000000 -1.350813E+02
10.000000 8.000000 -1.727712E+02
10.000000 6.000000 -1.671346E+02
10.000000 4.000000 -9.854454E+01
10.000000 2.000000 -2.070833E+01
10.000000 0.000000 2.935350E+01
10.000000 -2.000000 4.387541E+01
10.000000 -4.000000 3.477846E+01
10.000000 -6.000000 1.790594E+01
10.000000 -8.000000 4.764080E+00
10.000000 -10.000000 3.962288E-01
10.000000 -12.000000 3.421503E+00
10.000000 -14.000000 2.072056E+00
10.000000 -16.000000 4.315125E+00
10.000000 -18.000000 1.270783E+01
10.000000 -20.000000 2.722141E+01
10.000000 -22.000000 4.186445E+01
10.000000 -24.000000 4.248800E+01
10.000000 -26.000000 3.438515E+01
10.000000 -28.000000 3.442794E+01
10.000000 -30.000000 3.948939E+01
10.000000 -32.000000 4.400126E+01
10.000000 -34.000000 4.407703E+01
10.000000 -36.000000 3.453118E+01
10.000000 -38.000000 1.293528E+01
10.000000 -40.000000 -1.409125E+01
12.000000 40.000000 7.423148E+01
12.000000 38.000000 5.581625E+01
12.000000 36.000000 4.603308E+01
12.000000 34.000000 3.329808E+01
12.000000 32.000000 9.443805E+00
12.000000 30.000000 -5.743219E+00
12.000000 28.000000 -6.281791E+00
12.000000 26.000000 -5.832149E+00
12.000000 24.000000 -1.129355E+01
12.000000 22.000000 -2.219924E+01
12.000000 20.000000 -3.049446E+01
12.000000 18.000000 -2.725282E+01
12.000000 16.000000 -2.253532E+01
12.000000 14.000000 -3.141127E+01
12.000000 12.000000 -7.101202E+01
12.000000 10.000000 -1.375052E+02
12.000000 8.000000 -1.878977E+02
12.000000 6.000000 -1.954262E+02
12.000000 4.000000 -1.359888E+02
12.000000 2.000000 -5.200176E+01
12.000000 0.000000 1.521288E+01
12.000000 -2.000000 4.904788E+01
12.000000 -4.000000 5.466614E+01
12.000000 -6.000000 3.707307E+01
12.000000 -8.000000 1.648954E+01
12.000000 -10.000000 6.996958E+00
12.000000 -12.000000 9.665075E+00
12.000000 -14.000000 1.132542E+01
12.000000 -16.000000 1.837277E+01
12.000000 -18.000000 3.389787E+01
12.000000 -20.000000 5.108228E+01
12.000000 -22.000000 5.911643E+01
12.000000 -24.000000 4.887860E+01
12.000000 -26.000000 3.486170E+01
12.000000 -28.000000 2.909723E+01
12.000000 -30.000000 2.631425E+01
12.000000 -32.000000 2.705919E+01
12.000000 -34.000000 3.278569E+01
12.000000 -36.000000 3.328805E+01
12.000000 -38.000000 1.955309E+01
12.000000 -40.000000 -4.986318E+00
14.000000 40.000000 7.271240E+01
14.000000 38.000000 4.808944E+01
14.000000 36.000000 3.398502E+01
14.000000 34.000000 2.020849E+01
14.000000 32.000000 -4.452523E+00
14.000000 30.000000 -1.973684E+01
14.000000 28.000000 -1.857602E+01
14.000000 26.000000 -1.688747E+01
14.000000 24.000000 -2.141807E+01
14.000000 22.000000 -2.466365E+01
14.000000 20.000000 -2.162174E+01
14.000000 18.000000 -3.892040E+00
14.000000 16.000000 4.992151E+00
14.000000 14.000000 -8.774895E+00
14.000000 12.000000 -5.371421E+01
14.000000 10.000000 -1.199432E+02
14.000000 8.000000 -1.727333E+02
14.000000 6.000000 -1.847675E+02
14.000000 4.000000 -1.405501E+02
14.000000 2.000000 -7.047246E+01
14.000000 0.000000 -5.126896E+00
14.000000 -2.000000 3.835569E+01
14.000000 -4.000000 5.854394E+01
14.000000 -6.000000 5.058063E+01
14.000000 -8.000000 3.096673E+01
14.000000 -10.000000 2.171046E+01
14.000000 -12.000000 2.181862E+01
14.000000 -14.000000 2.418392E+01
14.000000 -16.000000 3.787352E+01
14.000000 -18.000000 6.626673E+01
14.000000 -20.000000 8.568273E+01
14.000000 -22.000000 8.024983E+01
14.000000 -24.000000 5.568777E+01
14.000000 -26.000000 3.260879E+01
14.000000 -28.000000 1.734161E+01
14.000000 -30.000000 2.940382E+00
14.000000 -32.000000 -3.031737E+00
14.000000 -34.000000 9.542639E+00
14.000000 -36.000000 2.404344E+01
14.000000 -38.000000 2.373741E+01
14.000000 -40.000000 6.702867E+00
16.000000 40.000000 7.293998E+01
16.000000 38.000000 4.188681E+01
16.000000 36.000000 2.155476E+01
16.000000 34.000000 4.892839E+00
16.000000 32.000000 -1.733028E+01
16.000000 30.000000 -2.989133E+01
16.000000 28.000000 -2.754269E+01
16.000000 26.000000 -2.480397E+01
16.000000 24.000000 -2.869855E+01
16.000000 22.000000 -2.773039E+01
16.000000 20.000000 -1.463779E+01
16.000000 18.000000 1.440697E+01
16.000000 16.000000 2.305193E+01
16.000000 14.000000 4.177768E+00
16.000000 12.000000 -4.255433E+01
16.000000 10.000000 -1.023968E+02
16.000000 8.000000 -1.483248E+02
16.000000 6.000000 -1.578269E+02
16.000000 4.000000 -1.253036E+02
16.000000 2.000000 -7.098238E+01
16.000000 0.000000 -1.018746E+01
16.000000 -2.000000 3.878262E+01
16.000000 -4.000000 6.441611E+01
16.000000 -6.000000 5.910988E+01
16.000000 -8.000000 4.171557E+01
16.000000 -10.000000 3.889037E+01
16.000000 -12.000000 4.156684E+01
16.000000 -14.000000 4.497048E+01
16.000000 -16.000000 6.556802E+01
16.000000 -18.000000 1.039139E+02
16.000000 -20.000000 1.231445E+02
16.000000 -22.000000 1.062577E+02
16.000000 -24.000000 6.870394E+01
16.000000 -26.000000 3.467169E+01
16.000000 -28.000000 7.756288E+00
16.000000 -30.000000 -2.137088E+01
16.000000 -32.000000 -3.885953E+01
16.000000 -34.000000 -1.786848E+01
16.000000 -36.000000 1.317928E+01
16.000000 -38.000000 2.406794E+01
16.000000 -40.000000 1.309869E+01
18.000000 40.000000 7.636796E+01
18.000000 38.000000 4.042746E+01
18.000000 36.000000 1.545405E+01
18.000000 34.000000 -3.976641E+00
18.000000 32.000000 -2.668572E+01
18.000000 30.000000 -3.556759E+01
18.000000 28.000000 -2.841005E+01
18.000000 26.000000 -2.210836E+01
18.000000 24.000000 -2.405454E+01
18.000000 22.000000 -2.578292E+01
18.000000 20.000000 -1.620366E+01
18.000000 18.000000 7.209777E+00
18.000000 16.000000 1.343367E+01
18.000000 14.000000 -8.771806E-01
18.000000 12.000000 -4.060193E+01
18.000000 10.000000 -9.203343E+01
18.000000 8.000000 -1.319415E+02
18.000000 6.000000 -1.434400E+02
18.000000 4.000000 -1.194565E+02
18.000000 2.000000 -6.711678E+01
18.000000 0.000000 4.043209E+00
18.000000 -2.000000 6.094827E+01
18.000000 -4.000000 7.820509E+01
18.000000 -6.000000 6.096538E+01
18.000000 -8.000000 4.497569E+01
18.000000 -10.000000 5.044742E+01
18.000000 -12.000000 6.190083E+01
18.000000 -14.000000 7.207145E+01
18.000000 -16.000000 9.899903E+01
18.000000 -18.000000 1.362028E+02
18.000000 -20.000000 1.500496E+02
18.000000 -22.000000 1.275234E+02
18.000000 -24.000000 8.369868E+01
18.000000 -26.000000 4.264152E+01
18.000000 -28.000000 8.799276E+00
18.000000 -30.000000 -2.921098E+01
18.000000 -32.000000 -5.572415E+01
18.000000 -34.000000 -3.292139E+01
18.000000 -36.000000 3.469541E+00
18.000000 -38.000000 1.739231E+01
18.000000 -40.000000 8.908770E+00
20.000000 40.000000 8.218004E+01
20.000000 38.000000 4.419739E+01
20.000000 36.000000 1.716012E+01
20.000000 34.000000 -3.342150E+00
20.000000 32.000000 -2.722730E+01
20.000000 30.000000 -3.408626E+01
20.000000 28.000000 -2.291960E+01
20.000000 26.000000 -1.183104E+01
20.000000 24.000000 -1.094115E+01
20.000000 22.000000 -1.963721E+01
20.000000 20.000000 -2.254672E+01
20.000000 18.000000 -1.371464E+01
20.000000 16.000000 -9.180923E+00
20.000000 14.000000 -1.625771E+01
20.000000 12.000000 -4.527438E+01
20.000000 10.000000 -8.809877E+01
20.000000 8.000000 -1.273105E+02
20.000000 6.000000 -1.474995E+02
20.000000 4.000000 -1.298770E+02
20.000000 2.000000 -7.307218E+01
20.000000 0.000000 9.001406E+00
20.000000 -2.000000 7.072724E+01
20.000000 -4.000000 7.881789E+01
20.000000 -6.000000 5.234945E+01
20.000000 -8.000000 4.236907E+01
20.000000 -10.000000 5.787200E+01
20.000000 -12.000000 7.834952E+01
20.000000 -14.000000 9.934348E+01
20.000000 -16.000000 1.288164E+02
20.000000 -18.000000 1.562666E+02
20.000000 -20.000000 1.594233E+02
20.000000 -22.000000 1.345709E+02
20.000000 -24.000000 9.501720E+01
20.000000 -26.000000 5.727944E+01
20.000000 -28.000000 2.633049E+01
20.000000 -30.000000 -7.151409E+00
20.000000 -32.000000 -3.356091E+01
20.000000 -34.000000 -2.515656E+01
20.000000 -36.000000 -5.864655E+00
20.000000 -38.000000 2.026185E+00
20.000000 -40.000000 -6.524330E+00
22.000000 40.000000 8.616534E+01
22.000000 38.000000 4.993568E+01
22.000000 36.000000 2.521284E+01
22.000000 34.000000 5.841143E+00
22.000000 32.000000 -1.618546E+01
22.000000 30.000000 -2.262775E+01
22.000000 28.000000 -1.302956E+01
22.000000 26.000000 -2.841793E+00
22.000000 24.000000 -1.276405E+00
22.000000 22.000000 -1.477571E+01
22.000000 20.000000 -2.597582E+01
22.000000 18.000000 -2.627583E+01
22.000000 16.000000 -2.371675E+01
22.000000 14.000000 -2.658587E+01
22.000000 12.000000 -4.569083E+01
22.000000 10.000000 -8.531810E+01
22.000000 8.000000 -1.283156E+02
22.000000 6.000000 -1.588067E+02
22.000000 4.000000 -1.498008E+02
22.000000 2.000000 -9.469934E+01
22.000000 0.000000 -1.401321E+01
22.000000 -2.000000 4.544734E+01
22.000000 -4.000000 5.366887E+01
22.000000 -6.000000 3.097024E+01
22.000000 -8.000000 3.154958E+01
22.000000 -10.000000 5.996951E+01
22.000000 -12.000000 9.640428E+01
22.000000 -14.000000 1.299759E+02
22.000000 -16.000000 1.564359E+02
22.000000 -18.000000 1.685461E+02
22.000000 -20.000000 1.583058E+02
22.000000 -22.000000 1.328864E+02
22.000000 -24.000000 1.029797E+02
22.000000 -26.000000 7.437852E+01
22.000000 -28.000000 5.317974E+01
22.000000 -30.000000 3.181002E+01
22.000000 -32.000000 8.740839E+00
22.000000 -34.000000 -2.214025E+00
22.000000 -36.000000 -1.010682E+01
22.000000 -38.000000 -1.620229E+01
22.000000 -40.000000 -2.930803E+01
24.000000 40.000000 9.095426E+01
24.000000 38.000000 5.898267E+01
24.000000 36.000000 3.758069E+01
24.000000 34.000000 1.869761E+01
24.000000 32.000000 -4.043770E+00
24.000000 30.000000 -1.093677E+01
24.000000 28.000000 -3.337715E+00
24.000000 26.000000 2.027886E+00
24.000000 24.000000 -4.740543E-01
24.000000 22.000000 -1.527924E+01
24.000000 20.000000 -2.815962E+01
24.000000 18.000000 -2.925739E+01
24.000000 16.000000 -2.225042E+01
24.000000 14.000000 -1.430034E+01
24.000000 12.000000 -2.490445E+01
24.000000 10.000000 -6.625342E+01
24.000000 8.000000 -1.206415E+02
24.000000 6.000000 -1.659990E+02
24.000000 4.000000 -1.718051E+02
24.000000 2.000000 -1.292025E+02
24.000000 0.000000 -5.968484E+01
24.000000 -2.000000 -2.061561E+00
24.000000 -4.000000 1.696346E+01
24.000000 -6.000000 9.246890E+00
24.000000 -8.000000 1.836226E+01
24.000000 -10.000000 5.709138E+01
24.000000 -12.000000 1.126533E+02
24.000000 -14.000000 1.547983E+02
24.000000 -16.000000 1.733133E+02
24.000000 -18.000000 1.685356E+02
24.000000 -20.000000 1.476909E+02
24.000000 -22.000000 1.258860E+02
24.000000 -24.000000 1.075494E+02
24.000000 -26.000000 9.312244E+01
24.000000 -28.000000 8.132051E+01
24.000000 -30.000000 6.625569E+01
24.000000 -32.000000 4.278019E+01
24.000000 -34.000000 1.777165E+01
24.000000 -36.000000 -1.079619E+01
24.000000 -38.000000 -3.042267E+01
24.000000 -40.000000 -4.939385E+01
26.000000 40.000000 9.908605E+01
26.000000 38.000000 7.284569E+01
26.000000 36.000000 5.113556E+01
26.000000 34.000000 2.916041E+01
26.000000 32.000000 2.994982E+00
26.000000 30.000000 -5.086817E+00
26.000000 28.000000 3.122381E+00
26.000000 26.000000 5.083491E+00
26.000000 24.000000 -3.637240E+00
26.000000 22.000000 -1.603833E+01
26.000000 20.000000 -2.487484E+01
26.000000 18.000000 -1.907459E+01
26.000000 16.000000 -3.328001E+00
26.000000 14.000000 1.678291E+01
26.000000 12.000000 1.207158E+01
26.000000 10.000000 -3.104192E+01
26.000000 8.000000 -9.957125E+01
26.000000 6.000000 -1.580613E+02
26.000000 4.000000 -1.828189E+02
26.000000 2.000000 -1.639816E+02
26.000000 0.000000 -1.128901E+02
26.000000 -2.000000 -5.598621E+01
26.000000 -4.000000 -2.027554E+01
26.000000 -6.000000 -2.868891E+00
26.000000 -8.000000 1.659970E+01
26.000000 -10.000000 5.954703E+01
26.000000 -12.000000 1.182473E+02
26.000000 -14.000000 1.579383E+02
26.000000 -16.000000 1.664951E+02
26.000000 -18.000000 1.508866E+02
26.000000 -20.000000 1.259903E+02
26.000000 -22.000000 1.121127E+02
26.000000 -24.000000 1.093940E+02
26.000000 -26.000000 1.121276E+02
26.000000 -28.000000 1.016104E+02
26.000000 -30.000000 8.096384E+01
26.000000 -32.000000 5.148111E+01
26.000000 -34.000000 1.851478E+01
26.000000 -36.000000 -1.615890E+01
26.000000 -38.000000 -3.604078E+01
26.000000 -40.000000 -5.526778E+01
28.000000 40.000000 1.022330E+02
28.000000 38.000000 8.127985E+01
28.000000 36.000000 6.086243E+01
28.000000 34.000000 4.088790E+01
28.000000 32.000000 1.974400E+01
28.000000 30.000000 1.090150E+01
28.000000 28.000000 1.468639E+01
28.000000 26.000000 1.470440E+01
28.000000 24.000000 1.939886E+00
28.000000 22.000000 -1.017219E+01
28.000000 20.000000 -1.306913E+01
28.000000 18.000000 2.445116E+00
28.000000 16.000000 2.208176E+01
28.000000 14.000000 4.123862E+01
28.000000 12.000000 3.611452E+01
28.000000 10.000000 -4.819434E+00
28.000000 8.000000 -7.560090E+01
28.000000 6.000000 -1.356886E+02
28.000000 4.000000 -1.750925E+02
28.000000 2.000000 -1.822270E+02
28.000000 0.000000 -1.528860E+02
28.000000 -2.000000 -9.980368E+01
28.000000 -4.000000 -4.879236E+01
28.000000 -6.000000 -8.939253E+00
28.000000 -8.000000 1.802156E+01
28.000000 -10.000000 5.922125E+01
28.000000 -12.000000 1.132939E+02
28.000000 -14.000000 1.498865E+02
28.000000 -16.000000 1.510024E+02
28.000000 -18.000000 1.286289E+02
28.000000 -20.000000 1.023136E+02
28.000000 -22.000000 9.201882E+01
28.000000 -24.000000 9.865860E+01
28.000000 -26.000000 1.097559E+02
28.000000 -28.000000 9.473565E+01
28.000000 -30.000000 6.831224E+01
28.000000 -32.000000 3.617988E+01
28.000000 -34.000000 4.612632E+00
28.000000 -36.000000 -2.227474E+01
28.000000 -38.000000 -3.255555E+01
28.000000 -40.000000 -4.645712E+01
30.000000 40.000000 9.789136E+01
30.000000 38.000000 7.995845E+01
30.000000 36.000000 6.568460E+01
30.000000 34.000000 5.552547E+01
30.000000 32.000000 4.521509E+01
30.000000 30.000000 3.583261E+01
30.000000 28.000000 3.269111E+01
30.000000 26.000000 3.257333E+01
30.000000 24.000000 2.284821E+01
30.000000 22.000000 1.074971E+01
30.000000 20.000000 1.000565E+01
30.000000 18.000000 2.756013E+01
30.000000 16.000000 4.178609E+01
30.000000 14.000000 4.895044E+01
30.000000 12.000000 3.733095E+01
30.000000 10.000000 -1.423011E+00
30.000000 8.000000 -5.909839E+01
30.000000 6.000000 -1.064389E+02
30.000000 4.000000 -1.456563E+02
30.000000 2.000000 -1.697098E+02
30.000000 0.000000 -1.596275E+02
30.000000 -2.000000 -1.133063E+02
30.000000 -4.000000 -5.716321E+01
30.000000 -6.000000 -1.507663E+01
30.000000 -8.000000 6.326671E+00
30.000000 -10.000000 4.221917E+01
30.000000 -12.000000 9.608133E+01
30.000000 -14.000000 1.348136E+02
30.000000 -16.000000 1.360467E+02
30.000000 -18.000000 1.094793E+02
30.000000 -20.000000 7.963935E+01
30.000000 -22.000000 6.480646E+01
30.000000 -24.000000 6.933658E+01
30.000000 -26.000000 7.696689E+01
30.000000 -28.000000 6.160362E+01
30.000000 -30.000000 3.712343E+01
30.000000 -32.000000 1.020167E+01
30.000000 -34.000000 -1.045205E+01
30.000000 -36.000000 -2.254251E+01
30.000000 -38.000000 -2.264328E+01
30.000000 -40.000000 -2.887309E+01
32.000000 40.000000 9.358984E+01
32.000000 38.000000 7.800931E+01
32.000000 36.000000 6.932565E+01
32.000000 34.000000 6.599216E+01
32.000000 32.000000 6.053647E+01
32.000000 30.000000 5.151999E+01
32.000000 28.000000 4.765025E+01
32.000000 26.000000 5.068151E+01
32.000000 24.000000 5.007318E+01
32.000000 22.000000 4.246951E+01
32.000000 20.000000 4.030062E+01
32.000000 18.000000 5.000530E+01
32.000000 16.000000 5.137379E+01
32.000000 14.000000 4.338574E+01
32.000000 12.000000 2.374885E+01
32.000000 10.000000 -1.117538E+01
32.000000 8.000000 -4.871945E+01
32.000000 6.000000 -7.376055E+01
32.000000 4.000000 -9.788373E+01
32.000000 2.000000 -1.259284E+02
32.000000 0.000000 -1.311732E+02
32.000000 -2.000000 -9.878937E+01
32.000000 -4.000000 -5.273965E+01
32.000000 -6.000000 -2.265408E+01
32.000000 -8.000000 -1.036878E+01
32.000000 -10.000000 1.548692E+01
32.000000 -12.000000 6.785071E+01
32.000000 -14.000000 1.099202E+02
32.000000 -16.000000 1.171137E+02
32.000000 -18.000000 9.158979E+01
32.000000 -20.000000 5.764235E+01
32.000000 -22.000000 3.531370E+01
32.000000 -24.000000 3.505059E+01
32.000000 -26.000000 3.867723E+01
32.000000 -28.000000 2.605566E+01
32.000000 -30.000000 5.494323E+00
32.000000 -32.000000 -1.432251E+01
32.000000 -34.000000 -2.322363E+01
32.000000 -36.000000 -1.952223E+01
32.000000 -38.000000 -7.952656E+00
32.000000 -40.000000 -7.101466E+00
34.000000 40.000000 9.513008E+01
34.000000 38.000000 8.089803E+01
34.000000 36.000000 7.242430E+01
34.000000 34.000000 6.587928E+01
34.000000 32.000000 5.921941E+01
34.000000 30.000000 5.288581E+01
34.000000 28.000000 5.330387E+01
34.000000 26.000000 6.055930E+01
34.000000 24.000000 6.870318E+01
34.000000 22.000000 6.591170E+01
34.000000 20.000000 6.168467E+01
34.000000 18.000000 5.944900E+01
34.000000 16.000000 5.003858E+01
34.000000 14.000000 3.497146E+01
34.000000 12.000000 9.848154E+00
34.000000 10.000000 -2.330601E+01
34.000000 8.000000 -4.477205E+01
34.000000 6.000000 -4.938812E+01
34.000000 4.000000 -5.586003E+01
34.000000 2.000000 -7.581741E+01
34.000000 0.000000 -8.513022E+01
34.000000 -2.000000 -6.659697E+01
34.000000 -4.000000 -3.471906E+01
34.000000 -6.000000 -2.166394E+01
34.000000 -8.000000 -1.819847E+01
34.000000 -10.000000 7.628698E-01
34.000000 -12.000000 5.163442E+01
34.000000 -14.000000 9.329359E+01
34.000000 -16.000000 1.000855E+02
34.000000 -18.000000 7.547427E+01
34.000000 -20.000000 4.243668E+01
34.000000 -22.000000 1.916580E+01
34.000000 -24.000000 1.598664E+01
34.000000 -26.000000 1.591894E+01
34.000000 -28.000000 4.475432E+00
34.000000 -30.000000 -1.294253E+01
34.000000 -32.000000 -2.710502E+01
34.000000 -34.000000 -2.907099E+01
34.000000 -36.000000 -1.431118E+01
34.000000 -38.000000 7.359878E+00
34.000000 -40.000000 1.212699E+01
36.000000 40.000000 1.012252E+02
36.000000 38.000000 8.571187E+01
36.000000 36.000000 7.267046E+01
36.000000 34.000000 5.722541E+01
36.000000 32.000000 4.674055E+01
36.000000 30.000000 4.406624E+01
36.000000 28.000000 5.009558E+01
36.000000 26.000000 6.163981E+01
36.000000 24.000000 7.606712E+01
36.000000 22.000000 7.505431E+01
36.000000 20.000000 6.973811E+01
36.000000 18.000000 5.976514E+01
36.000000 16.000000 4.405034E+01
36.000000 14.000000 2.591372E+01
36.000000 12.000000 -3.855965E+00
36.000000 10.000000 -3.978498E+01
36.000000 8.000000 -5.033062E+01
36.000000 6.000000 -4.130732E+01
36.000000 4.000000 -3.418736E+01
36.000000 2.000000 -4.308119E+01
36.000000 0.000000 -4.787413E+01
36.000000 -2.000000 -3.494946E+01
36.000000 -4.000000 -1.146759E+01
36.000000 -6.000000 -4.540117E+00
36.000000 -8.000000 -2.379022E+00
36.000000 -10.000000 1.810859E+01
36.000000 -12.000000 6.245190E+01
36.000000 -14.000000 9.158225E+01
36.000000 -16.000000 8.874574E+01
36.000000 -18.000000 6.492458E+01
36.000000 -20.000000 4.004125E+01
36.000000 -22.000000 2.763933E+01
36.000000 -24.000000 2.484601E+01
36.000000 -26.000000 1.985668E+01
36.000000 -28.000000 6.569106E+00
36.000000 -30.000000 -1.000145E+01
36.000000 -32.000000 -2.148589E+01
36.000000 -34.000000 -2.174599E+01
36.000000 -36.000000 -5.876900E+00
36.000000 -38.000000 1.654803E+01
36.000000 -40.000000 2.185974E+01
38.000000 40.000000 1.082066E+02
38.000000 38.000000 8.928372E+01
38.000000 36.000000 6.718621E+01
38.000000 34.000000 4.356726E+01
38.000000 32.000000 3.108563E+01
38.000000 30.000000 3.220545E+01
38.000000 28.000000 4.435880E+01
38.000000 26.000000 5.870174E+01
38.000000 24.000000 7.320442E+01
38.000000 22.000000 7.245053E+01
38.000000 20.000000 7.066317E+01
38.000000 18.000000 6.442683E+01
38.000000 16.000000 4.538746E+01
38.000000 14.000000 1.776593E+01
38.000000 12.000000 -1.962369E+01
38.000000 10.000000 -5.702201E+01
38.000000 8.000000 -5.964499E+01
38.000000 6.000000 -4.318132E+01
38.000000 4.000000 -2.660076E+01
38.000000 2.000000 -2.748068E+01
38.000000 0.000000 -2.814342E+01
38.000000 -2.000000 -1.489199E+01
38.000000 -4.000000 8.390182E+00
38.000000 -6.000000 2.279552E+01
38.000000 -8.000000 3.029328E+01
38.000000 -10.000000 5.310268E+01
38.000000 -12.000000 8.397360E+01
38.000000 -14.000000 9.514970E+01
38.000000 -16.000000 8.266832E+01
38.000000 -18.000000 6.246059E+01
38.000000 -20.000000 5.258880E+01
38.000000 -22.000000 5.789530E+01
38.000000 -24.000000 5.764381E+01
38.000000 -26.000000 4.731067E+01
38.000000 -28.000000 2.731194E+01
38.000000 -30.000000 9.726553E+00
38.000000 -32.000000 -7.375469E-01
38.000000 -34.000000 -2.074141E+00
38.000000 -36.000000 6.458174E+00
38.000000 -38.000000 2.078855E+01
38.000000 -40.000000 2.337683E+01
40.000000 40.000000 1.114039E+02
40.000000 38.000000 9.101540E+01
40.000000 36.000000 6.023903E+01
40.000000 34.000000 3.262191E+01
40.000000 32.000000 2.189978E+01
40.000000 30.000000 2.382770E+01
40.000000 28.000000 3.771316E+01
40.000000 26.000000 4.833621E+01
40.000000 24.000000 5.525019E+01
40.000000 22.000000 5.770932E+01
40.000000 20.000000 6.485426E+01
40.000000 18.000000 7.178647E+01
40.000000 16.000000 5.711779E+01
40.000000 14.000000 2.490988E+01
40.000000 12.000000 -1.688220E+01
40.000000 10.000000 -5.487766E+01
40.000000 8.000000 -5.683478E+01
40.000000 6.000000 -3.913916E+01
40.000000 4.000000 -2.047152E+01
40.000000 2.000000 -1.829730E+01
40.000000 0.000000 -1.367858E+01
40.000000 -2.000000 2.660370E-01
40.000000 -4.000000 2.002980E+01
40.000000 -6.000000 3.415882E+01
40.000000 -8.000000 4.175453E+01
40.000000 -10.000000 6.622569E+01
40.000000 -12.000000 9.338107E+01
40.000000 -14.000000 9.798251E+01
40.000000 -16.000000 8.515953E+01
40.000000 -18.000000 7.450962E+01
40.000000 -20.000000 7.868048E+01
40.000000 -22.000000 9.332103E+01
40.000000 -24.000000 8.995176E+01
40.000000 -26.000000 6.883264E+01
40.000000 -28.000000 4.381469E+01
40.000000 -30.000000 3.005077E+01
40.000000 -32.000000 2.465162E+01
40.000000 -34.000000 2.487238E+01
40.000000 -36.000000 2.558656E+01
40.000000 -38.000000 2.885864E+01
40.000000 -40.000000 2.529509E+01
42.000000 40.000000 1.074066E+02
42.000000 38.000000 9.079401E+01
42.000000 36.000000 6.389934E+01
42.000000 34.000000 3.934015E+01
42.000000 32.000000 2.547213E+01
42.000000 30.000000 1.935060E+01
42.000000 28.000000 2.441509E+01
42.000000 26.000000 2.326489E+01
42.000000 24.000000 2.056182E+01
42.000000 22.000000 2.842687E+01
42.000000 20.000000 4.560093E+01
42.000000 18.000000 6.812785E+01
42.000000 16.000000 6.630548E+01
42.000000 14.000000 4.555918E+01
42.000000 12.000000 1.433572E+01
42.000000 10.000000 -1.735218E+01
42.000000 8.000000 -2.435678E+01
42.000000 6.000000 -1.311544E+01
42.000000 4.000000 -3.325821E+00
42.000000 2.000000 -6.888708E+00
42.000000 0.000000 3.242292E-01
42.000000 -2.000000 1.267334E+01
42.000000 -4.000000 1.779015E+01
42.000000 -6.000000 1.837986E+01
42.000000 -8.000000 2.213397E+01
42.000000 -10.000000 4.749853E+01
42.000000 -12.000000 7.959514E+01
42.000000 -14.000000 9.103573E+01
42.000000 -16.000000 8.974306E+01
42.000000 -18.000000 8.931816E+01
42.000000 -20.000000 9.732222E+01
42.000000 -22.000000 1.084774E+02
42.000000 -24.000000 9.905170E+01
42.000000 -26.000000 7.062062E+01
42.000000 -28.000000 4.995915E+01
42.000000 -30.000000 4.581265E+01
42.000000 -32.000000 4.917108E+01
42.000000 -34.000000 5.264604E+01
42.000000 -36.000000 5.001525E+01
42.000000 -38.000000 4.516199E+01
42.000000 -40.000000 3.323593E+01
44.000000 40.000000 9.449117E+01
44.000000 38.000000 8.439384E+01
44.000000 36.000000 7.480370E+01
44.000000 34.000000 6.328723E+01
44.000000 32.000000 4.458787E+01
44.000000 30.000000 2.400727E+01
44.000000 28.000000 1.025174E+01
44.000000 26.000000 -5.607105E+00
44.000000 24.000000 -1.484618E+01
44.000000 22.000000 -1.476566E+00
44.000000 20.000000 2.131586E+01
44.000000 18.000000 5.290050E+01
44.000000 16.000000 6.369777E+01
44.000000 14.000000 5.743861E+01
44.000000 12.000000 4.489389E+01
