-26.000000 -20.000000 1.536110E+01
-26.000000 -22.000000 1.087487E+01
-26.000000 -24.000000 6.915518E+00
-26.000000 -26.000000 6.996326E+00
-26.000000 -28.000000 1.033694E+01
-26.000000 -30.000000 9.656421E+00
-26.000000 -32.000000 6.423109E+00
-26.000000 -34.000000 1.038270E+01
-26.000000 -36.000000 2.136330E+01
-26.000000 -38.000000 2.947040E+01
-26.000000 -40.000000 3.237935E+01
-24.000000 40.000000 -2.014304E+01
-24.000000 38.000000 -2.048249E+01
-24.000000 36.000000 -8.689490E+00
-24.000000 34.000000 1.429724E+01
-24.000000 32.000000 3.495474E+01
-24.000000 30.000000 3.480399E+01
-24.000000 28.000000 1.489791E+01
-24.000000 26.000000 -5.761383E+00
-24.000000 24.000000 -2.431358E+01
-24.000000 22.000000 -2.544896E+01
-24.000000 20.000000 -1.384531E+01
-24.000000 18.000000 -1.923913E-01
-24.000000 16.000000 5.161798E+00
-24.000000 14.000000 2.634662E+00
-24.000000 12.000000 -5.405208E+00
-24.000000 10.000000 -1.097476E+01
-24.000000 8.000000 -1.495990E+01
-24.000000 6.000000 -1.637137E+01
-24.000000 4.000000 -1.373455E+01
-24.000000 2.000000 -6.300611E+00
-24.000000 0.000000 5.725624E+00
-24.000000 -2.000000 1.912157E+01
-24.000000 -4.000000 2.990163E+01
-24.000000 -6.000000 2.264022E+01
-24.000000 -8.000000 -3.621581E+00
-24.000000 -10.000000 -2.414697E+01
-24.000000 -12.000000 -2.237261E+01
-24.000000 -14.000000 -1.109217E+01
-24.000000 -16.000000 2.847605E+00
-24.000000 -18.000000 1.463672E+01
-24.000000 -20.000000 1.908277E+01
-24.000000 -22.000000 1.445731E+01
-24.000000 -24.000000 8.686227E+00
-24.000000 -26.000000 7.440615E+00
-24.000000 -28.000000 1.011654E+01
-24.000000 -30.000000 9.570310E+00
-24.000000 -32.000000 7.596483E+00
-24.000000 -34.000000 1.147308E+01
-24.000000 -36.000000 2.118136E+01
-24.000000 -38.000000 2.942317E+01
-24.000000 -40.000000 3.257891E+01
-22.000000 40.000000 -1.751919E+01
-22.000000 38.000000 -1.429989E+01
-22.000000 36.000000 -2.237712E+00
-22.000000 34.000000 1.676243E+01
-22.000000 32.000000 3.278095E+01
-22.000000 30.000000 2.948071E+01
-22.000000 28.000000 8.562933E+00
-22.000000 26.000000 -1.310514E+01
-22.000000 24.000000 -3.341028E+01
-22.000000 22.000000 -3.588101E+01
-22.000000 20.000000 -2.705769E+01
-22.000000 18.000000 -1.394800E+01
-22.000000 16.000000 -5.626584E+00
-22.000000 14.000000 -3.931995E+00
-22.000000 12.000000 -7.792632E+00
-22.000000 10.000000 -9.368421E+00
-22.000000 8.000000 -8.696001E+00
-22.000000 6.000000 -7.351137E+00
-22.000000 4.000000 -4.089693E+00
-22.000000 2.000000 2.221630E+00
-22.000000 0.000000 1.226049E+01
-22.000000 -2.000000 2.338792E+01
-22.000000 -4.000000 3.046327E+01
-22.000000 -6.000000 2.071556E+01
-22.000000 -8.000000 -2.756202E+00
-22.000000 -10.000000 -1.970573E+01
-22.000000 -12.000000 -1.831224E+01
-22.000000 -14.000000 -8.912478E+00
-22.000000 -16.000000 3.512421E+00
-22.000000 -18.000000 1.483169E+01
-22.000000 -20.000000 1.983282E+01
-22.000000 -22.000000 1.543991E+01
-22.000000 -24.000000 8.929307E+00
-22.000000 -26.000000 7.690450E+00
-22.000000 -28.000000 1.025749E+01
-22.000000 -30.000000 9.643081E+00
-22.000000 -32.000000 7.727825E+00
-22.000000 -34.000000 1.115293E+01
-22.000000 -36.000000 1.920739E+01
-22.000000 -38.000000 2.746701E+01
-22.000000 -40.000000 3.178669E+01
-20.000000 40.000000 -1.641308E+01
-20.000000 38.000000 -1.014075E+01
-20.000000 36.000000 1.939115E+00
-20.000000 34.000000 1.858965E+01
-20.000000 32.000000 3.307912E+01
-20.000000 30.000000 3.138037E+01
-20.000000 28.000000 1.261714E+01
-20.000000 26.000000 -8.581340E+00
-20.000000 24.000000 -2.820357E+01
-20.000000 22.000000 -3.204905E+01
-20.000000 20.000000 -2.728937E+01
-20.000000 18.000000 -2.178782E+01
-20.000000 16.000000 -1.766030E+01
-20.000000 14.000000 -1.575105E+01
-20.000000 12.000000 -1.560139E+01
-20.000000 10.000000 -1.153254E+01
-20.000000 8.000000 -5.568513E+00
-20.000000 6.000000 -2.303316E+00
-20.000000 4.000000 -2.051486E+00
-20.000000 2.000000 3.011980E-01
-20.000000 0.000000 8.739494E+00
-20.000000 -2.000000 1.965454E+01
-20.000000 -4.000000 2.588038E+01
-20.000000 -6.000000 1.610171E+01
-20.000000 -8.000000 -3.887767E+00
-20.000000 -10.000000 -1.641585E+01
-20.000000 -12.000000 -1.555082E+01
-20.000000 -14.000000 -8.529438E+00
-20.000000 -16.000000 1.568290E+00
-20.000000 -18.000000 1.091977E+01
-20.000000 -20.000000 1.527263E+01
-20.000000 -22.000000 1.041285E+01
-20.000000 -24.000000 4.100220E+00
-20.000000 -26.000000 4.268934E+00
-20.000000 -28.000000 8.202588E+00
-20.000000 -30.000000 8.838289E+00
-20.000000 -32.000000 5.909215E+00
-20.000000 -34.000000 8.506670E+00
-20.000000 -36.000000 1.645879E+01
-20.000000 -38.000000 2.644824E+01
-20.000000 -40.000000 3.287175E+01
-18.000000 40.000000 -1.966116E+01
-18.000000 38.000000 -1.023992E+01
-18.000000 36.000000 3.461126E+00
-18.000000 34.000000 2.108132E+01
-18.000000 32.000000 3.696772E+01
-18.000000 30.000000 3.910789E+01
-18.000000 28.000000 2.402345E+01
-18.000000 26.000000 4.948379E+00
-18.000000 24.000000 -1.118556E+01
-18.000000 22.000000 -1.589187E+01
-18.000000 20.000000 -1.502064E+01
-18.000000 18.000000 -2.005346E+01
-18.000000 16.000000 -2.528227E+01
-18.000000 14.000000 -2.874661E+01
-18.000000 12.000000 -2.666627E+01
-18.000000 10.000000 -1.550046E+01
-18.000000 8.000000 -2.778607E+00
-18.000000 6.000000 6.426325E-01
-18.000000 4.000000 -4.193930E+00
-18.000000 2.000000 -5.696977E+00
-18.000000 0.000000 2.567933E+00
-18.000000 -2.000000 1.450931E+01
-18.000000 -4.000000 2.101064E+01
-18.000000 -6.000000 1.046207E+01
-18.000000 -8.000000 -9.329591E+00
-18.000000 -10.000000 -2.050414E+01
-18.000000 -12.000000 -2.018881E+01
-18.000000 -14.000000 -1.425744E+01
-18.000000 -16.000000 -5.230322E+00
-18.000000 -18.000000 1.690577E+00
-18.000000 -20.000000 3.213040E+00
-18.000000 -22.000000 -2.387360E+00
-18.000000 -24.000000 -7.397038E+00
-18.000000 -26.000000 -4.241978E+00
-18.000000 -28.000000 3.396740E+00
-18.000000 -30.000000 6.251030E+00
-18.000000 -32.000000 2.850262E+00
-18.000000 -34.000000 5.444002E+00
-18.000000 -36.000000 1.496064E+01
-18.000000 -38.000000 2.678213E+01
-18.000000 -40.000000 3.553583E+01
-16.000000 40.000000 -2.652965E+01
-16.000000 38.000000 -1.472166E+01
-16.000000 36.000000 2.097158E+00
-16.000000 34.000000 2.337469E+01
-16.000000 32.000000 4.139558E+01
-16.000000 30.000000 4.643116E+01
-16.000000 28.000000 3.519722E+01
-16.000000 26.000000 1.963167E+01
-16.000000 24.000000 7.929306E+00
-16.000000 22.000000 3.320250E+00
-16.000000 20.000000 2.462203E+00
-16.000000 18.000000 -9.291969E+00
-16.000000 16.000000 -2.381123E+01
-16.000000 14.000000 -3.474167E+01
-16.000000 12.000000 -3.133480E+01
-16.000000 10.000000 -1.320212E+01
-16.000000 8.000000 3.648869E+00
-16.000000 6.000000 4.553267E+00
-16.000000 4.000000 -5.761006E+00
-16.000000 2.000000 -1.087454E+01
-16.000000 0.000000 -2.216833E+00
-16.000000 -2.000000 1.040108E+01
-16.000000 -4.000000 1.585604E+01
-16.000000 -6.000000 3.324599E+00
-16.000000 -8.000000 -1.949154E+01
-16.000000 -10.000000 -3.276356E+01
-16.000000 -12.000000 -3.216275E+01
-16.000000 -14.000000 -2.618746E+01
-16.000000 -16.000000 -1.677413E+01
-16.000000 -18.000000 -1.016507E+01
-16.000000 -20.000000 -1.102549E+01
-16.000000 -22.000000 -1.725188E+01
-16.000000 -24.000000 -2.111899E+01
-16.000000 -26.000000 -1.502750E+01
-16.000000 -28.000000 -3.107496E+00
-16.000000 -30.000000 1.715981E+00
-16.000000 -32.000000 -1.341193E+00
-16.000000 -34.000000 2.560403E+00
-16.000000 -36.000000 1.478419E+01
-16.000000 -38.000000 2.828124E+01
-16.000000 -40.000000 3.923869E+01
-14.000000 40.000000 -3.201305E+01
-14.000000 38.000000 -2.047946E+01
-14.000000 36.000000 -2.671890E+00
-14.000000 34.000000 2.146880E+01
-14.000000 32.000000 4.108613E+01
-14.000000 30.000000 4.672192E+01
-14.000000 28.000000 3.647082E+01
-14.000000 26.000000 2.419820E+01
-14.000000 24.000000 1.776924E+01
-14.000000 22.000000 1.671084E+01
-14.000000 20.000000 1.887199E+01
-14.000000 18.000000 6.977402E+00
-14.000000 16.000000 -1.301074E+01
-14.000000 14.000000 -2.875212E+01
-14.000000 12.000000 -2.484296E+01
-14.000000 10.000000 -1.366101E+00
-14.000000 8.000000 1.530360E+01
-14.000000 6.000000 1.032405E+01
-14.000000 4.000000 -6.549326E+00
-14.000000 2.000000 -1.557780E+01
-14.000000 0.000000 -8.547971E+00
-14.000000 -2.000000 4.254657E+00
-14.000000 -4.000000 8.552517E+00
-14.000000 -6.000000 -6.097368E+00
-14.000000 -8.000000 -3.008729E+01
-14.000000 -10.000000 -4.408547E+01
-14.000000 -12.000000 -4.218542E+01
-14.000000 -14.000000 -3.478607E+01
-14.000000 -16.000000 -2.524968E+01
-14.000000 -18.000000 -1.864564E+01
-14.000000 -20.000000 -2.003190E+01
-14.000000 -22.000000 -2.632272E+01
-14.000000 -24.000000 -3.025053E+01
-14.000000 -26.000000 -2.359583E+01
-14.000000 -28.000000 -1.054302E+01
-14.000000 -30.000000 -5.045280E+00
-14.000000 -32.000000 -7.032589E+00
-14.000000 -34.000000 -1.038446E+00
-14.000000 -36.000000 1.462450E+01
-14.000000 -38.000000 3.085162E+01
-14.000000 -40.000000 4.424498E+01
-12.000000 40.000000 -3.515163E+01
-12.000000 38.000000 -2.570712E+01
-12.000000 36.000000 -9.199542E+00
-12.000000 34.000000 1.567275E+01
-12.000000 32.000000 3.599613E+01
-12.000000 30.000000 3.959186E+01
-12.000000 28.000000 2.647746E+01
-12.000000 26.000000 1.484468E+01
-12.000000 24.000000 1.266411E+01
-12.000000 22.000000 2.076276E+01
-12.000000 20.000000 3.237724E+01
-12.000000 18.000000 2.638279E+01
-12.000000 16.000000 4.660612E+00
-12.000000 14.000000 -1.384146E+01
-12.000000 12.000000 -1.238068E+01
-12.000000 10.000000 1.161024E+01
-12.000000 8.000000 2.525632E+01
-12.000000 6.000000 1.489003E+01
-12.000000 4.000000 -6.972467E+00
-12.000000 2.000000 -1.914981E+01
-12.000000 0.000000 -1.633658E+01
-12.000000 -2.000000 -5.707651E+00
-12.000000 -4.000000 -1.542118E+00
-12.000000 -6.000000 -1.511452E+01
-12.000000 -8.000000 -3.658438E+01
-12.000000 -10.000000 -4.852764E+01
-12.000000 -12.000000 -4.420440E+01
-12.000000 -14.000000 -3.505656E+01
-12.000000 -16.000000 -2.527024E+01
-12.000000 -18.000000 -1.915454E+01
-12.000000 -20.000000 -1.935691E+01
-12.000000 -22.000000 -2.541969E+01
-12.000000 -24.000000 -3.028406E+01
-12.000000 -26.000000 -2.549556E+01
-12.000000 -28.000000 -1.500077E+01
-12.000000 -30.000000 -1.136292E+01
-12.000000 -32.000000 -1.298440E+01
-12.000000 -34.000000 -4.649227E+00
-12.000000 -36.000000 1.446397E+01
-12.000000 -38.000000 3.312988E+01
-12.000000 -40.000000 4.842927E+01
-10.000000 40.000000 -3.846774E+01
-10.000000 38.000000 -3.094887E+01
-10.000000 36.000000 -1.474601E+01
-10.000000 34.000000 1.073052E+01
-10.000000 32.000000 2.990637E+01
-10.000000 30.000000 2.841060E+01
-10.000000 28.000000 1.150459E+01
-10.000000 26.000000 2.180538E-01
-10.000000 24.000000 9.250231E-01
-10.000000 22.000000 1.885078E+01
-10.000000 20.000000 3.997909E+01
-10.000000 18.000000 4.094590E+01
-10.000000 16.000000 2.001116E+01
-10.000000 14.000000 -3.359699E-01
-10.000000 12.000000 -4.421174E+00
-10.000000 10.000000 1.324611E+01
-10.000000 8.000000 2.284896E+01
-10.000000 6.000000 1.306706E+01
-10.000000 4.000000 -7.300549E+00
-10.000000 2.000000 -1.931422E+01
-10.000000 0.000000 -1.892586E+01
-10.000000 -2.000000 -1.210239E+01
-10.000000 -4.000000 -8.503944E+00
-10.000000 -6.000000 -1.743930E+01
-10.000000 -8.000000 -3.558537E+01
-10.000000 -10.000000 -4.634444E+01
-10.000000 -12.000000 -4.133008E+01
-10.000000 -14.000000 -3.156046E+01
-10.000000 -16.000000 -2.068520E+01
-10.000000 -18.000000 -1.259457E+01
-10.000000 -20.000000 -1.041412E+01
-10.000000 -22.000000 -1.629857E+01
-10.000000 -24.000000 -2.208475E+01
-10.000000 -26.000000 -2.083916E+01
-10.000000 -28.000000 -1.451154E+01
-10.000000 -30.000000 -1.347132E+01
-10.000000 -32.000000 -1.625233E+01
-10.000000 -34.000000 -6.483595E+00
-10.000000 -36.000000 1.518843E+01
-10.000000 -38.000000 3.444338E+01
-10.000000 -40.000000 5.024263E+01
-8.000000 40.000000 -4.256640E+01
-8.000000 38.000000 -3.488675E+01
-8.000000 36.000000 -1.676894E+01
-8.000000 34.000000 1.073021E+01
-8.000000 32.000000 2.845020E+01
-8.000000 30.000000 2.075786E+01
-8.000000 28.000000 -7.158489E-01
-8.000000 26.000000 -1.080328E+01
-8.000000 24.000000 -8.062265E+00
-8.000000 22.000000 1.366753E+01
-8.000000 20.000000 3.729015E+01
-8.000000 18.000000 4.001189E+01
-8.000000 16.000000 1.972615E+01
-8.000000 14.000000 -3.490693E+00
-8.000000 12.000000 -1.506071E+01
-8.000000 10.000000 -4.943283E+00
-8.000000 8.000000 6.111320E+00
-8.000000 6.000000 5.588793E+00
-8.000000 4.000000 -5.417139E+00
-8.000000 2.000000 -1.315844E+01
-8.000000 0.000000 -1.228088E+01
-8.000000 -2.000000 -7.945905E+00
-8.000000 -4.000000 -5.492687E+00
-8.000000 -6.000000 -1.338030E+01
-8.000000 -8.000000 -3.049454E+01
-8.000000 -10.000000 -4.030341E+01
-8.000000 -12.000000 -3.483779E+01
-8.000000 -14.000000 -2.475469E+01
-8.000000 -16.000000 -1.327816E+01
-8.000000 -18.000000 -3.418052E+00
-8.000000 -20.000000 3.020539E-01
-8.000000 -22.000000 -4.482306E+00
-8.000000 -24.000000 -1.095636E+01
-8.000000 -26.000000 -1.353049E+01
-8.000000 -28.000000 -1.045781E+01
-8.000000 -30.000000 -1.083911E+01
-8.000000 -32.000000 -1.454546E+01
-8.000000 -34.000000 -5.614258E+00
-8.000000 -36.000000 1.638580E+01
-8.000000 -38.000000 3.598085E+01
-8.000000 -40.000000 5.175508E+01
-6.000000 40.000000 -4.696525E+01
-6.000000 38.000000 -3.713731E+01
-6.000000 36.000000 -1.604740E+01
-6.000000 34.000000 1.530039E+01
-6.000000 32.000000 3.491979E+01
-6.000000 30.000000 2.584795E+01
-6.000000 28.000000 1.215172E-02
-6.000000 26.000000 -1.461967E+01
-6.000000 24.000000 -1.566519E+01
-6.000000 22.000000 3.128013E+00
-6.000000 20.000000 2.258759E+01
-6.000000 18.000000 2.109088E+01
-6.000000 16.000000 1.012421E-02
-6.000000 14.000000 -2.616848E+01
-6.000000 12.000000 -4.397757E+01
-6.000000 10.000000 -4.056572E+01
-6.000000 8.000000 -2.336675E+01
-6.000000 6.000000 -8.560747E+00
-6.000000 4.000000 -3.550703E+00
-6.000000 2.000000 -3.053238E+00
-6.000000 0.000000 4.129810E-01
-6.000000 -2.000000 4.537230E+00
-6.000000 -4.000000 4.878800E+00
-6.000000 -6.000000 -7.755669E+00
-6.000000 -8.000000 -2.560564E+01
-6.000000 -10.000000 -3.304835E+01
-6.000000 -12.000000 -2.522215E+01
-6.000000 -14.000000 -1.365712E+01
-6.000000 -16.000000 -2.366970E+00
-6.000000 -18.000000 7.206159E+00
-6.000000 -20.000000 1.096072E+01
-6.000000 -22.000000 7.475880E+00
-6.000000 -24.000000 4.422493E-01
-6.000000 -26.000000 -4.143087E+00
-6.000000 -28.000000 -1.836683E+00
-6.000000 -30.000000 -4.075936E+00
-6.000000 -32.000000 -8.420918E+00
-6.000000 -34.000000 -2.293476E+00
-6.000000 -36.000000 1.742553E+01
-6.000000 -38.000000 3.758390E+01
-6.000000 -40.000000 5.358719E+01
-4.000000 40.000000 -5.070307E+01
-4.000000 38.000000 -3.752251E+01
-4.000000 36.000000 -1.224016E+01
-4.000000 34.000000 2.300349E+01
-4.000000 32.000000 4.458456E+01
-4.000000 30.000000 3.686803E+01
-4.000000 28.000000 9.073257E+00
-4.000000 26.000000 -1.327403E+01
-4.000000 24.000000 -2.171579E+01
-4.000000 22.000000 -9.852585E+00
-4.000000 20.000000 1.279522E+00
-4.000000 18.000000 -5.375809E+00
-4.000000 16.000000 -2.645683E+01
-4.000000 14.000000 -5.338818E+01
-4.000000 12.000000 -7.479120E+01
-4.000000 10.000000 -7.840151E+01
-4.000000 8.000000 -5.750126E+01
-4.000000 6.000000 -3.016492E+01
-4.000000 4.000000 -8.971921E+00
-4.000000 2.000000 1.009659E+00
-4.000000 0.000000 7.872829E+00
-4.000000 -2.000000 1.173161E+01
-4.000000 -4.000000 9.577631E+00
-4.000000 -6.000000 -4.532528E+00
-4.000000 -8.000000 -2.079714E+01
-4.000000 -10.000000 -2.487471E+01
-4.000000 -12.000000 -1.368654E+01
-4.000000 -14.000000 -6.081820E-02
-4.000000 -16.000000 1.165849E+01
-4.000000 -18.000000 2.048111E+01
-4.000000 -20.000000 2.370267E+01
-4.000000 -22.000000 2.085571E+01
-4.000000 -24.000000 1.446751E+01
-4.000000 -26.000000 1.020333E+01
-4.000000 -28.000000 1.241772E+01
-4.000000 -30.000000 7.917565E+00
-4.000000 -32.000000 1.300785E+00
-4.000000 -34.000000 3.263966E+00
-4.000000 -36.000000 1.861815E+01
-4.000000 -38.000000 3.721173E+01
-4.000000 -40.000000 5.264465E+01
-2.000000 40.000000 -5.250160E+01
-2.000000 38.000000 -3.536708E+01
-2.000000 36.000000 -5.507306E+00
-2.000000 34.000000 3.167242E+01
-2.000000 32.000000 5.164264E+01
-2.000000 30.000000 4.239808E+01
-2.000000 28.000000 1.340500E+01
-2.000000 26.000000 -1.229174E+01
-2.000000 24.000000 -2.462292E+01
-2.000000 22.000000 -1.887324E+01
-2.000000 20.000000 -1.401587E+01
-2.000000 18.000000 -2.270648E+01
-2.000000 16.000000 -4.378919E+01
-2.000000 14.000000 -7.179372E+01
-2.000000 12.000000 -9.637973E+01
-2.000000 10.000000 -1.050625E+02
-2.000000 8.000000 -8.400484E+01
-2.000000 6.000000 -5.230649E+01
-2.000000 4.000000 -2.199697E+01
-2.000000 2.000000 -5.434508E+00
-2.000000 0.000000 4.705532E+00
-2.000000 -2.000000 9.085253E+00
-2.000000 -4.000000 7.233135E+00
-2.000000 -6.000000 -3.883065E+00
-2.000000 -8.000000 -1.653834E+01
-2.000000 -10.000000 -1.766935E+01
-2.000000 -12.000000 -4.356274E+00
-2.000000 -14.000000 1.110802E+01
-2.000000 -16.000000 2.456558E+01
-2.000000 -18.000000 3.322948E+01
-2.000000 -20.000000 3.572220E+01
-2.000000 -22.000000 3.322815E+01
-2.000000 -24.000000 2.914122E+01
-2.000000 -26.000000 2.715750E+01
-2.000000 -28.000000 2.883550E+01
-2.000000 -30.000000 2.333853E+01
-2.000000 -32.000000 1.405626E+01
-2.000000 -34.000000 1.115488E+01
-2.000000 -36.000000 2.022654E+01
-2.000000 -38.000000 3.427007E+01
-2.000000 -40.000000 4.779364E+01
0.000000 40.000000 -5.259860E+01
0.000000 38.000000 -3.314007E+01
0.000000 36.000000 -1.744962E+00
0.000000 34.000000 3.511066E+01
0.000000 32.000000 5.356178E+01
0.000000 30.000000 4.329194E+01
0.000000 28.000000 1.437560E+01
0.000000 26.000000 -1.078618E+01
0.000000 24.000000 -2.281392E+01
0.000000 22.000000 -1.958357E+01
0.000000 20.000000 -1.594907E+01
0.000000 18.000000 -2.314627E+01
0.000000 16.000000 -4.393050E+01
0.000000 14.000000 -7.380797E+01
0.000000 12.000000 -1.019909E+02
0.000000 10.000000 -1.145378E+02
0.000000 8.000000 -9.776647E+01
0.000000 6.000000 -7.035777E+01
0.000000 4.000000 -3.927634E+01
0.000000 2.000000 -2.028324E+01
0.000000 0.000000 -7.405526E+00
0.000000 -2.000000 8.527012E-01
0.000000 -4.000000 3.585310E+00
0.000000 -6.000000 -3.306721E+00
0.000000 -8.000000 -1.393146E+01
0.000000 -10.000000 -1.459509E+01
0.000000 -12.000000 -8.711290E-01
0.000000 -14.000000 1.681611E+01
0.000000 -16.000000 3.182751E+01
0.000000 -18.000000 3.928139E+01
0.000000 -20.000000 3.874057E+01
0.000000 -22.000000 3.569022E+01
0.000000 -24.000000 3.515367E+01
0.000000 -26.000000 3.813258E+01
0.000000 -28.000000 4.118386E+01
0.000000 -30.000000 3.571128E+01
0.000000 -32.000000 2.547592E+01
0.000000 -34.000000 1.958979E+01
0.000000 -36.000000 2.268749E+01
0.000000 -38.000000 3.067359E+01
0.000000 -40.000000 4.174175E+01
2.000000 40.000000 -5.069445E+01
2.000000 38.000000 -3.206265E+01
2.000000 36.000000 -3.974535E+00
2.000000 34.000000 2.947089E+01
2.000000 32.000000 4.799019E+01
2.000000 30.000000 4.044184E+01
2.000000 28.000000 1.543003E+01
2.000000 26.000000 -7.000121E+00
2.000000 24.000000 -1.779152E+01
2.000000 22.000000 -1.459672E+01
2.000000 20.000000 -8.661105E+00
2.000000 18.000000 -1.198456E+01
2.000000 16.000000 -3.008163E+01
2.000000 14.000000 -5.818156E+01
2.000000 12.000000 -8.585471E+01
2.000000 10.000000 -9.982571E+01
2.000000 8.000000 -9.104026E+01
2.000000 6.000000 -7.419992E+01
2.000000 4.000000 -5.349064E+01
2.000000 2.000000 -3.912633E+01
2.000000 0.000000 -2.564158E+01
2.000000 -2.000000 -1.172108E+01
2.000000 -4.000000 -1.995518E+00
2.000000 -6.000000 -5.185260E+00
2.000000 -8.000000 -1.604370E+01
2.000000 -10.000000 -1.846856E+01
2.000000 -12.000000 -5.751376E+00
2.000000 -14.000000 1.341922E+01
2.000000 -16.000000 2.854649E+01
2.000000 -18.000000 3.328801E+01
2.000000 -20.000000 2.871814E+01
2.000000 -22.000000 2.438055E+01
2.000000 -24.000000 2.740544E+01
2.000000 -26.000000 3.658487E+01
2.000000 -28.000000 4.347334E+01
2.000000 -30.000000 3.947843E+01
2.000000 -32.000000 3.043143E+01
2.000000 -34.000000 2.528609E+01
2.000000 -36.000000 2.597124E+01
2.000000 -38.000000 2.946700E+01
2.000000 -40.000000 3.816743E+01
4.000000 40.000000 -4.707897E+01
4.000000 38.000000 -3.159158E+01
4.000000 36.000000 -9.684340E+00
4.000000 34.000000 1.797760E+01
4.000000 32.000000 3.671947E+01
4.000000 30.000000 3.374513E+01
4.000000 28.000000 1.483807E+01
4.000000 26.000000 -3.619902E+00
4.000000 24.000000 -1.367544E+01
4.000000 22.000000 -9.731087E+00
4.000000 20.000000 -1.385685E+00
4.000000 18.000000 -2.033525E+00
4.000000 16.000000 -1.591494E+01
4.000000 14.000000 -3.720721E+01
4.000000 12.000000 -5.750808E+01
4.000000 10.000000 -6.633788E+01
4.000000 8.000000 -6.260464E+01
4.000000 6.000000 -5.541480E+01
4.000000 4.000000 -5.150424E+01
4.000000 2.000000 -5.012718E+01
4.000000 0.000000 -4.204647E+01
4.000000 -2.000000 -2.619884E+01
4.000000 -4.000000 -1.167172E+01
4.000000 -6.000000 -1.157526E+01
4.000000 -8.000000 -2.160319E+01
4.000000 -10.000000 -2.568469E+01
4.000000 -12.000000 -1.633025E+01
4.000000 -14.000000 -5.851860E-01
4.000000 -16.000000 1.199615E+01
4.000000 -18.000000 1.508953E+01
4.000000 -20.000000 9.332795E+00
4.000000 -22.000000 5.066959E+00
4.000000 -24.000000 1.077363E+01
4.000000 -26.000000 2.329210E+01
4.000000 -28.000000 3.258513E+01
4.000000 -30.000000 3.160867E+01
4.000000 -32.000000 2.656408E+01
4.000000 -34.000000 2.516265E+01
4.000000 -36.000000 2.826097E+01
4.000000 -38.000000 3.165865E+01
4.000000 -40.000000 3.842878E+01
6.000000 40.000000 -4.333809E+01
6.000000 38.000000 -3.226666E+01
6.000000 36.000000 -1.666058E+01
6.000000 34.000000 5.794225E+00
6.000000 32.000000 2.466930E+01
6.000000 30.000000 2.502110E+01
6.000000 28.000000 1.077440E+01
6.000000 26.000000 -4.179604E+00
6.000000 24.000000 -1.324599E+01
6.000000 22.000000 -8.587563E+00
6.000000 20.000000 3.115463E-01
6.000000 18.000000 9.115849E-01
6.000000 16.000000 -8.697323E+00
6.000000 14.000000 -2.270261E+01
6.000000 12.000000 -3.345030E+01
6.000000 10.000000 -3.322106E+01
6.000000 8.000000 -2.809815E+01
6.000000 6.000000 -2.443534E+01
6.000000 4.000000 -3.314710E+01
6.000000 2.000000 -4.583209E+01
6.000000 0.000000 -4.821283E+01
6.000000 -2.000000 -3.629079E+01
6.000000 -4.000000 -2.106364E+01
6.000000 -6.000000 -1.796760E+01
6.000000 -8.000000 -2.650065E+01
6.000000 -10.000000 -3.237449E+01
6.000000 -12.000000 -2.819128E+01
6.000000 -14.000000 -2.030097E+01
6.000000 -16.000000 -1.213839E+01
6.000000 -18.000000 -8.226672E+00
6.000000 -20.000000 -1.127776E+01
6.000000 -22.000000 -1.376672E+01
6.000000 -24.000000 -7.190691E+00
6.000000 -26.000000 5.167817E+00
6.000000 -28.000000 1.459147E+01
6.000000 -30.000000 1.640037E+01
6.000000 -32.000000 1.539492E+01
6.000000 -34.000000 1.859422E+01
6.000000 -36.000000 2.717973E+01
6.000000 -38.000000 3.354375E+01
6.000000 -40.000000 3.975899E+01
8.000000 40.000000 -4.030597E+01
8.000000 38.000000 -3.349649E+01
8.000000 36.000000 -2.318394E+01
8.000000 34.000000 -4.144449E+00
8.000000 32.000000 1.444696E+01
8.000000 30.000000 1.558162E+01
8.000000 28.000000 3.874130E+00
8.000000 26.000000 -7.494392E+00
8.000000 24.000000 -1.440154E+01
8.000000 22.000000 -9.699434E+00
8.000000 20.000000 -3.141405E+00
8.000000 18.000000 -4.762150E+00
8.000000 16.000000 -1.233625E+01
8.000000 14.000000 -2.084372E+01
8.000000 12.000000 -2.344321E+01
8.000000 10.000000 -1.358548E+01
8.000000 8.000000 -2.166685E+00
8.000000 6.000000 4.159513E+00
8.000000 4.000000 -9.402555E+00
8.000000 2.000000 -3.241324E+01
8.000000 0.000000 -4.571819E+01
8.000000 -2.000000 -4.091125E+01
8.000000 -4.000000 -2.629064E+01
8.000000 -6.000000 -1.925607E+01
8.000000 -8.000000 -2.631778E+01
8.000000 -10.000000 -3.457577E+01
8.000000 -12.000000 -3.737591E+01
8.000000 -14.000000 -3.772745E+01
8.000000 -16.000000 -3.268749E+01
8.000000 -18.000000 -2.561824E+01
8.000000 -20.000000 -2.432006E+01
8.000000 -22.000000 -2.542692E+01
8.000000 -24.000000 -2.091438E+01
8.000000 -26.000000 -1.130327E+01
8.000000 -28.000000 -2.436916E+00
8.000000 -30.000000 4.620953E-01
8.000000 -32.000000 6.126347E-01
8.000000 -34.000000 7.513268E+00
8.000000 -36.000000 2.190805E+01
8.000000 -38.000000 3.245062E+01
8.000000 -40.000000 4.037665E+01
10.000000 40.000000 -3.983746E+01
10.000000 38.000000 -3.561804E+01
10.000000 36.000000 -2.854438E+01
10.000000 34.000000 -1.205341E+01
10.000000 32.000000 6.478003E+00
10.000000 30.000000 8.731354E+00
10.000000 28.000000 -9.896374E-01
10.000000 26.000000 -8.648214E+00
10.000000 24.000000 -1.198273E+01
10.000000 22.000000 -7.127869E+00
10.000000 20.000000 -3.595612E+00
10.000000 18.000000 -1.166969E+01
10.000000 16.000000 -2.415174E+01
10.000000 14.000000 -3.358371E+01
10.000000 12.000000 -3.274827E+01
10.000000 10.000000 -1.481668E+01
10.000000 8.000000 6.751999E+00
10.000000 6.000000 1.993082E+01
10.000000 4.000000 8.144350E+00
10.000000 2.000000 -2.020296E+01
10.000000 0.000000 -4.211883E+01
10.000000 -2.000000 -4.516142E+01
10.000000 -4.000000 -3.350093E+01
10.000000 -6.000000 -2.389231E+01
10.000000 -8.000000 -2.648427E+01
10.000000 -10.000000 -3.284039E+01
10.000000 -12.000000 -4.034713E+01
10.000000 -14.000000 -4.432436E+01
10.000000 -16.000000 -3.854955E+01
10.000000 -18.000000 -2.687027E+01
10.000000 -20.000000 -2.192193E+01
10.000000 -22.000000 -2.372055E+01
10.000000 -24.000000 -2.410743E+01
10.000000 -26.000000 -1.948253E+01
10.000000 -28.000000 -1.308107E+01
10.000000 -30.000000 -1.149690E+01
10.000000 -32.000000 -1.193378E+01
10.000000 -34.000000 -3.359566E+00
10.000000 -36.000000 1.376339E+01
10.000000 -38.000000 2.815175E+01
10.000000 -40.000000 3.920378E+01
12.000000 40.000000 -4.215050E+01
12.000000 38.000000 -3.994981E+01
12.000000 36.000000 -3.421937E+01
12.000000 34.000000 -1.957505E+01
12.000000 32.000000 1.413345E-01
12.000000 30.000000 5.973541E+00
12.000000 28.000000 -1.055279E+00
12.000000 26.000000 -6.671387E+00
12.000000 24.000000 -6.213963E+00
12.000000 22.000000 -6.243782E-01
12.000000 20.000000 1.139198E+00
12.000000 18.000000 -1.239780E+01
12.000000 16.000000 -3.284213E+01
12.000000 14.000000 -4.852236E+01
12.000000 12.000000 -5.045370E+01
12.000000 10.000000 -3.141126E+01
12.000000 8.000000 -2.257614E+00
12.000000 6.000000 1.745192E+01
12.000000 4.000000 1.360724E+01
12.000000 2.000000 -1.338757E+01
12.000000 0.000000 -4.166255E+01
12.000000 -2.000000 -5.415845E+01
12.000000 -4.000000 -4.893581E+01
12.000000 -6.000000 -3.992460E+01
12.000000 -8.000000 -3.788251E+01
12.000000 -10.000000 -3.898331E+01
12.000000 -12.000000 -4.325406E+01
12.000000 -14.000000 -4.080025E+01
12.000000 -16.000000 -2.686229E+01
12.000000 -18.000000 -8.638693E+00
12.000000 -20.000000 -1.614537E+00
12.000000 -22.000000 -6.392432E+00
12.000000 -24.000000 -1.301660E+01
12.000000 -26.000000 -1.405502E+01
12.000000 -28.000000 -1.164468E+01
12.000000 -30.000000 -1.293208E+01
12.000000 -32.000000 -1.473694E+01
12.000000 -34.000000 -7.710676E+00
12.000000 -36.000000 6.946386E+00
12.000000 -38.000000 2.113083E+01
12.000000 -40.000000 3.301188E+01
14.000000 40.000000 -4.393155E+01
14.000000 38.000000 -4.500039E+01
14.000000 36.000000 -4.106569E+01
14.000000 34.000000 -2.725948E+01
14.000000 32.000000 -6.019470E+00
14.000000 30.000000 1.988676E+00
14.000000 28.000000 -2.691509E+00
14.000000 26.000000 -5.671465E+00
14.000000 24.000000 -9.439850E-01
14.000000 22.000000 5.607521E+00
14.000000 20.000000 5.847385E+00
14.000000 18.000000 -8.392780E+00
14.000000 16.000000 -3.057148E+01
14.000000 14.000000 -4.988471E+01
14.000000 12.000000 -5.693793E+01
14.000000 10.000000 -4.437606E+01
14.000000 8.000000 -1.641833E+01
14.000000 6.000000 6.960773E+00
14.000000 4.000000 1.181923E+01
14.000000 2.000000 -1.211772E+01
14.000000 0.000000 -4.682462E+01
14.000000 -2.000000 -7.057818E+01
14.000000 -4.000000 -7.402010E+01
14.000000 -6.000000 -6.808448E+01
14.000000 -8.000000 -6.416460E+01
14.000000 -10.000000 -6.031023E+01
14.000000 -12.000000 -5.431115E+01
14.000000 -14.000000 -3.727149E+01
14.000000 -16.000000 -7.280791E+00
14.000000 -18.000000 2.153771E+01
14.000000 -20.000000 3.130313E+01
14.000000 -22.000000 2.365173E+01
14.000000 -24.000000 1.114826E+01
14.000000 -26.000000 4.522043E+00
14.000000 -28.000000 3.496898E+00
14.000000 -30.000000 -4.092617E-01
14.000000 -32.000000 -5.152966E+00
14.000000 -34.000000 -3.271063E+00
14.000000 -36.000000 3.938972E+00
14.000000 -38.000000 1.332322E+01
14.000000 -40.000000 2.208535E+01
16.000000 40.000000 -4.436544E+01
16.000000 38.000000 -4.845502E+01
16.000000 36.000000 -4.647915E+01
16.000000 34.000000 -3.357782E+01
16.000000 32.000000 -1.175474E+01
16.000000 30.000000 -5.136045E+00
16.000000 28.000000 -1.142497E+01
16.000000 26.000000 -1.173735E+01
16.000000 24.000000 -1.022198E+00
16.000000 22.000000 8.456051E+00
16.000000 20.000000 9.885780E+00
16.000000 18.000000 2.401695E-01
16.000000 16.000000 -1.630435E+01
16.000000 14.000000 -3.340324E+01
16.000000 12.000000 -4.432044E+01
16.000000 10.000000 -4.082027E+01
16.000000 8.000000 -2.060790E+01
16.000000 6.000000 2.923378E+00
16.000000 4.000000 1.163632E+01
16.000000 2.000000 -1.253940E+01
16.000000 0.000000 -5.495193E+01
16.000000 -2.000000 -9.169519E+01
16.000000 -4.000000 -1.079790E+02
16.000000 -6.000000 -1.103339E+02
16.000000 -8.000000 -1.062439E+02
16.000000 -10.000000 -9.587593E+01
16.000000 -12.000000 -7.413978E+01
16.000000 -14.000000 -3.813270E+01
16.000000 -16.000000 1.080616E+01
16.000000 -18.000000 5.264211E+01
16.000000 -20.000000 6.759067E+01
16.000000 -22.000000 5.913407E+01
16.000000 -24.000000 4.232844E+01
16.000000 -26.000000 3.106531E+01
16.000000 -28.000000 2.700479E+01
16.000000 -30.000000 2.028822E+01
16.000000 -32.000000 1.129681E+01
16.000000 -34.000000 5.547915E+00
16.000000 -36.000000 3.470600E+00
16.000000 -38.000000 7.401039E+00
16.000000 -40.000000 1.158110E+01
18.000000 40.000000 -4.455879E+01
18.000000 38.000000 -5.041030E+01
18.000000 36.000000 -4.988479E+01
18.000000 34.000000 -3.794210E+01
18.000000 32.000000 -1.623285E+01
18.000000 30.000000 -1.154544E+01
18.000000 28.000000 -2.279501E+01
18.000000 26.000000 -2.427002E+01
18.000000 24.000000 -5.856565E+00
18.000000 22.000000 1.097855E+01
18.000000 20.000000 1.836029E+01
18.000000 18.000000 1.525530E+01
18.000000 16.000000 5.882896E+00
18.000000 14.000000 -6.542639E+00
18.000000 12.000000 -2.118112E+01
18.000000 10.000000 -2.833554E+01
18.000000 8.000000 -1.917720E+01
18.000000 6.000000 1.059837E+00
18.000000 4.000000 1.087984E+01
18.000000 2.000000 -1.270932E+01
18.000000 0.000000 -5.913615E+01
18.000000 -2.000000 -1.063388E+02
18.000000 -4.000000 -1.378825E+02
18.000000 -6.000000 -1.528724E+02
18.000000 -8.000000 -1.520344E+02
18.000000 -10.000000 -1.375234E+02
18.000000 -12.000000 -9.873806E+01
18.000000 -14.000000 -4.475257E+01
18.000000 -16.000000 2.068147E+01
18.000000 -18.000000 7.461503E+01
18.000000 -20.000000 9.587798E+01
18.000000 -22.000000 8.853599E+01
18.000000 -24.000000 7.022145E+01
18.000000 -26.000000 5.613263E+01
18.000000 -28.000000 5.002624E+01
18.000000 -30.000000 4.047682E+01
18.000000 -32.000000 2.655719E+01
18.000000 -34.000000 1.426650E+01
18.000000 -36.000000 5.852652E+00
18.000000 -38.000000 5.917871E+00
18.000000 -40.000000 5.151266E+00
20.000000 40.000000 -4.502944E+01
20.000000 38.000000 -5.252160E+01
20.000000 36.000000 -5.268594E+01
20.000000 34.000000 -3.994019E+01
20.000000 32.000000 -1.761228E+01
20.000000 30.000000 -1.348139E+01
20.000000 28.000000 -2.635902E+01
20.000000 26.000000 -2.966347E+01
20.000000 24.000000 -8.318913E+00
20.000000 22.000000 1.391886E+01
20.000000 20.000000 2.677539E+01
20.000000 18.000000 2.801080E+01
20.000000 16.000000 2.257181E+01
20.000000 14.000000 1.279068E+01
20.000000 12.000000 -5.406166E+00
20.000000 10.000000 -2.144384E+01
20.000000 8.000000 -2.201192E+01
20.000000 6.000000 -5.849924E+00
20.000000 4.000000 5.728901E+00
20.000000 2.000000 -1.340742E+01
20.000000 0.000000 -5.681525E+01
20.000000 -2.000000 -1.084718E+02
20.000000 -4.000000 -1.511962E+02
20.000000 -6.000000 -1.751181E+02
20.000000 -8.000000 -1.773819E+02
20.000000 -10.000000 -1.649797E+02
20.000000 -12.000000 -1.195497E+02
20.000000 -14.000000 -5.628500E+01
20.000000 -16.000000 1.842300E+01
20.000000 -18.000000 7.964209E+01
20.000000 -20.000000 1.056499E+02
20.000000 -22.000000 1.011559E+02
20.000000 -24.000000 8.459008E+01
20.000000 -26.000000 7.095966E+01
20.000000 -28.000000 6.462792E+01
20.000000 -30.000000 5.283687E+01
20.000000 -32.000000 3.486272E+01
20.000000 -34.000000 2.027100E+01
20.000000 -36.000000 1.081494E+01
20.000000 -38.000000 9.331207E+00
20.000000 -40.000000 4.755051E+00
22.000000 40.000000 -4.542127E+01
22.000000 38.000000 -5.478828E+01
22.000000 36.000000 -5.457584E+01
22.000000 34.000000 -3.900179E+01
22.000000 32.000000 -1.402825E+01
22.000000 30.000000 -8.156984E+00
22.000000 28.000000 -1.833802E+01
22.000000 26.000000 -2.267667E+01
22.000000 24.000000 -9.138533E+00
22.000000 22.000000 1.097568E+01
22.000000 20.000000 2.499155E+01
22.000000 18.000000 2.665353E+01
22.000000 16.000000 2.136827E+01
22.000000 14.000000 1.115368E+01
22.000000 12.000000 -8.608402E+00
22.000000 10.000000 -2.731290E+01
22.000000 8.000000 -2.945925E+01
22.000000 6.000000 -1.492764E+01
22.000000 4.000000 -1.612614E+00
22.000000 2.000000 -1.476077E+01
22.000000 0.000000 -5.066327E+01
22.000000 -2.000000 -9.899016E+01
22.000000 -4.000000 -1.409015E+02
22.000000 -6.000000 -1.635150E+02
22.000000 -8.000000 -1.661527E+02
22.000000 -10.000000 -1.586963E+02
22.000000 -12.000000 -1.220185E+02
22.000000 -14.000000 -6.530786E+01
22.000000 -16.000000 5.438688E+00
22.000000 -18.000000 6.506159E+01
22.000000 -20.000000 9.174471E+01
22.000000 -22.000000 9.047561E+01
22.000000 -24.000000 7.785089E+01
22.000000 -26.000000 6.822312E+01
22.000000 -28.000000 6.480831E+01
22.000000 -30.000000 5.252602E+01
22.000000 -32.000000 3.432774E+01
22.000000 -34.000000 2.216882E+01
22.000000 -36.000000 1.664454E+01
22.000000 -38.000000 1.719545E+01
22.000000 -40.000000 1.238516E+01
24.000000 40.000000 -4.440816E+01
24.000000 38.000000 -5.582120E+01
24.000000 36.000000 -5.471685E+01
24.000000 34.000000 -3.595730E+01
24.000000 32.000000 -7.208447E+00
24.000000 30.000000 2.249668E+00
24.000000 28.000000 -6.499277E+00
24.000000 26.000000 -1.533959E+01
24.000000 24.000000 -1.301192E+01
24.000000 22.000000 -7.252808E-01
24.000000 20.000000 9.952011E+00
24.000000 18.000000 9.810501E+00
24.000000 16.000000 4.713074E+00
24.000000 14.000000 -5.105206E+00
24.000000 12.000000 -2.262215E+01
24.000000 10.000000 -3.794369E+01
24.000000 8.000000 -3.621595E+01
24.000000 6.000000 -2.348620E+01
24.000000 4.000000 -1.163903E+01
24.000000 2.000000 -2.019776E+01
24.000000 0.000000 -4.661051E+01
24.000000 -2.000000 -8.246965E+01
24.000000 -4.000000 -1.101502E+02
24.000000 -6.000000 -1.214557E+02
24.000000 -8.000000 -1.220192E+02
24.000000 -10.000000 -1.204301E+02
24.000000 -12.000000 -1.032993E+02
24.000000 -14.000000 -6.480985E+01
24.000000 -16.000000 -9.972485E+00
24.000000 -18.000000 3.913616E+01
24.000000 -20.000000 6.185183E+01
24.000000 -22.000000 6.110155E+01
24.000000 -24.000000 5.001599E+01
24.000000 -26.000000 4.449938E+01
24.000000 -28.000000 4.911810E+01
24.000000 -30.000000 4.178810E+01
24.000000 -32.000000 2.920343E+01
24.000000 -34.000000 2.381670E+01
24.000000 -36.000000 2.524300E+01
24.000000 -38.000000 2.944137E+01
24.000000 -40.000000 2.538429E+01
26.000000 40.000000 -4.222876E+01
26.000000 38.000000 -5.449811E+01
26.000000 36.000000 -5.269960E+01
26.000000 34.000000 -3.208383E+01
26.000000 32.000000 -5.303802E-01
26.000000 30.000000 1.187507E+01
26.000000 28.000000 2.055676E+00
26.000000 26.000000 -1.450858E+01
26.000000 24.000000 -2.325599E+01
26.000000 22.000000 -1.988763E+01
26.000000 20.000000 -1.238987E+01
26.000000 18.000000 -1.156122E+01
26.000000 16.000000 -1.433106E+01
26.000000 14.000000 -2.136111E+01
26.000000 12.000000 -3.283501E+01
26.000000 10.000000 -4.112406E+01
26.000000 8.000000 -3.568998E+01
26.000000 6.000000 -2.734352E+01
26.000000 4.000000 -2.334847E+01
26.000000 2.000000 -3.343091E+01
26.000000 0.000000 -5.199876E+01
26.000000 -2.000000 -7.053681E+01
26.000000 -4.000000 -7.695674E+01
26.000000 -6.000000 -7.144279E+01
26.000000 -8.000000 -6.911576E+01
26.000000 -10.000000 -7.401235E+01
26.000000 -12.000000 -7.753524E+01
26.000000 -14.000000 -5.841870E+01
26.000000 -16.000000 -2.020400E+01
26.000000 -18.000000 1.816856E+01
26.000000 -20.000000 3.636740E+01
26.000000 -22.000000 3.349491E+01
26.000000 -24.000000 1.660393E+01
26.000000 -26.000000 8.565609E+00
26.000000 -28.000000 2.279545E+01
26.000000 -30.000000 2.917698E+01
26.000000 -32.000000 2.924533E+01
26.000000 -34.000000 3.223222E+01
26.000000 -36.000000 3.823503E+01
26.000000 -38.000000 4.214491E+01
26.000000 -40.000000 3.552360E+01
28.000000 40.000000 -3.896485E+01
28.000000 38.000000 -5.119932E+01
28.000000 36.000000 -4.984745E+01
28.000000 34.000000 -2.947943E+01
28.000000 32.000000 3.353834E+00
28.000000 30.000000 1.592624E+01
28.000000 28.000000 1.946985E+00
28.000000 26.000000 -2.272969E+01
28.000000 24.000000 -4.078181E+01
28.000000 22.000000 -4.046422E+01
28.000000 20.000000 -2.962200E+01
28.000000 18.000000 -2.241131E+01
28.000000 16.000000 -2.172984E+01
28.000000 14.000000 -2.528827E+01
28.000000 12.000000 -2.992177E+01
28.000000 10.000000 -2.995345E+01
28.000000 8.000000 -2.176271E+01
28.000000 6.000000 -1.957255E+01
28.000000 4.000000 -3.035480E+01
28.000000 2.000000 -5.164139E+01
28.000000 0.000000 -6.905378E+01
28.000000 -2.000000 -7.339604E+01
28.000000 -4.000000 -6.179008E+01
28.000000 -6.000000 -4.491038E+01
28.000000 -8.000000 -4.169779E+01
28.000000 -10.000000 -4.918024E+01
28.000000 -12.000000 -5.952448E+01
28.000000 -14.000000 -4.902543E+01
28.000000 -16.000000 -1.970531E+01
28.000000 -18.000000 1.342670E+01
28.000000 -20.000000 3.188893E+01
28.000000 -22.000000 2.809120E+01
28.000000 -24.000000 -2.865927E+00
28.000000 -26.000000 -3.086795E+01
28.000000 -28.000000 -6.474318E+00
28.000000 -30.000000 2.351173E+01
28.000000 -32.000000 4.128231E+01
28.000000 -34.000000 5.023591E+01
28.000000 -36.000000 5.413060E+01
28.000000 -38.000000 5.032482E+01
28.000000 -40.000000 3.680327E+01
30.000000 40.000000 -3.492428E+01
30.000000 38.000000 -4.799786E+01
30.000000 36.000000 -4.757500E+01
30.000000 34.000000 -2.806633E+01
30.000000 32.000000 4.451246E+00
30.000000 30.000000 1.370013E+01
30.000000 28.000000 -7.384211E+00
30.000000 26.000000 -3.887251E+01
30.000000 24.000000 -6.292239E+01
30.000000 22.000000 -5.844844E+01
30.000000 20.000000 -3.730304E+01
30.000000 18.000000 -1.973640E+01
30.000000 16.000000 -1.372196E+01
30.000000 14.000000 -1.166214E+01
30.000000 12.000000 -8.893244E+00
30.000000 10.000000 -1.255466E+00
30.000000 8.000000 4.773640E+00
30.000000 6.000000 -3.534527E+00
30.000000 4.000000 -3.347829E+01
30.000000 2.000000 -7.000201E+01
30.000000 0.000000 -9.126338E+01
30.000000 -2.000000 -8.733481E+01
30.000000 -4.000000 -6.675170E+01
30.000000 -6.000000 -4.857680E+01
30.000000 -8.000000 -4.708719E+01
30.000000 -10.000000 -5.285785E+01
30.000000 -12.000000 -5.437996E+01
30.000000 -14.000000 -3.976187E+01
30.000000 -16.000000 -1.159473E+01
30.000000 -18.000000 2.025230E+01
30.000000 -20.000000 4.205347E+01
30.000000 -22.000000 4.137662E+01
30.000000 -24.000000 -1.787954E+00
30.000000 -26.000000 -5.542692E+01
30.000000 -28.000000 -2.207322E+01
30.000000 -30.000000 2.702744E+01
30.000000 -32.000000 5.623162E+01
30.000000 -34.000000 6.674558E+01
30.000000 -36.000000 6.477777E+01
30.000000 -38.000000 5.204952E+01
30.000000 -40.000000 3.190658E+01
32.000000 40.000000 -3.118477E+01
32.000000 38.000000 -4.534043E+01
32.000000 36.000000 -4.493056E+01
32.000000 34.000000 -2.635959E+01
32.000000 32.000000 3.379448E+00
32.000000 30.000000 6.952570E+00
32.000000 28.000000 -2.085555E+01
32.000000 26.000000 -5.524486E+01
32.000000 24.000000 -8.175636E+01
32.000000 22.000000 -7.232603E+01
32.000000 20.000000 -4.199382E+01
32.000000 18.000000 -1.416054E+01
32.000000 16.000000 1.971054E-01
32.000000 14.000000 1.078558E+01
32.000000 12.000000 2.210874E+01
32.000000 10.000000 3.587073E+01
32.000000 8.000000 3.399884E+01
32.000000 6.000000 1.146312E+01
32.000000 4.000000 -3.806967E+01
32.000000 2.000000 -8.619788E+01
32.000000 0.000000 -1.086929E+02
32.000000 -2.000000 -9.758577E+01
32.000000 -4.000000 -7.183462E+01
32.000000 -6.000000 -5.743108E+01
32.000000 -8.000000 -6.184727E+01
32.000000 -10.000000 -6.905345E+01
32.000000 -12.000000 -6.119788E+01
32.000000 -14.000000 -3.917345E+01
32.000000 -16.000000 -8.416301E+00
32.000000 -18.000000 2.328516E+01
32.000000 -20.000000 4.628779E+01
32.000000 -22.000000 4.921677E+01
32.000000 -24.000000 1.265979E+01
32.000000 -26.000000 -3.258156E+01
32.000000 -28.000000 -5.809100E+00
32.000000 -30.000000 3.516204E+01
32.000000 -32.000000 5.959626E+01
32.000000 -34.000000 6.730464E+01
32.000000 -36.000000 6.105362E+01
32.000000 -38.000000 4.663254E+01
32.000000 -40.000000 2.612453E+01
34.000000 40.000000 -2.855191E+01
34.000000 38.000000 -4.290625E+01
34.000000 36.000000 -4.200910E+01
34.000000 34.000000 -2.429877E+01
34.000000 32.000000 2.320515E+00
34.000000 30.000000 1.811083E+00
34.000000 28.000000 -2.956423E+01
34.000000 26.000000 -6.467816E+01
34.000000 24.000000 -9.162697E+01
34.000000 22.000000 -8.091810E+01
34.000000 20.000000 -4.810969E+01
34.000000 18.000000 -1.496001E+01
34.000000 16.000000 6.823490E+00
34.000000 14.000000 2.509731E+01
34.000000 12.000000 4.291936E+01
34.000000 10.000000 6.050500E+01
34.000000 8.000000 5.207076E+01
34.000000 6.000000 1.850589E+01
34.000000 4.000000 -4.336229E+01
34.000000 2.000000 -9.339784E+01
34.000000 0.000000 -1.088958E+02
34.000000 -2.000000 -8.881234E+01
34.000000 -4.000000 -5.930758E+01
34.000000 -6.000000 -5.218408E+01
34.000000 -8.000000 -6.716193E+01
34.000000 -10.000000 -8.055485E+01
34.000000 -12.000000 -7.110678E+01
34.000000 -14.000000 -4.696354E+01
34.000000 -16.000000 -1.591537E+01
34.000000 -18.000000 1.437961E+01
34.000000 -20.000000 3.723120E+01
34.000000 -22.000000 4.578973E+01
34.000000 -24.000000 2.941082E+01
34.000000 -26.000000 1.102256E+01
34.000000 -28.000000 2.422126E+01
34.000000 -30.000000 4.259165E+01
34.000000 -32.000000 5.344388E+01
34.000000 -34.000000 5.695887E+01
34.000000 -36.000000 4.956208E+01
34.000000 -38.000000 3.729844E+01
34.000000 -40.000000 1.966820E+01
36.000000 40.000000 -2.799878E+01
36.000000 38.000000 -4.155536E+01
36.000000 36.000000 -4.006758E+01
36.000000 34.000000 -2.186841E+01
36.000000 32.000000 3.812441E+00
36.000000 30.000000 2.638338E+00
36.000000 28.000000 -2.792534E+01
36.000000 26.000000 -6.321112E+01
36.000000 24.000000 -8.903975E+01
36.000000 22.000000 -8.046601E+01
36.000000 20.000000 -5.353449E+01
36.000000 18.000000 -2.416055E+01
36.000000 16.000000 -1.475983E+00
36.000000 14.000000 1.968360E+01
36.000000 12.000000 4.022114E+01
36.000000 10.000000 5.936736E+01
36.000000 8.000000 5.044791E+01
36.000000 6.000000 1.413365E+01
36.000000 4.000000 -4.544143E+01
36.000000 2.000000 -8.485633E+01
36.000000 0.000000 -8.702901E+01
36.000000 -2.000000 -5.906898E+01
36.000000 -4.000000 -2.916010E+01
36.000000 -6.000000 -2.985743E+01
36.000000 -8.000000 -5.750396E+01
36.000000 -10.000000 -8.156905E+01
36.000000 -12.000000 -7.825107E+01
36.000000 -14.000000 -5.877738E+01
36.000000 -16.000000 -3.162951E+01
36.000000 -18.000000 -3.829260E+00
36.000000 -20.000000 1.973402E+01
36.000000 -22.000000 3.507650E+01
36.000000 -24.000000 3.888128E+01
36.000000 -26.000000 3.792064E+01
36.000000 -28.000000 4.423899E+01
36.000000 -30.000000 4.708501E+01
36.000000 -32.000000 4.573736E+01
36.000000 -34.000000 4.561345E+01
36.000000 -36.000000 3.913191E+01
36.000000 -38.000000 2.807769E+01
36.000000 -40.000000 1.216078E+01
38.000000 40.000000 -3.011783E+01
38.000000 38.000000 -4.192030E+01
38.000000 36.000000 -3.863440E+01
38.000000 34.000000 -1.875028E+01
38.000000 32.000000 7.207415E+00
38.000000 30.000000 6.691545E+00
38.000000 28.000000 -1.901091E+01
38.000000 26.000000 -4.874763E+01
38.000000 24.000000 -6.925163E+01
38.000000 22.000000 -6.630432E+01
38.000000 20.000000 -5.220539E+01
38.000000 18.000000 -3.630238E+01
38.000000 16.000000 -2.226522E+01
38.000000 14.000000 -6.505947E+00
38.000000 12.000000 1.363391E+01
38.000000 10.000000 3.231079E+01
38.000000 8.000000 2.766126E+01
38.000000 6.000000 8.999634E-02
38.000000 4.000000 -4.127362E+01
38.000000 2.000000 -6.305902E+01
38.000000 0.000000 -5.295271E+01
38.000000 -2.000000 -2.223282E+01
38.000000 -4.000000 4.999285E+00
38.000000 -6.000000 -7.484608E-01
38.000000 -8.000000 -3.706771E+01
38.000000 -10.000000 -7.076610E+01
38.000000 -12.000000 -7.779164E+01
38.000000 -14.000000 -6.839478E+01
38.000000 -16.000000 -4.935460E+01
38.000000 -18.000000 -2.616239E+01
38.000000 -20.000000 -2.291777E+00
38.000000 -22.000000 1.840364E+01
38.000000 -24.000000 3.624510E+01
38.000000 -26.000000 4.602017E+01
38.000000 -28.000000 5.012784E+01
38.000000 -30.000000 4.581001E+01
38.000000 -32.000000 3.734538E+01
38.000000 -34.000000 3.467302E+01
38.000000 -36.000000 2.951228E+01
38.000000 -38.000000 2.060060E+01
38.000000 -40.000000 6.334214E+00
40.000000 40.000000 -3.366455E+01
40.000000 38.000000 -4.343150E+01
40.000000 36.000000 -3.766570E+01
40.000000 34.000000 -1.642723E+01
40.000000 32.000000 1.066755E+01
40.000000 30.000000 1.252366E+01
40.000000 28.000000 -7.253433E+00
40.000000 26.000000 -2.876752E+01
40.000000 24.000000 -4.226056E+01
40.000000 22.000000 -4.451446E+01
40.000000 20.000000 -4.201270E+01
40.000000 18.000000 -4.230536E+01
40.000000 16.000000 -4.207622E+01
40.000000 14.000000 -3.761466E+01
40.000000 12.000000 -2.185937E+01
40.000000 10.000000 -4.974930E+00
40.000000 8.000000 -2.277988E+00
40.000000 6.000000 -1.643544E+01
40.000000 4.000000 -3.673272E+01
40.000000 2.000000 -4.256641E+01
40.000000 0.000000 -2.478719E+01
40.000000 -2.000000 5.716257E+00
40.000000 -4.000000 2.880769E+01
40.000000 -6.000000 1.983756E+01
40.000000 -8.000000 -1.537126E+01
40.000000 -10.000000 -4.860010E+01
40.000000 -12.000000 -6.385777E+01
40.000000 -14.000000 -6.722015E+01
40.000000 -16.000000 -6.180376E+01
40.000000 -18.000000 -4.812758E+01
40.000000 -20.000000 -2.779696E+01
40.000000 -22.000000 -4.299621E+00
40.000000 -24.000000 2.235252E+01
40.000000 -26.000000 4.043865E+01
40.000000 -28.000000 4.528077E+01
40.000000 -30.000000 3.868514E+01
40.000000 -32.000000 2.771901E+01
40.000000 -34.000000 2.472623E+01
40.000000 -36.000000 2.134816E+01
40.000000 -38.000000 1.541012E+01
40.000000 -40.000000 2.972414E+00
42.000000 40.000000 -3.607062E+01
42.000000 38.000000 -4.581868E+01
42.000000 36.000000 -4.024340E+01
42.000000 34.000000 -1.846918E+01
42.000000 32.000000 1.220839E+01
42.000000 30.000000 1.992003E+01
42.000000 28.000000 5.477980E+00
42.000000 26.000000 -1.270415E+01
42.000000 24.000000 -2.255279E+01
42.000000 22.000000 -2.615097E+01
42.000000 20.000000 -2.782074E+01
42.000000 18.000000 -3.683284E+01
42.000000 16.000000 -4.426311E+01
42.000000 14.000000 -4.607607E+01
42.000000 12.000000 -3.749186E+01
42.000000 10.000000 -2.814104E+01
42.000000 8.000000 -2.455793E+01
42.000000 6.000000 -3.151375E+01
42.000000 4.000000 -4.038555E+01
42.000000 2.000000 -3.718765E+01
42.000000 0.000000 -1.557880E+01
42.000000 -2.000000 1.419096E+01
42.000000 -4.000000 3.416951E+01
42.000000 -6.000000 2.601219E+01
42.000000 -8.000000 -1.468893E+00
42.000000 -10.000000 -2.683406E+01
42.000000 -12.000000 -4.435116E+01
42.000000 -14.000000 -5.743161E+01
42.000000 -16.000000 -6.644740E+01
42.000000 -18.000000 -6.530683E+01
42.000000 -20.000000 -5.179630E+01
42.000000 -22.000000 -2.801026E+01
42.000000 -24.000000 3.738291E+00
42.000000 -26.000000 2.747523E+01
42.000000 -28.000000 3.477086E+01
42.000000 -30.000000 2.808138E+01
42.000000 -32.000000 1.644316E+01
42.000000 -34.000000 1.582428E+01
42.000000 -36.000000 1.600473E+01
42.000000 -38.000000 1.225442E+01
42.000000 -40.000000 9.827499E-01
44.000000 40.000000 -3.648695E+01
44.000000 38.000000 -4.944503E+01
44.000000 36.000000 -4.700293E+01
44.000000 34.000000 -2.371322E+01
44.000000 32.000000 1.249888E+01
44.000000 30.000000 2.630397E+01
44.000000 28.000000 1.534211E+01
44.000000 26.000000 -3.109386E+00
