-30.000000 36.000000 -2.082747E+01
-30.000000 34.000000 -2.284245E+01
-30.000000 32.000000 -2.277236E+01
-30.000000 30.000000 -1.864766E+01
-30.000000 28.000000 -1.058123E+01
-30.000000 26.000000 -5.091240E+00
-30.000000 24.000000 -1.126938E+01
-30.000000 22.000000 -1.562885E+01
-30.000000 20.000000 -1.319179E+01
-30.000000 18.000000 -3.454044E+00
-30.000000 16.000000 8.526229E+00
-30.000000 14.000000 2.184196E+01
-30.000000 12.000000 2.522467E+01
-30.000000 10.000000 1.295956E+01
-30.000000 8.000000 -5.453091E+00
-30.000000 6.000000 -1.619917E+01
-30.000000 4.000000 -1.516837E+01
-30.000000 2.000000 -9.151679E+00
-30.000000 0.000000 6.964352E-01
-30.000000 -2.000000 1.205566E+01
-30.000000 -4.000000 2.167047E+01
-30.000000 -6.000000 1.817608E+01
-30.000000 -8.000000 8.163265E+00
-30.000000 -10.000000 4.187983E+00
-30.000000 -12.000000 7.855193E+00
-30.000000 -14.000000 1.240090E+01
-30.000000 -16.000000 1.471508E+01
-30.000000 -18.000000 1.332546E+01
-30.000000 -20.000000 9.418198E+00
-30.000000 -22.000000 1.866722E+00
-30.000000 -24.000000 -8.019450E+00
-30.000000 -26.000000 -1.556583E+01
-30.000000 -28.000000 -1.462402E+01
-30.000000 -30.000000 -1.214154E+01
-30.000000 -32.000000 -6.803922E+00
-30.000000 -34.000000 2.166585E+00
-30.000000 -36.000000 1.262805E+01
-30.000000 -38.000000 2.037580E+01
-30.000000 -40.000000 2.670096E+01
-28.000000 40.000000 -1.456703E+01
-28.000000 38.000000 -1.770627E+01
-28.000000 36.000000 -2.272733E+01
-28.000000 34.000000 -2.411888E+01
-28.000000 32.000000 -2.398997E+01
-28.000000 30.000000 -1.864601E+01
-28.000000 28.000000 -9.291019E+00
-28.000000 26.000000 -4.339101E+00
-28.000000 24.000000 -1.223625E+01
-28.000000 22.000000 -1.773539E+01
-28.000000 20.000000 -1.471116E+01
-28.000000 18.000000 -6.788127E+00
-28.000000 16.000000 5.133847E+00
-28.000000 14.000000 2.055105E+01
-28.000000 12.000000 2.431007E+01
-28.000000 10.000000 8.712017E+00
-28.000000 8.000000 -1.186417E+01
-28.000000 6.000000 -2.237428E+01
-28.000000 4.000000 -1.958405E+01
-28.000000 2.000000 -1.450727E+01
-28.000000 0.000000 -6.375727E+00
-28.000000 -2.000000 3.630667E+00
-28.000000 -4.000000 1.438176E+01
-28.000000 -6.000000 1.434130E+01
-28.000000 -8.000000 6.822637E+00
-28.000000 -10.000000 4.696714E+00
-28.000000 -12.000000 5.877718E+00
-28.000000 -14.000000 6.746662E+00
-28.000000 -16.000000 6.280136E+00
-28.000000 -18.000000 5.153608E+00
-28.000000 -20.000000 4.134564E+00
-28.000000 -22.000000 3.348222E-01
-28.000000 -24.000000 -4.934862E+00
-28.000000 -26.000000 -9.547543E+00
-28.000000 -28.000000 -8.923985E+00
-28.000000 -30.000000 -7.749913E+00
-28.000000 -32.000000 -4.518680E+00
-28.000000 -34.000000 3.193529E+00
-28.000000 -36.000000 1.293699E+01
-28.000000 -38.000000 2.040434E+01
-28.000000 -40.000000 2.807937E+01
-26.000000 40.000000 -1.534527E+01
-26.000000 38.000000 -1.838810E+01
-26.000000 36.000000 -2.221068E+01
-26.000000 34.000000 -2.221569E+01
-26.000000 32.000000 -2.148757E+01
-26.000000 30.000000 -1.487300E+01
-26.000000 28.000000 -7.008424E+00
-26.000000 26.000000 -4.346674E+00
-26.000000 24.000000 -1.229000E+01
-26.000000 22.000000 -1.895812E+01
-26.000000 20.000000 -1.794072E+01
-26.000000 18.000000 -1.294042E+01
-26.000000 16.000000 4.233131E-01
-26.000000 14.000000 1.627426E+01
-26.000000 12.000000 1.931684E+01
-26.000000 10.000000 2.574553E+00
-26.000000 8.000000 -1.978590E+01
-26.000000 6.000000 -2.998770E+01
-26.000000 4.000000 -2.666662E+01
-26.000000 2.000000 -2.356439E+01
-26.000000 0.000000 -1.829726E+01
-26.000000 -2.000000 -7.731421E+00
-26.000000 -4.000000 5.588446E+00
-26.000000 -6.000000 8.039487E+00
-26.000000 -8.000000 3.553773E+00
-26.000000 -10.000000 3.795984E+00
-26.000000 -12.000000 4.512835E+00
-26.000000 -14.000000 3.425890E+00
-26.000000 -16.000000 1.266135E-01
-26.000000 -18.000000 -1.887475E+00
-26.000000 -20.000000 -1.630399E-01
-26.000000 -22.000000 3.935730E-01
-26.000000 -24.000000 -1.079741E-01
-26.000000 -26.000000 -4.340363E-02
-26.000000 -28.000000 -9.946942E-01
-26.000000 -30.000000 -7.944870E-01
-26.000000 -32.000000 -8.292198E-03
-26.000000 -34.000000 5.605058E+00
-26.000000 -36.000000 1.381064E+01
-26.000000 -38.000000 2.072343E+01
-26.000000 -40.000000 2.915680E+01
-24.000000 40.000000 -1.624885E+01
-24.000000 38.000000 -1.742434E+01
-24.000000 36.000000 -1.934043E+01
-24.000000 34.000000 -1.785444E+01
-24.000000 32.000000 -1.574685E+01
-24.000000 30.000000 -9.083100E+00
-24.000000 28.000000 -2.301893E+00
-24.000000 26.000000 -8.571148E-01
-24.000000 24.000000 -1.093491E+01
-24.000000 22.000000 -1.778007E+01
-24.000000 20.000000 -2.424799E+01
-24.000000 18.000000 -2.500194E+01
-24.000000 16.000000 -1.058500E+01
-24.000000 14.000000 5.628435E+00
-24.000000 12.000000 8.739956E+00
-24.000000 10.000000 -7.669829E+00
-24.000000 8.000000 -2.972785E+01
-24.000000 6.000000 -3.954905E+01
-24.000000 4.000000 -3.559142E+01
-24.000000 2.000000 -3.237328E+01
-24.000000 0.000000 -2.945380E+01
-24.000000 -2.000000 -2.178716E+01
-24.000000 -4.000000 -9.811792E+00
-24.000000 -6.000000 -4.038781E+00
-24.000000 -8.000000 -3.602922E+00
-24.000000 -10.000000 -4.927492E-02
-24.000000 -12.000000 3.315854E+00
-24.000000 -14.000000 4.703530E+00
-24.000000 -16.000000 2.803544E+00
-24.000000 -18.000000 5.971171E-01
-24.000000 -20.000000 1.866373E+00
-24.000000 -22.000000 4.256153E+00
-24.000000 -24.000000 9.130278E+00
-24.000000 -26.000000 1.112530E+01
-24.000000 -28.000000 9.941288E+00
-24.000000 -30.000000 1.104759E+01
-24.000000 -32.000000 1.086462E+01
-24.000000 -34.000000 1.360827E+01
-24.000000 -36.000000 1.791961E+01
-24.000000 -38.000000 2.221945E+01
-24.000000 -40.000000 2.827568E+01
-22.000000 40.000000 -1.301772E+01
-22.000000 38.000000 -1.315552E+01
-22.000000 36.000000 -1.500656E+01
-22.000000 34.000000 -1.342533E+01
-22.000000 32.000000 -1.121969E+01
-22.000000 30.000000 -4.917801E+00
-22.000000 28.000000 1.878078E+00
-22.000000 26.000000 3.022503E+00
-22.000000 24.000000 -1.089626E+01
-22.000000 22.000000 -2.207509E+01
-22.000000 20.000000 -3.697555E+01
-22.000000 18.000000 -4.225689E+01
-22.000000 16.000000 -2.821242E+01
-22.000000 14.000000 -1.067509E+01
-22.000000 12.000000 -4.732830E+00
-22.000000 10.000000 -1.777918E+01
-22.000000 8.000000 -3.670063E+01
-22.000000 6.000000 -4.484131E+01
-22.000000 4.000000 -3.817929E+01
-22.000000 2.000000 -3.197095E+01
-22.000000 0.000000 -3.014183E+01
-22.000000 -2.000000 -2.825585E+01
-22.000000 -4.000000 -2.137474E+01
-22.000000 -6.000000 -1.331509E+01
-22.000000 -8.000000 -1.064238E+01
-22.000000 -10.000000 -6.203652E+00
-22.000000 -12.000000 5.804882E-01
-22.000000 -14.000000 6.549141E+00
-22.000000 -16.000000 1.065915E+01
-22.000000 -18.000000 1.165412E+01
-22.000000 -20.000000 1.007958E+01
-22.000000 -22.000000 8.618707E+00
-22.000000 -24.000000 1.236778E+01
-22.000000 -26.000000 1.649005E+01
-22.000000 -28.000000 1.730363E+01
-22.000000 -30.000000 2.103620E+01
-22.000000 -32.000000 2.275011E+01
-22.000000 -34.000000 2.423379E+01
-22.000000 -36.000000 2.471753E+01
-22.000000 -38.000000 2.373301E+01
-22.000000 -40.000000 2.577236E+01
-20.000000 40.000000 -7.925535E+00
-20.000000 38.000000 -7.213162E+00
-20.000000 36.000000 -8.668678E+00
-20.000000 34.000000 -8.144471E+00
-20.000000 32.000000 -8.160843E+00
-20.000000 30.000000 -2.566065E+00
-20.000000 28.000000 4.175575E+00
-20.000000 26.000000 3.867989E+00
-20.000000 24.000000 -1.253351E+01
-20.000000 22.000000 -3.115942E+01
-20.000000 20.000000 -4.700720E+01
-20.000000 18.000000 -5.222709E+01
-20.000000 16.000000 -4.505974E+01
-20.000000 14.000000 -3.357290E+01
-20.000000 12.000000 -2.661714E+01
-20.000000 10.000000 -2.974106E+01
-20.000000 8.000000 -3.661100E+01
-20.000000 6.000000 -3.526465E+01
-20.000000 4.000000 -2.517916E+01
-20.000000 2.000000 -2.081573E+01
-20.000000 0.000000 -2.313028E+01
-20.000000 -2.000000 -2.541028E+01
-20.000000 -4.000000 -2.241167E+01
-20.000000 -6.000000 -1.603320E+01
-20.000000 -8.000000 -1.484401E+01
-20.000000 -10.000000 -1.223963E+01
-20.000000 -12.000000 -4.865499E+00
-20.000000 -14.000000 4.601544E+00
-20.000000 -16.000000 1.559517E+01
-20.000000 -18.000000 2.123700E+01
-20.000000 -20.000000 1.652443E+01
-20.000000 -22.000000 8.751826E+00
-20.000000 -24.000000 8.190385E+00
-20.000000 -26.000000 1.305907E+01
-20.000000 -28.000000 1.797251E+01
-20.000000 -30.000000 2.536146E+01
-20.000000 -32.000000 2.914324E+01
-20.000000 -34.000000 3.063476E+01
-20.000000 -36.000000 2.870413E+01
-20.000000 -38.000000 2.530879E+01
-20.000000 -40.000000 2.573995E+01
-18.000000 40.000000 -4.923484E+00
-18.000000 38.000000 -1.262197E+00
-18.000000 36.000000 -1.655462E+00
-18.000000 34.000000 -3.961138E+00
-18.000000 32.000000 -7.575192E+00
-18.000000 30.000000 -3.277088E+00
-18.000000 28.000000 4.660774E+00
-18.000000 26.000000 5.853168E+00
-18.000000 24.000000 -9.194189E+00
-18.000000 22.000000 -2.827008E+01
-18.000000 20.000000 -4.101497E+01
-18.000000 18.000000 -4.682087E+01
-18.000000 16.000000 -5.040548E+01
-18.000000 14.000000 -5.214168E+01
-18.000000 12.000000 -5.043437E+01
-18.000000 10.000000 -4.488685E+01
-18.000000 8.000000 -3.446075E+01
-18.000000 6.000000 -1.895679E+01
-18.000000 4.000000 -6.477280E+00
-18.000000 2.000000 -8.334856E+00
-18.000000 0.000000 -1.666728E+01
-18.000000 -2.000000 -2.062962E+01
-18.000000 -4.000000 -1.845354E+01
-18.000000 -6.000000 -1.638384E+01
-18.000000 -8.000000 -1.838733E+01
-18.000000 -10.000000 -1.936296E+01
-18.000000 -12.000000 -1.408597E+01
-18.000000 -14.000000 -1.151656E+00
-18.000000 -16.000000 1.592277E+01
-18.000000 -18.000000 2.485693E+01
-18.000000 -20.000000 1.757019E+01
-18.000000 -22.000000 4.688017E+00
-18.000000 -24.000000 4.861548E-01
-18.000000 -26.000000 5.442715E+00
-18.000000 -28.000000 1.295284E+01
-18.000000 -30.000000 2.253500E+01
-18.000000 -32.000000 2.807034E+01
-18.000000 -34.000000 2.969856E+01
-18.000000 -36.000000 2.749234E+01
-18.000000 -38.000000 2.515232E+01
-18.000000 -40.000000 2.718378E+01
-16.000000 40.000000 -5.295932E+00
-16.000000 38.000000 2.355364E+00
-16.000000 36.000000 2.577602E+00
-16.000000 34.000000 -2.986771E+00
-16.000000 32.000000 -9.123100E+00
-16.000000 30.000000 -4.811262E+00
-16.000000 28.000000 6.914135E+00
-16.000000 26.000000 1.430610E+01
-16.000000 24.000000 4.769035E+00
-16.000000 22.000000 -1.111106E+01
-16.000000 20.000000 -2.014797E+01
-16.000000 18.000000 -2.753401E+01
-16.000000 16.000000 -4.484083E+01
-16.000000 14.000000 -6.315731E+01
-16.000000 12.000000 -7.184020E+01
-16.000000 10.000000 -6.290131E+01
-16.000000 8.000000 -3.784869E+01
-16.000000 6.000000 -8.545385E+00
-16.000000 4.000000 7.813013E+00
-16.000000 2.000000 1.539600E+00
-16.000000 0.000000 -1.135952E+01
-16.000000 -2.000000 -1.686385E+01
-16.000000 -4.000000 -1.473601E+01
-16.000000 -6.000000 -1.561427E+01
-16.000000 -8.000000 -2.084044E+01
-16.000000 -10.000000 -2.582479E+01
-16.000000 -12.000000 -2.359437E+01
-16.000000 -14.000000 -1.070192E+01
-16.000000 -16.000000 7.842156E+00
-16.000000 -18.000000 1.820909E+01
-16.000000 -20.000000 1.195999E+01
-16.000000 -22.000000 -1.696267E+00
-16.000000 -24.000000 -6.922307E+00
-16.000000 -26.000000 -1.861643E+00
-16.000000 -28.000000 5.145905E+00
-16.000000 -30.000000 1.405949E+01
-16.000000 -32.000000 2.078383E+01
-16.000000 -34.000000 2.308877E+01
-16.000000 -36.000000 2.263651E+01
-16.000000 -38.000000 2.284676E+01
-16.000000 -40.000000 2.745345E+01
-14.000000 40.000000 -9.241402E+00
-14.000000 38.000000 7.002125E-01
-14.000000 36.000000 2.156343E+00
-14.000000 34.000000 -3.405386E+00
-14.000000 32.000000 -8.046575E+00
-14.000000 30.000000 -6.507683E-01
-14.000000 28.000000 1.489291E+01
-14.000000 26.000000 2.664437E+01
-14.000000 24.000000 2.226839E+01
-14.000000 22.000000 9.211718E+00
-14.000000 20.000000 3.664074E+00
-14.000000 18.000000 -5.847977E+00
-14.000000 16.000000 -3.678619E+01
-14.000000 14.000000 -7.253290E+01
-14.000000 12.000000 -9.523051E+01
-14.000000 10.000000 -8.822404E+01
-14.000000 8.000000 -5.026750E+01
-14.000000 6.000000 -5.939838E+00
-14.000000 4.000000 1.806372E+01
-14.000000 2.000000 1.032424E+01
-14.000000 0.000000 -4.572590E+00
-14.000000 -2.000000 -1.186217E+01
-14.000000 -4.000000 -1.042442E+01
-14.000000 -6.000000 -1.237043E+01
-14.000000 -8.000000 -2.051260E+01
-14.000000 -10.000000 -2.902058E+01
-14.000000 -12.000000 -3.003335E+01
-14.000000 -14.000000 -2.098582E+01
-14.000000 -16.000000 -5.281515E+00
-14.000000 -18.000000 4.982005E+00
-14.000000 -20.000000 1.626372E+00
-14.000000 -22.000000 -9.919703E+00
-14.000000 -24.000000 -1.444182E+01
-14.000000 -26.000000 -1.025221E+01
-14.000000 -28.000000 -4.216776E+00
-14.000000 -30.000000 3.988378E+00
-14.000000 -32.000000 9.834511E+00
-14.000000 -34.000000 1.319691E+01
-14.000000 -36.000000 1.553183E+01
-14.000000 -38.000000 1.901225E+01
-14.000000 -40.000000 2.659085E+01
-12.000000 40.000000 -1.456321E+01
-12.000000 38.000000 -5.782732E+00
-12.000000 36.000000 -3.316303E+00
-12.000000 34.000000 -5.687725E+00
-12.000000 32.000000 -5.814896E+00
-12.000000 30.000000 6.397964E+00
-12.000000 28.000000 2.572146E+01
-12.000000 26.000000 3.858093E+01
-12.000000 24.000000 3.667766E+01
-12.000000 22.000000 2.387079E+01
-12.000000 20.000000 1.884761E+01
-12.000000 18.000000 6.683079E+00
-12.000000 16.000000 -3.267275E+01
-12.000000 14.000000 -8.104189E+01
-12.000000 12.000000 -1.143650E+02
-12.000000 10.000000 -1.130339E+02
-12.000000 8.000000 -6.730405E+01
-12.000000 6.000000 -1.126513E+01
-12.000000 4.000000 2.162413E+01
-12.000000 2.000000 1.585220E+01
-12.000000 0.000000 -6.898975E-01
-12.000000 -2.000000 -9.394590E+00
-12.000000 -4.000000 -8.813070E+00
-12.000000 -6.000000 -1.100551E+01
-12.000000 -8.000000 -1.929323E+01
-12.000000 -10.000000 -2.693458E+01
-12.000000 -12.000000 -3.046705E+01
-12.000000 -14.000000 -2.664180E+01
-12.000000 -16.000000 -1.589246E+01
-12.000000 -18.000000 -7.174994E+00
-12.000000 -20.000000 -7.963654E+00
-12.000000 -22.000000 -1.784536E+01
-12.000000 -24.000000 -2.253502E+01
-12.000000 -26.000000 -1.988191E+01
-12.000000 -28.000000 -1.416217E+01
-12.000000 -30.000000 -5.213680E+00
-12.000000 -32.000000 -2.490219E-01
-12.000000 -34.000000 3.997636E+00
-12.000000 -36.000000 7.452672E+00
-12.000000 -38.000000 1.341995E+01
-12.000000 -40.000000 2.469966E+01
-10.000000 40.000000 -1.957719E+01
-10.000000 38.000000 -1.412940E+01
-10.000000 36.000000 -1.185282E+01
-10.000000 34.000000 -1.026691E+01
-10.000000 32.000000 -6.254816E+00
-10.000000 30.000000 1.002741E+01
-10.000000 28.000000 3.258785E+01
-10.000000 26.000000 4.524537E+01
-10.000000 24.000000 4.252942E+01
-10.000000 22.000000 2.604433E+01
-10.000000 20.000000 1.805852E+01
-10.000000 18.000000 5.425457E+00
-10.000000 16.000000 -3.246195E+01
-10.000000 14.000000 -8.085034E+01
-10.000000 12.000000 -1.154855E+02
-10.000000 10.000000 -1.208045E+02
-10.000000 8.000000 -7.971746E+01
-10.000000 6.000000 -2.206323E+01
-10.000000 4.000000 1.540457E+01
-10.000000 2.000000 1.121168E+01
-10.000000 0.000000 -8.611629E+00
-10.000000 -2.000000 -1.672943E+01
-10.000000 -4.000000 -1.306415E+01
-10.000000 -6.000000 -1.222512E+01
-10.000000 -8.000000 -1.682849E+01
-10.000000 -10.000000 -2.030436E+01
-10.000000 -12.000000 -2.560576E+01
-10.000000 -14.000000 -2.632250E+01
-10.000000 -16.000000 -2.017367E+01
-10.000000 -18.000000 -1.443611E+01
-10.000000 -20.000000 -1.499036E+01
-10.000000 -22.000000 -2.493678E+01
-10.000000 -24.000000 -2.963279E+01
-10.000000 -26.000000 -2.596385E+01
-10.000000 -28.000000 -2.010383E+01
-10.000000 -30.000000 -1.160318E+01
-10.000000 -32.000000 -6.417192E+00
-10.000000 -34.000000 -2.100455E+00
-10.000000 -36.000000 6.105762E-01
-10.000000 -38.000000 7.350468E+00
-10.000000 -40.000000 2.176949E+01
-8.000000 40.000000 -2.417420E+01
-8.000000 38.000000 -2.090139E+01
-8.000000 36.000000 -2.058555E+01
-8.000000 34.000000 -1.758725E+01
-8.000000 32.000000 -1.013480E+01
-8.000000 30.000000 9.288984E+00
-8.000000 28.000000 3.139849E+01
-8.000000 26.000000 4.108597E+01
-8.000000 24.000000 3.432938E+01
-8.000000 22.000000 1.366134E+01
-8.000000 20.000000 4.209028E+00
-8.000000 18.000000 -4.501417E+00
-8.000000 16.000000 -3.299080E+01
-8.000000 14.000000 -7.072979E+01
-8.000000 12.000000 -1.011065E+02
-8.000000 10.000000 -1.120746E+02
-8.000000 8.000000 -8.210075E+01
-8.000000 6.000000 -3.265537E+01
-8.000000 4.000000 2.226063E+00
-8.000000 2.000000 -2.614817E+00
-8.000000 0.000000 -2.290052E+01
-8.000000 -2.000000 -2.915254E+01
-8.000000 -4.000000 -2.079839E+01
-8.000000 -6.000000 -1.371283E+01
-8.000000 -8.000000 -1.380597E+01
-8.000000 -10.000000 -1.494685E+01
-8.000000 -12.000000 -2.083324E+01
-8.000000 -14.000000 -2.341940E+01
-8.000000 -16.000000 -1.959840E+01
-8.000000 -18.000000 -1.664481E+01
-8.000000 -20.000000 -1.881767E+01
-8.000000 -22.000000 -2.781974E+01
-8.000000 -24.000000 -3.065903E+01
-8.000000 -26.000000 -2.551034E+01
-8.000000 -28.000000 -1.978003E+01
-8.000000 -30.000000 -1.326665E+01
-8.000000 -32.000000 -8.953907E+00
-8.000000 -34.000000 -5.974837E+00
-8.000000 -36.000000 -4.321317E+00
-8.000000 -38.000000 2.954675E+00
-8.000000 -40.000000 1.917877E+01
-6.000000 40.000000 -2.642316E+01
-6.000000 38.000000 -2.408825E+01
-6.000000 36.000000 -2.845021E+01
-6.000000 34.000000 -2.829678E+01
-6.000000 32.000000 -1.914404E+01
-6.000000 30.000000 2.469360E+00
-6.000000 28.000000 2.213804E+01
-6.000000 26.000000 2.751758E+01
-6.000000 24.000000 1.510571E+01
-6.000000 22.000000 -8.488708E+00
-6.000000 20.000000 -1.859544E+01
-6.000000 18.000000 -2.198078E+01
-6.000000 16.000000 -3.822744E+01
-6.000000 14.000000 -5.786671E+01
-6.000000 12.000000 -7.498568E+01
-6.000000 10.000000 -8.666010E+01
-6.000000 8.000000 -7.274317E+01
-6.000000 6.000000 -4.006863E+01
-6.000000 4.000000 -1.343815E+01
-6.000000 2.000000 -1.692031E+01
-6.000000 0.000000 -3.187965E+01
-6.000000 -2.000000 -3.471584E+01
-6.000000 -4.000000 -2.404312E+01
-6.000000 -6.000000 -1.482174E+01
-6.000000 -8.000000 -1.398617E+01
-6.000000 -10.000000 -1.440313E+01
-6.000000 -12.000000 -1.978199E+01
-6.000000 -14.000000 -2.364858E+01
-6.000000 -16.000000 -2.198588E+01
-6.000000 -18.000000 -1.939789E+01
-6.000000 -20.000000 -1.995336E+01
-6.000000 -22.000000 -2.454433E+01
-6.000000 -24.000000 -2.450428E+01
-6.000000 -26.000000 -1.883070E+01
-6.000000 -28.000000 -1.402436E+01
-6.000000 -30.000000 -9.892290E+00
-6.000000 -32.000000 -7.748976E+00
-6.000000 -34.000000 -6.942702E+00
-6.000000 -36.000000 -5.971861E+00
-6.000000 -38.000000 1.862826E+00
-6.000000 -40.000000 1.776159E+01
-4.000000 40.000000 -2.635547E+01
-4.000000 38.000000 -2.649895E+01
-4.000000 36.000000 -3.431202E+01
-4.000000 34.000000 -3.753028E+01
-4.000000 32.000000 -2.999253E+01
-4.000000 30.000000 -9.233153E+00
-4.000000 28.000000 7.643818E+00
-4.000000 26.000000 9.036213E+00
-4.000000 24.000000 -8.463154E+00
-4.000000 22.000000 -3.309425E+01
-4.000000 20.000000 -4.440751E+01
-4.000000 18.000000 -4.581463E+01
-4.000000 16.000000 -5.232825E+01
-4.000000 14.000000 -5.265811E+01
-4.000000 12.000000 -4.548188E+01
-4.000000 10.000000 -4.741320E+01
-4.000000 8.000000 -5.164720E+01
-4.000000 6.000000 -3.875314E+01
-4.000000 4.000000 -2.227132E+01
-4.000000 2.000000 -2.257071E+01
-4.000000 0.000000 -3.153847E+01
-4.000000 -2.000000 -3.061206E+01
-4.000000 -4.000000 -1.884220E+01
-4.000000 -6.000000 -1.161657E+01
-4.000000 -8.000000 -1.397347E+01
-4.000000 -10.000000 -1.691103E+01
-4.000000 -12.000000 -2.491064E+01
-4.000000 -14.000000 -3.081680E+01
-4.000000 -16.000000 -2.951653E+01
-4.000000 -18.000000 -2.522583E+01
-4.000000 -20.000000 -2.237647E+01
-4.000000 -22.000000 -2.164018E+01
-4.000000 -24.000000 -1.722853E+01
-4.000000 -26.000000 -9.840172E+00
-4.000000 -28.000000 -6.258025E+00
-4.000000 -30.000000 -3.606466E+00
-4.000000 -32.000000 -2.592652E+00
-4.000000 -34.000000 -3.024255E+00
-4.000000 -36.000000 -2.120000E+00
-4.000000 -38.000000 4.996928E+00
-4.000000 -40.000000 1.785464E+01
-2.000000 40.000000 -2.544038E+01
-2.000000 38.000000 -2.928530E+01
-2.000000 36.000000 -3.754729E+01
-2.000000 34.000000 -4.216248E+01
-2.000000 32.000000 -3.810063E+01
-2.000000 30.000000 -2.202036E+01
-2.000000 28.000000 -8.753191E+00
-2.000000 26.000000 -9.517216E+00
-2.000000 24.000000 -2.933354E+01
-2.000000 22.000000 -5.119504E+01
-2.000000 20.000000 -6.157346E+01
-2.000000 18.000000 -6.407512E+01
-2.000000 16.000000 -6.745919E+01
-2.000000 14.000000 -5.853716E+01
-2.000000 12.000000 -2.517534E+01
-2.000000 10.000000 -1.176610E+01
-2.000000 8.000000 -3.134339E+01
-2.000000 6.000000 -3.089013E+01
-2.000000 4.000000 -1.908447E+01
-2.000000 2.000000 -1.665503E+01
-2.000000 0.000000 -2.200601E+01
-2.000000 -2.000000 -1.992130E+01
-2.000000 -4.000000 -1.077074E+01
-2.000000 -6.000000 -7.049473E+00
-2.000000 -8.000000 -1.323982E+01
-2.000000 -10.000000 -2.021132E+01
-2.000000 -12.000000 -3.217579E+01
-2.000000 -14.000000 -3.985597E+01
-2.000000 -16.000000 -3.501143E+01
-2.000000 -18.000000 -2.752273E+01
-2.000000 -20.000000 -2.366428E+01
-2.000000 -22.000000 -2.207542E+01
-2.000000 -24.000000 -1.530525E+01
-2.000000 -26.000000 -6.062299E+00
-2.000000 -28.000000 -1.950584E+00
-2.000000 -30.000000 1.548804E+00
-2.000000 -32.000000 3.963193E+00
-2.000000 -34.000000 4.416286E+00
-2.000000 -36.000000 5.789545E+00
-2.000000 -38.000000 1.126303E+01
-2.000000 -40.000000 2.014643E+01
0.000000 40.000000 -2.315878E+01
0.000000 38.000000 -2.908377E+01
0.000000 36.000000 -3.779923E+01
0.000000 34.000000 -4.353452E+01
0.000000 32.000000 -4.286114E+01
0.000000 30.000000 -3.257679E+01
0.000000 28.000000 -2.230818E+01
0.000000 26.000000 -2.227014E+01
0.000000 24.000000 -4.107916E+01
0.000000 22.000000 -5.898591E+01
0.000000 20.000000 -6.611087E+01
0.000000 18.000000 -6.638033E+01
0.000000 16.000000 -6.841228E+01
0.000000 14.000000 -5.909092E+01
0.000000 12.000000 -2.196309E+01
0.000000 10.000000 -7.974092E+00
0.000000 8.000000 -3.034658E+01
0.000000 6.000000 -2.791649E+01
0.000000 4.000000 -8.939098E+00
0.000000 2.000000 -1.450069E+00
0.000000 0.000000 -4.816099E+00
0.000000 -2.000000 -8.066566E+00
0.000000 -4.000000 -8.275211E+00
0.000000 -6.000000 -1.008395E+01
0.000000 -8.000000 -1.769145E+01
0.000000 -10.000000 -2.520764E+01
0.000000 -12.000000 -3.502657E+01
0.000000 -14.000000 -4.103297E+01
0.000000 -16.000000 -3.153629E+01
0.000000 -18.000000 -2.108160E+01
0.000000 -20.000000 -1.952061E+01
0.000000 -22.000000 -2.242647E+01
0.000000 -24.000000 -1.874459E+01
0.000000 -26.000000 -9.986179E+00
0.000000 -28.000000 -2.436425E+00
0.000000 -30.000000 4.001858E+00
0.000000 -32.000000 9.554382E+00
0.000000 -34.000000 1.267522E+01
0.000000 -36.000000 1.432699E+01
0.000000 -38.000000 1.781533E+01
0.000000 -40.000000 2.388855E+01
2.000000 40.000000 -2.027048E+01
2.000000 38.000000 -2.531783E+01
2.000000 36.000000 -3.430309E+01
2.000000 34.000000 -4.208044E+01
2.000000 32.000000 -4.328237E+01
2.000000 30.000000 -3.527133E+01
2.000000 28.000000 -2.567584E+01
2.000000 26.000000 -2.376001E+01
2.000000 24.000000 -3.973668E+01
2.000000 22.000000 -5.577397E+01
2.000000 20.000000 -5.977442E+01
2.000000 18.000000 -5.660977E+01
2.000000 16.000000 -5.664470E+01
2.000000 14.000000 -4.971690E+01
2.000000 12.000000 -3.552963E+01
2.000000 10.000000 -3.628023E+01
2.000000 8.000000 -4.428244E+01
2.000000 6.000000 -3.052223E+01
2.000000 4.000000 -3.904512E+00
2.000000 2.000000 6.339466E+00
2.000000 0.000000 3.397606E+00
2.000000 -2.000000 -5.485991E+00
2.000000 -4.000000 -1.095922E+01
2.000000 -6.000000 -1.692882E+01
2.000000 -8.000000 -2.390553E+01
2.000000 -10.000000 -2.757425E+01
2.000000 -12.000000 -3.132858E+01
2.000000 -14.000000 -3.314129E+01
2.000000 -16.000000 -2.217507E+01
2.000000 -18.000000 -1.142063E+01
2.000000 -20.000000 -1.337624E+01
2.000000 -22.000000 -2.135199E+01
2.000000 -24.000000 -2.258862E+01
2.000000 -26.000000 -1.503239E+01
2.000000 -28.000000 -4.238142E+00
2.000000 -30.000000 4.710822E+00
2.000000 -32.000000 1.350180E+01
2.000000 -34.000000 1.985280E+01
2.000000 -36.000000 2.164383E+01
2.000000 -38.000000 2.266160E+01
2.000000 -40.000000 2.713980E+01
4.000000 40.000000 -1.767405E+01
4.000000 38.000000 -1.926973E+01
4.000000 36.000000 -2.694235E+01
4.000000 34.000000 -3.664642E+01
4.000000 32.000000 -3.858494E+01
4.000000 30.000000 -2.991509E+01
4.000000 28.000000 -1.995841E+01
4.000000 26.000000 -1.596105E+01
4.000000 24.000000 -2.719790E+01
4.000000 22.000000 -4.172547E+01
4.000000 20.000000 -4.547330E+01
4.000000 18.000000 -4.347927E+01
4.000000 16.000000 -4.458465E+01
4.000000 14.000000 -4.341464E+01
4.000000 12.000000 -4.639664E+01
4.000000 10.000000 -5.548602E+01
4.000000 8.000000 -5.420501E+01
4.000000 6.000000 -3.739922E+01
4.000000 4.000000 -1.670028E+01
4.000000 2.000000 -1.292684E+01
4.000000 0.000000 -1.715210E+01
4.000000 -2.000000 -2.079041E+01
4.000000 -4.000000 -2.001011E+01
4.000000 -6.000000 -2.352910E+01
4.000000 -8.000000 -2.638230E+01
4.000000 -10.000000 -2.254649E+01
4.000000 -12.000000 -1.999107E+01
4.000000 -14.000000 -1.903807E+01
4.000000 -16.000000 -1.084139E+01
4.000000 -18.000000 -2.715816E+00
4.000000 -20.000000 -5.991240E+00
4.000000 -22.000000 -1.527833E+01
4.000000 -24.000000 -1.996906E+01
4.000000 -26.000000 -1.631575E+01
4.000000 -28.000000 -6.185986E+00
4.000000 -30.000000 4.037597E+00
4.000000 -32.000000 1.454695E+01
4.000000 -34.000000 2.306053E+01
4.000000 -36.000000 2.560776E+01
4.000000 -38.000000 2.472327E+01
4.000000 -40.000000 2.838299E+01
6.000000 40.000000 -1.449156E+01
6.000000 38.000000 -1.239737E+01
6.000000 36.000000 -1.817413E+01
6.000000 34.000000 -2.877027E+01
6.000000 32.000000 -3.113201E+01
6.000000 30.000000 -2.059535E+01
6.000000 28.000000 -9.058377E+00
6.000000 26.000000 -2.593859E+00
6.000000 24.000000 -8.537405E+00
6.000000 22.000000 -2.118286E+01
6.000000 20.000000 -2.732219E+01
6.000000 18.000000 -3.007252E+01
6.000000 16.000000 -3.404066E+01
6.000000 14.000000 -3.898460E+01
6.000000 12.000000 -4.840057E+01
6.000000 10.000000 -5.753745E+01
6.000000 8.000000 -5.576483E+01
6.000000 6.000000 -4.656087E+01
6.000000 4.000000 -4.067913E+01
6.000000 2.000000 -4.717409E+01
6.000000 0.000000 -5.276215E+01
6.000000 -2.000000 -4.571433E+01
6.000000 -4.000000 -3.501839E+01
6.000000 -6.000000 -3.177067E+01
6.000000 -8.000000 -2.863596E+01
6.000000 -10.000000 -1.630206E+01
6.000000 -12.000000 -8.294840E+00
6.000000 -14.000000 -6.846060E+00
6.000000 -16.000000 -2.218071E+00
6.000000 -18.000000 3.133341E+00
6.000000 -20.000000 3.393724E+00
6.000000 -22.000000 -1.784760E+00
6.000000 -24.000000 -8.697062E+00
6.000000 -26.000000 -1.277513E+01
6.000000 -28.000000 -7.515398E+00
6.000000 -30.000000 2.878845E+00
6.000000 -32.000000 1.289237E+01
6.000000 -34.000000 2.081222E+01
6.000000 -36.000000 2.418807E+01
6.000000 -38.000000 2.324664E+01
6.000000 -40.000000 2.679090E+01
8.000000 40.000000 -1.189401E+01
8.000000 38.000000 -7.287449E+00
8.000000 36.000000 -1.128671E+01
8.000000 34.000000 -1.992739E+01
8.000000 32.000000 -2.073578E+01
8.000000 30.000000 -7.737876E+00
8.000000 28.000000 5.126032E+00
8.000000 26.000000 1.234893E+01
8.000000 24.000000 8.951107E+00
8.000000 22.000000 -2.000454E+00
8.000000 20.000000 -9.049267E+00
8.000000 18.000000 -1.549431E+01
8.000000 16.000000 -2.425559E+01
8.000000 14.000000 -3.427060E+01
8.000000 12.000000 -4.485337E+01
8.000000 10.000000 -5.269357E+01
8.000000 8.000000 -5.603512E+01
8.000000 6.000000 -5.785441E+01
8.000000 4.000000 -6.304894E+01
8.000000 2.000000 -7.242754E+01
8.000000 0.000000 -7.520403E+01
8.000000 -2.000000 -6.145715E+01
8.000000 -4.000000 -4.404352E+01
8.000000 -6.000000 -3.377536E+01
8.000000 -8.000000 -2.714548E+01
8.000000 -10.000000 -1.474318E+01
8.000000 -12.000000 -6.743011E+00
8.000000 -14.000000 -5.815975E+00
8.000000 -16.000000 -3.230213E+00
8.000000 -18.000000 1.118387E+00
8.000000 -20.000000 7.328816E+00
8.000000 -22.000000 1.030093E+01
8.000000 -24.000000 2.112835E+00
8.000000 -26.000000 -7.368036E+00
8.000000 -28.000000 -7.015256E+00
8.000000 -30.000000 1.523271E+00
8.000000 -32.000000 9.516821E+00
8.000000 -34.000000 1.477432E+01
8.000000 -36.000000 1.802261E+01
8.000000 -38.000000 1.884144E+01
8.000000 -40.000000 2.348263E+01
10.000000 40.000000 -1.290216E+01
10.000000 38.000000 -6.957733E+00
10.000000 36.000000 -7.922201E+00
10.000000 34.000000 -9.291572E+00
10.000000 32.000000 -4.387817E+00
10.000000 30.000000 9.352474E+00
10.000000 28.000000 2.026449E+01
10.000000 26.000000 2.335805E+01
10.000000 24.000000 1.750686E+01
10.000000 22.000000 8.000809E+00
10.000000 20.000000 3.507364E+00
10.000000 18.000000 -1.790762E+00
10.000000 16.000000 -1.412436E+01
10.000000 14.000000 -2.777924E+01
10.000000 12.000000 -4.019732E+01
10.000000 10.000000 -5.021893E+01
10.000000 8.000000 -5.872268E+01
10.000000 6.000000 -6.607822E+01
10.000000 4.000000 -7.405149E+01
10.000000 2.000000 -7.999593E+01
10.000000 0.000000 -7.585109E+01
10.000000 -2.000000 -5.593063E+01
10.000000 -4.000000 -3.285720E+01
10.000000 -6.000000 -1.991992E+01
10.000000 -8.000000 -1.756397E+01
10.000000 -10.000000 -1.505016E+01
10.000000 -12.000000 -1.380883E+01
10.000000 -14.000000 -1.555967E+01
10.000000 -16.000000 -1.483321E+01
10.000000 -18.000000 -1.101192E+01
10.000000 -20.000000 -4.968147E-01
10.000000 -22.000000 9.089017E+00
10.000000 -24.000000 1.661095E+00
10.000000 -26.000000 -7.482125E+00
10.000000 -28.000000 -7.477560E+00
10.000000 -30.000000 -7.743192E-01
10.000000 -32.000000 4.726883E+00
10.000000 -34.000000 7.019409E+00
10.000000 -36.000000 9.511597E+00
10.000000 -38.000000 1.310398E+01
10.000000 -40.000000 2.061815E+01
12.000000 40.000000 -1.681441E+01
12.000000 38.000000 -9.306327E+00
12.000000 36.000000 -5.697346E+00
12.000000 34.000000 1.395190E+00
12.000000 32.000000 1.168012E+01
12.000000 30.000000 2.404909E+01
12.000000 28.000000 3.123358E+01
12.000000 26.000000 2.924142E+01
12.000000 24.000000 1.820681E+01
12.000000 22.000000 6.723864E+00
12.000000 20.000000 4.870499E+00
12.000000 18.000000 5.340454E+00
12.000000 16.000000 -6.278265E+00
12.000000 14.000000 -2.108645E+01
12.000000 12.000000 -3.578834E+01
12.000000 10.000000 -5.177965E+01
12.000000 8.000000 -6.680668E+01
12.000000 6.000000 -7.423169E+01
12.000000 4.000000 -7.521450E+01
12.000000 2.000000 -7.137004E+01
12.000000 0.000000 -5.673654E+01
12.000000 -2.000000 -2.719828E+01
12.000000 -4.000000 5.830898E-01
12.000000 -6.000000 8.542894E+00
12.000000 -8.000000 -7.350540E-01
12.000000 -10.000000 -1.366356E+01
12.000000 -12.000000 -2.284092E+01
12.000000 -14.000000 -2.795399E+01
12.000000 -16.000000 -2.865087E+01
12.000000 -18.000000 -2.548133E+01
12.000000 -20.000000 -1.583237E+01
12.000000 -22.000000 -8.683568E+00
12.000000 -24.000000 -1.315049E+01
12.000000 -26.000000 -1.667234E+01
12.000000 -28.000000 -1.207417E+01
12.000000 -30.000000 -4.860820E+00
12.000000 -32.000000 -1.201354E+00
12.000000 -34.000000 -1.179671E+00
12.000000 -36.000000 9.189951E-01
12.000000 -38.000000 7.822930E+00
12.000000 -40.000000 1.967923E+01
14.000000 40.000000 -2.068994E+01
14.000000 38.000000 -1.004797E+01
14.000000 36.000000 -2.793454E+00
14.000000 34.000000 8.060025E+00
14.000000 32.000000 1.894339E+01
14.000000 30.000000 2.868192E+01
14.000000 28.000000 3.346734E+01
14.000000 26.000000 3.221381E+01
14.000000 24.000000 1.952587E+01
14.000000 22.000000 4.347712E+00
14.000000 20.000000 1.955606E+00
14.000000 18.000000 4.948265E+00
14.000000 16.000000 -6.386112E+00
14.000000 14.000000 -2.263850E+01
14.000000 12.000000 -3.929528E+01
14.000000 10.000000 -5.948384E+01
14.000000 8.000000 -7.792695E+01
14.000000 6.000000 -8.207283E+01
14.000000 4.000000 -7.081079E+01
14.000000 2.000000 -5.428112E+01
14.000000 0.000000 -2.960935E+01
14.000000 -2.000000 7.667019E+00
14.000000 -4.000000 3.839010E+01
14.000000 -6.000000 3.963028E+01
14.000000 -8.000000 1.731238E+01
14.000000 -10.000000 -8.682761E+00
14.000000 -12.000000 -2.562811E+01
14.000000 -14.000000 -3.295322E+01
14.000000 -16.000000 -3.487125E+01
14.000000 -18.000000 -3.319710E+01
14.000000 -20.000000 -2.932117E+01
14.000000 -22.000000 -3.000916E+01
14.000000 -24.000000 -3.320283E+01
14.000000 -26.000000 -3.007676E+01
14.000000 -28.000000 -1.960947E+01
14.000000 -30.000000 -1.104745E+01
14.000000 -32.000000 -8.351445E+00
14.000000 -34.000000 -1.018596E+01
14.000000 -36.000000 -7.841186E+00
14.000000 -38.000000 3.670272E+00
14.000000 -40.000000 2.132597E+01
16.000000 40.000000 -2.445548E+01
16.000000 38.000000 -1.137102E+01
16.000000 36.000000 -2.169533E+00
16.000000 34.000000 9.717328E+00
16.000000 32.000000 2.055212E+01
16.000000 30.000000 2.876156E+01
16.000000 28.000000 3.230115E+01
16.000000 26.000000 3.311819E+01
16.000000 24.000000 2.115690E+01
16.000000 22.000000 4.838623E+00
16.000000 20.000000 1.527309E-01
16.000000 18.000000 -4.741783E-01
16.000000 16.000000 -1.347181E+01
16.000000 14.000000 -3.171181E+01
16.000000 12.000000 -5.107347E+01
16.000000 10.000000 -7.339971E+01
16.000000 8.000000 -8.793469E+01
16.000000 6.000000 -8.506154E+01
16.000000 4.000000 -6.067987E+01
16.000000 2.000000 -3.499921E+01
16.000000 0.000000 -6.466459E+00
16.000000 -2.000000 2.852598E+01
16.000000 -4.000000 5.778457E+01
16.000000 -6.000000 5.482050E+01
16.000000 -8.000000 2.485049E+01
16.000000 -10.000000 -5.857914E+00
16.000000 -12.000000 -2.170184E+01
16.000000 -14.000000 -2.663657E+01
16.000000 -16.000000 -2.786471E+01
16.000000 -18.000000 -2.869876E+01
16.000000 -20.000000 -3.247078E+01
16.000000 -22.000000 -4.135201E+01
16.000000 -24.000000 -4.664678E+01
16.000000 -26.000000 -4.046128E+01
16.000000 -28.000000 -2.763044E+01
16.000000 -30.000000 -1.776238E+01
16.000000 -32.000000 -1.458326E+01
16.000000 -34.000000 -1.680271E+01
16.000000 -36.000000 -1.385054E+01
16.000000 -38.000000 9.960580E-01
16.000000 -40.000000 2.346000E+01
18.000000 40.000000 -2.741617E+01
18.000000 38.000000 -1.561488E+01
18.000000 36.000000 -6.132022E+00
18.000000 34.000000 7.459726E+00
18.000000 32.000000 2.063426E+01
18.000000 30.000000 3.040561E+01
18.000000 28.000000 3.311786E+01
18.000000 26.000000 3.211888E+01
18.000000 24.000000 1.905720E+01
18.000000 22.000000 1.625193E+00
18.000000 20.000000 -5.077896E+00
18.000000 18.000000 -6.154002E+00
18.000000 16.000000 -1.512056E+01
18.000000 14.000000 -2.950946E+01
18.000000 12.000000 -4.904048E+01
18.000000 10.000000 -7.617169E+01
18.000000 8.000000 -9.102913E+01
18.000000 6.000000 -8.569422E+01
18.000000 4.000000 -5.694135E+01
18.000000 2.000000 -2.935975E+01
18.000000 0.000000 -2.757799E+00
18.000000 -2.000000 2.488980E+01
18.000000 -4.000000 5.000146E+01
18.000000 -6.000000 4.755508E+01
18.000000 -8.000000 2.098647E+01
18.000000 -10.000000 -4.831182E+00
18.000000 -12.000000 -1.377082E+01
18.000000 -14.000000 -1.270344E+01
18.000000 -16.000000 -1.243954E+01
18.000000 -18.000000 -1.690826E+01
18.000000 -20.000000 -2.659179E+01
18.000000 -22.000000 -4.092432E+01
18.000000 -24.000000 -5.029205E+01
18.000000 -26.000000 -4.568530E+01
18.000000 -28.000000 -3.306363E+01
18.000000 -30.000000 -2.171556E+01
18.000000 -32.000000 -1.707383E+01
18.000000 -34.000000 -1.650053E+01
18.000000 -36.000000 -1.148023E+01
18.000000 -38.000000 2.436093E+00
18.000000 -40.000000 2.431480E+01
20.000000 40.000000 -2.755091E+01
20.000000 38.000000 -2.033181E+01
20.000000 36.000000 -1.303899E+01
20.000000 34.000000 9.170098E-01
20.000000 32.000000 1.620009E+01
20.000000 30.000000 2.860150E+01
20.000000 28.000000 3.229550E+01
20.000000 26.000000 3.037641E+01
20.000000 24.000000 1.598189E+01
20.000000 22.000000 -2.389899E+00
20.000000 20.000000 -7.833114E+00
20.000000 18.000000 -1.594452E+00
20.000000 16.000000 1.385284E+00
20.000000 14.000000 -3.723288E+00
20.000000 12.000000 -2.329967E+01
20.000000 10.000000 -5.936570E+01
20.000000 8.000000 -8.697219E+01
20.000000 6.000000 -9.208933E+01
20.000000 4.000000 -7.160264E+01
20.000000 2.000000 -4.741786E+01
20.000000 0.000000 -2.483222E+01
20.000000 -2.000000 -1.446953E+00
20.000000 -4.000000 2.286018E+01
20.000000 -6.000000 2.712773E+01
20.000000 -8.000000 1.218981E+01
20.000000 -10.000000 -1.589128E+00
20.000000 -12.000000 -2.400350E+00
20.000000 -14.000000 3.148317E+00
20.000000 -16.000000 2.999413E+00
20.000000 -18.000000 -5.175387E+00
20.000000 -20.000000 -1.894696E+01
20.000000 -22.000000 -3.738921E+01
20.000000 -24.000000 -4.925664E+01
20.000000 -26.000000 -4.648208E+01
20.000000 -28.000000 -3.330149E+01
20.000000 -30.000000 -1.995431E+01
20.000000 -32.000000 -1.372091E+01
20.000000 -34.000000 -9.944479E+00
20.000000 -36.000000 -2.894007E+00
20.000000 -38.000000 8.378430E+00
20.000000 -40.000000 2.570843E+01
22.000000 40.000000 -2.750626E+01
22.000000 38.000000 -2.464039E+01
22.000000 36.000000 -2.043716E+01
22.000000 34.000000 -7.867738E+00
22.000000 32.000000 9.002442E+00
22.000000 30.000000 2.472145E+01
22.000000 28.000000 3.322664E+01
22.000000 26.000000 3.442040E+01
22.000000 24.000000 2.097771E+01
22.000000 22.000000 2.805175E+00
22.000000 20.000000 -2.188206E-02
22.000000 18.000000 1.322155E+01
22.000000 16.000000 2.624376E+01
22.000000 14.000000 2.737192E+01
22.000000 12.000000 6.203981E+00
22.000000 10.000000 -3.636450E+01
22.000000 8.000000 -8.029053E+01
22.000000 6.000000 -1.017288E+02
22.000000 4.000000 -9.468727E+01
22.000000 2.000000 -7.738174E+01
22.000000 0.000000 -5.834966E+01
22.000000 -2.000000 -3.317380E+01
22.000000 -4.000000 -6.796103E+00
22.000000 -6.000000 3.777233E+00
22.000000 -8.000000 4.443512E-01
22.000000 -10.000000 -1.116688E+00
22.000000 -12.000000 6.052118E+00
22.000000 -14.000000 1.342311E+01
22.000000 -16.000000 1.248407E+01
22.000000 -18.000000 2.435247E+00
22.000000 -20.000000 -1.496831E+01
22.000000 -22.000000 -3.630046E+01
22.000000 -24.000000 -4.734720E+01
22.000000 -26.000000 -4.460664E+01
22.000000 -28.000000 -3.099223E+01
22.000000 -30.000000 -1.517373E+01
22.000000 -32.000000 -5.452545E+00
22.000000 -34.000000 1.053026E+00
22.000000 -36.000000 8.318537E+00
22.000000 -38.000000 1.681571E+01
22.000000 -40.000000 2.836837E+01
24.000000 40.000000 -2.985584E+01
24.000000 38.000000 -2.827712E+01
24.000000 36.000000 -2.564429E+01
24.000000 34.000000 -1.330011E+01
24.000000 32.000000 5.625977E+00
24.000000 30.000000 2.536237E+01
24.000000 28.000000 3.912118E+01
24.000000 26.000000 4.381412E+01
24.000000 24.000000 3.143167E+01
24.000000 22.000000 1.161543E+01
24.000000 20.000000 9.913687E+00
24.000000 18.000000 2.576151E+01
24.000000 16.000000 4.156728E+01
24.000000 14.000000 4.479052E+01
24.000000 12.000000 2.353992E+01
24.000000 10.000000 -2.145819E+01
24.000000 8.000000 -7.317692E+01
24.000000 6.000000 -1.038078E+02
24.000000 4.000000 -1.056443E+02
24.000000 2.000000 -9.496874E+01
24.000000 0.000000 -7.821001E+01
24.000000 -2.000000 -5.016082E+01
24.000000 -4.000000 -2.314828E+01
24.000000 -6.000000 -1.191975E+01
24.000000 -8.000000 -1.008585E+01
24.000000 -10.000000 -6.506836E+00
24.000000 -12.000000 4.418434E+00
24.000000 -14.000000 1.161732E+01
24.000000 -16.000000 1.000053E+01
24.000000 -18.000000 -5.818853E-01
24.000000 -20.000000 -1.935624E+01
24.000000 -22.000000 -3.992457E+01
24.000000 -24.000000 -4.656647E+01
24.000000 -26.000000 -4.139863E+01
24.000000 -28.000000 -2.894060E+01
24.000000 -30.000000 -1.128620E+01
24.000000 -32.000000 3.422699E+00
24.000000 -34.000000 1.340114E+01
24.000000 -36.000000 2.042826E+01
24.000000 -38.000000 2.585085E+01
24.000000 -40.000000 3.135206E+01
26.000000 40.000000 -3.130870E+01
26.000000 38.000000 -2.931243E+01
26.000000 36.000000 -2.635848E+01
26.000000 34.000000 -1.316882E+01
26.000000 32.000000 7.263756E+00
26.000000 30.000000 2.840810E+01
26.000000 28.000000 4.201160E+01
26.000000 26.000000 4.545646E+01
26.000000 24.000000 3.185478E+01
26.000000 22.000000 1.014486E+01
26.000000 20.000000 1.021478E+01
26.000000 18.000000 2.752801E+01
26.000000 16.000000 4.190243E+01
26.000000 14.000000 4.676876E+01
26.000000 12.000000 2.986637E+01
26.000000 10.000000 -1.167608E+01
26.000000 8.000000 -5.991802E+01
26.000000 6.000000 -9.081968E+01
26.000000 4.000000 -9.707848E+01
26.000000 2.000000 -9.152995E+01
26.000000 0.000000 -7.555395E+01
26.000000 -2.000000 -4.442302E+01
26.000000 -4.000000 -1.466671E+01
26.000000 -6.000000 -4.776208E+00
26.000000 -8.000000 -5.827958E+00
26.000000 -10.000000 -6.459156E+00
26.000000 -12.000000 -1.464710E+00
26.000000 -14.000000 3.185167E-01
26.000000 -16.000000 -7.418410E+00
26.000000 -18.000000 -2.144229E+01
26.000000 -20.000000 -3.815310E+01
26.000000 -22.000000 -5.159286E+01
26.000000 -24.000000 -5.080933E+01
26.000000 -26.000000 -4.105658E+01
26.000000 -28.000000 -2.864280E+01
26.000000 -30.000000 -9.415494E+00
26.000000 -32.000000 9.269362E+00
26.000000 -34.000000 2.271394E+01
26.000000 -36.000000 3.017223E+01
26.000000 -38.000000 3.261815E+01
26.000000 -40.000000 3.402990E+01
28.000000 40.000000 -2.890761E+01
28.000000 38.000000 -2.708996E+01
28.000000 36.000000 -2.325306E+01
28.000000 34.000000 -8.917513E+00
28.000000 32.000000 1.172537E+01
28.000000 30.000000 2.964559E+01
28.000000 28.000000 3.799189E+01
28.000000 26.000000 3.496468E+01
28.000000 24.000000 1.338372E+01
28.000000 22.000000 -8.945121E+00
28.000000 20.000000 -5.335011E+00
28.000000 18.000000 1.344492E+01
28.000000 16.000000 2.883602E+01
28.000000 14.000000 3.937868E+01
28.000000 12.000000 3.361009E+01
28.000000 10.000000 6.346961E+00
28.000000 8.000000 -3.006651E+01
28.000000 6.000000 -5.723008E+01
28.000000 4.000000 -7.035351E+01
28.000000 2.000000 -7.363610E+01
28.000000 0.000000 -6.065168E+01
28.000000 -2.000000 -2.537419E+01
28.000000 -4.000000 1.199006E+01
28.000000 -6.000000 2.239841E+01
28.000000 -8.000000 1.537381E+01
28.000000 -10.000000 7.554884E+00
28.000000 -12.000000 -2.682667E-01
28.000000 -14.000000 -1.161873E+01
28.000000 -16.000000 -3.088923E+01
28.000000 -18.000000 -5.226214E+01
28.000000 -20.000000 -6.771183E+01
28.000000 -22.000000 -7.307784E+01
28.000000 -24.000000 -6.423923E+01
28.000000 -26.000000 -4.857458E+01
28.000000 -28.000000 -3.287307E+01
28.000000 -30.000000 -1.053641E+01
28.000000 -32.000000 1.142098E+01
28.000000 -34.000000 2.766394E+01
28.000000 -36.000000 3.511827E+01
28.000000 -38.000000 3.504684E+01
28.000000 -40.000000 3.562697E+01
30.000000 40.000000 -2.378952E+01
30.000000 38.000000 -2.282094E+01
30.000000 36.000000 -1.764951E+01
30.000000 34.000000 -2.108727E+00
30.000000 32.000000 1.727538E+01
30.000000 30.000000 2.959947E+01
30.000000 28.000000 3.039949E+01
30.000000 26.000000 1.819903E+01
30.000000 24.000000 -1.679958E+01
30.000000 22.000000 -4.052222E+01
30.000000 20.000000 -3.485250E+01
30.000000 18.000000 -1.188899E+01
30.000000 16.000000 1.135929E+01
30.000000 14.000000 3.299896E+01
30.000000 12.000000 4.291715E+01
30.000000 10.000000 3.505928E+01
30.000000 8.000000 1.070643E+01
30.000000 6.000000 -1.220854E+01
30.000000 4.000000 -3.402487E+01
30.000000 2.000000 -4.932718E+01
30.000000 0.000000 -4.228957E+01
30.000000 -2.000000 -4.992422E+00
30.000000 -4.000000 3.753735E+01
30.000000 -6.000000 4.965554E+01
30.000000 -8.000000 3.847795E+01
30.000000 -10.000000 2.459044E+01
30.000000 -12.000000 5.349070E+00
30.000000 -14.000000 -1.850273E+01
30.000000 -16.000000 -4.731030E+01
30.000000 -18.000000 -7.578115E+01
30.000000 -20.000000 -9.364761E+01
30.000000 -22.000000 -9.585211E+01
30.000000 -24.000000 -8.278568E+01
30.000000 -26.000000 -6.197807E+01
30.000000 -28.000000 -4.117169E+01
30.000000 -30.000000 -1.549310E+01
30.000000 -32.000000 8.451515E+00
30.000000 -34.000000 2.659347E+01
30.000000 -36.000000 3.466662E+01
30.000000 -38.000000 3.428928E+01
30.000000 -40.000000 3.608697E+01
32.000000 40.000000 -1.914320E+01
32.000000 38.000000 -1.888138E+01
32.000000 36.000000 -1.212115E+01
32.000000 34.000000 5.812248E+00
32.000000 32.000000 2.476283E+01
32.000000 30.000000 3.252246E+01
32.000000 28.000000 2.555409E+01
32.000000 26.000000 4.163220E+00
32.000000 24.000000 -4.073052E+01
32.000000 22.000000 -6.682648E+01
32.000000 20.000000 -6.071551E+01
32.000000 18.000000 -3.308434E+01
32.000000 16.000000 -3.734048E+00
32.000000 14.000000 2.648692E+01
32.000000 12.000000 4.851481E+01
32.000000 10.000000 5.528862E+01
32.000000 8.000000 4.081300E+01
32.000000 6.000000 2.379526E+01
32.000000 4.000000 -8.766098E-01
32.000000 2.000000 -2.384132E+01
32.000000 0.000000 -2.247780E+01
32.000000 -2.000000 9.603848E+00
32.000000 -4.000000 4.797621E+01
32.000000 -6.000000 6.057261E+01
32.000000 -8.000000 4.966958E+01
32.000000 -10.000000 3.324013E+01
32.000000 -12.000000 7.572672E+00
32.000000 -14.000000 -2.180876E+01
32.000000 -16.000000 -5.397782E+01
32.000000 -18.000000 -8.373919E+01
32.000000 -20.000000 -1.028050E+02
32.000000 -22.000000 -1.063493E+02
32.000000 -24.000000 -9.415156E+01
32.000000 -26.000000 -7.217636E+01
32.000000 -28.000000 -4.878750E+01
32.000000 -30.000000 -2.210458E+01
32.000000 -32.000000 1.286173E+00
32.000000 -34.000000 1.959767E+01
32.000000 -36.000000 2.966730E+01
32.000000 -38.000000 3.123541E+01
32.000000 -40.000000 3.437919E+01
34.000000 40.000000 -1.730264E+01
34.000000 38.000000 -1.669013E+01
34.000000 36.000000 -8.448864E+00
34.000000 34.000000 1.279718E+01
34.000000 32.000000 3.309114E+01
34.000000 30.000000 3.900120E+01
34.000000 28.000000 2.767020E+01
34.000000 26.000000 2.506608E+00
34.000000 24.000000 -4.281430E+01
34.000000 22.000000 -7.157713E+01
34.000000 20.000000 -6.889771E+01
34.000000 18.000000 -4.525497E+01
34.000000 16.000000 -1.971245E+01
34.000000 14.000000 1.058199E+01
34.000000 12.000000 3.697987E+01
34.000000 10.000000 5.238877E+01
34.000000 8.000000 4.927018E+01
34.000000 6.000000 4.047492E+01
34.000000 4.000000 1.989737E+01
34.000000 2.000000 -4.246048E+00
34.000000 0.000000 -7.824461E+00
34.000000 -2.000000 1.401099E+01
34.000000 -4.000000 4.128136E+01
34.000000 -6.000000 5.204210E+01
34.000000 -8.000000 4.411452E+01
34.000000 -10.000000 2.856151E+01
34.000000 -12.000000 3.432282E+00
34.000000 -14.000000 -2.351701E+01
34.000000 -16.000000 -5.093612E+01
34.000000 -18.000000 -7.456948E+01
34.000000 -20.000000 -9.065607E+01
34.000000 -22.000000 -9.715254E+01
34.000000 -24.000000 -8.924430E+01
34.000000 -26.000000 -7.233514E+01
34.000000 -28.000000 -5.111678E+01
34.000000 -30.000000 -2.605631E+01
34.000000 -32.000000 -5.450884E+00
34.000000 -34.000000 1.077376E+01
34.000000 -36.000000 2.171974E+01
34.000000 -38.000000 2.494780E+01
34.000000 -40.000000 2.888807E+01
36.000000 40.000000 -1.818524E+01
36.000000 38.000000 -1.581060E+01
36.000000 36.000000 -6.238309E+00
36.000000 34.000000 1.672073E+01
36.000000 32.000000 3.805273E+01
36.000000 30.000000 4.506323E+01
36.000000 28.000000 3.491306E+01
36.000000 26.000000 1.287758E+01
36.000000 24.000000 -2.495777E+01
36.000000 22.000000 -5.667077E+01
36.000000 20.000000 -6.266146E+01
36.000000 18.000000 -5.158984E+01
36.000000 16.000000 -3.809307E+01
36.000000 14.000000 -1.566777E+01
36.000000 12.000000 1.099331E+01
36.000000 10.000000 3.227271E+01
36.000000 8.000000 3.958687E+01
36.000000 6.000000 3.798610E+01
36.000000 4.000000 2.520202E+01
36.000000 2.000000 5.199955E+00
36.000000 0.000000 -2.257884E+00
36.000000 -2.000000 1.021853E+01
36.000000 -4.000000 2.586415E+01
36.000000 -6.000000 3.124699E+01
36.000000 -8.000000 2.473001E+01
36.000000 -10.000000 1.092182E+01
36.000000 -12.000000 -6.530239E+00
36.000000 -14.000000 -2.328498E+01
36.000000 -16.000000 -3.982713E+01
36.000000 -18.000000 -5.345603E+01
36.000000 -20.000000 -6.261637E+01
36.000000 -22.000000 -6.973399E+01
36.000000 -24.000000 -6.770399E+01
36.000000 -26.000000 -5.961618E+01
36.000000 -28.000000 -4.503783E+01
36.000000 -30.000000 -2.522327E+01
36.000000 -32.000000 -9.225334E+00
36.000000 -34.000000 3.371436E+00
36.000000 -36.000000 1.221019E+01
36.000000 -38.000000 1.580669E+01
36.000000 -40.000000 2.028949E+01
38.000000 40.000000 -1.856855E+01
38.000000 38.000000 -1.435334E+01
38.000000 36.000000 -5.258636E+00
38.000000 34.000000 1.501096E+01
38.000000 32.000000 3.459023E+01
38.000000 30.000000 4.350754E+01
38.000000 28.000000 3.822788E+01
38.000000 26.000000 2.344585E+01
38.000000 24.000000 -4.291781E+00
38.000000 22.000000 -3.594051E+01
38.000000 20.000000 -5.120804E+01
38.000000 18.000000 -5.576513E+01
38.000000 16.000000 -5.518991E+01
38.000000 14.000000 -4.204165E+01
38.000000 12.000000 -1.609441E+01
38.000000 10.000000 8.635396E+00
