-10.000000 26.000000 -2.685146E+01
-10.000000 24.000000 -4.264575E+01
-10.000000 22.000000 -4.851404E+01
-10.000000 20.000000 -3.988498E+01
-10.000000 18.000000 -1.796337E+01
-10.000000 16.000000 2.739589E+00
-10.000000 14.000000 8.094395E+00
-10.000000 12.000000 -5.589539E+00
-10.000000 10.000000 -3.078804E+01
-10.000000 8.000000 -4.790610E+01
-10.000000 6.000000 -4.887466E+01
-10.000000 4.000000 -2.873615E+01
-10.000000 2.000000 -7.032068E+00
-10.000000 0.000000 8.248434E+00
-10.000000 -2.000000 1.924457E+01
-10.000000 -4.000000 2.808116E+01
-10.000000 -6.000000 3.492350E+01
-10.000000 -8.000000 4.120684E+01
-10.000000 -10.000000 4.656860E+01
-10.000000 -12.000000 4.270965E+01
-10.000000 -14.000000 3.719380E+01
-10.000000 -16.000000 2.742807E+01
-10.000000 -18.000000 2.474016E+01
-10.000000 -20.000000 3.155092E+01
-10.000000 -22.000000 3.706973E+01
-10.000000 -24.000000 3.687624E+01
-10.000000 -26.000000 2.997743E+01
-10.000000 -28.000000 2.134772E+01
-10.000000 -30.000000 1.497705E+01
-10.000000 -32.000000 1.104565E+01
-10.000000 -34.000000 9.620207E+00
-10.000000 -36.000000 2.464294E+01
-10.000000 -38.000000 4.608718E+01
-10.000000 -40.000000 6.491202E+01
-8.000000 40.000000 1.045254E+01
-8.000000 38.000000 2.488426E+01
-8.000000 36.000000 3.884331E+01
-8.000000 34.000000 4.717340E+01
-8.000000 32.000000 3.293541E+01
-8.000000 30.000000 5.007385E+00
-8.000000 28.000000 -2.171471E+01
-8.000000 26.000000 -3.791333E+01
-8.000000 24.000000 -5.535212E+01
-8.000000 22.000000 -6.100796E+01
-8.000000 20.000000 -5.458311E+01
-8.000000 18.000000 -3.480944E+01
-8.000000 16.000000 -1.210233E+01
-8.000000 14.000000 -2.618835E+00
-8.000000 12.000000 -1.026234E+01
-8.000000 10.000000 -2.867103E+01
-8.000000 8.000000 -4.195020E+01
-8.000000 6.000000 -4.610960E+01
-8.000000 4.000000 -3.263570E+01
-8.000000 2.000000 -1.382066E+01
-8.000000 0.000000 2.073465E+00
-8.000000 -2.000000 1.461837E+01
-8.000000 -4.000000 2.400146E+01
-8.000000 -6.000000 3.319836E+01
-8.000000 -8.000000 4.553232E+01
-8.000000 -10.000000 5.615974E+01
-8.000000 -12.000000 5.212728E+01
-8.000000 -14.000000 4.597139E+01
-8.000000 -16.000000 3.753331E+01
-8.000000 -18.000000 3.515125E+01
-8.000000 -20.000000 4.140796E+01
-8.000000 -22.000000 4.769769E+01
-8.000000 -24.000000 4.691029E+01
-8.000000 -26.000000 3.876224E+01
-8.000000 -28.000000 2.774632E+01
-8.000000 -30.000000 1.876245E+01
-8.000000 -32.000000 1.243610E+01
-8.000000 -34.000000 9.901590E+00
-8.000000 -36.000000 2.284423E+01
-8.000000 -38.000000 4.186233E+01
-8.000000 -40.000000 6.009688E+01
-6.000000 40.000000 1.909075E+01
-6.000000 38.000000 3.470520E+01
-6.000000 36.000000 4.582167E+01
-6.000000 34.000000 4.848778E+01
-6.000000 32.000000 2.724058E+01
-6.000000 30.000000 -5.520006E+00
-6.000000 28.000000 -3.136928E+01
-6.000000 26.000000 -4.420113E+01
-6.000000 24.000000 -5.944164E+01
-6.000000 22.000000 -6.490967E+01
-6.000000 20.000000 -6.026724E+01
-6.000000 18.000000 -4.293419E+01
-6.000000 16.000000 -1.871928E+01
-6.000000 14.000000 -4.946361E+00
-6.000000 12.000000 -6.240056E+00
-6.000000 10.000000 -1.550333E+01
-6.000000 8.000000 -1.986375E+01
-6.000000 6.000000 -2.164877E+01
-6.000000 4.000000 -1.966345E+01
-6.000000 2.000000 -1.466158E+01
-6.000000 0.000000 -6.276829E+00
-6.000000 -2.000000 5.381091E+00
-6.000000 -4.000000 1.415405E+01
-6.000000 -6.000000 2.299812E+01
-6.000000 -8.000000 3.519852E+01
-6.000000 -10.000000 4.652285E+01
-6.000000 -12.000000 4.670183E+01
-6.000000 -14.000000 4.279761E+01
-6.000000 -16.000000 3.798540E+01
-6.000000 -18.000000 3.781492E+01
-6.000000 -20.000000 4.421930E+01
-6.000000 -22.000000 5.239406E+01
-6.000000 -24.000000 5.335435E+01
-6.000000 -26.000000 4.614281E+01
-6.000000 -28.000000 3.566421E+01
-6.000000 -30.000000 2.640128E+01
-6.000000 -32.000000 1.927178E+01
-6.000000 -34.000000 1.537701E+01
-6.000000 -36.000000 2.437308E+01
-6.000000 -38.000000 3.912031E+01
-6.000000 -40.000000 5.492749E+01
-4.000000 40.000000 2.376878E+01
-4.000000 38.000000 3.993523E+01
-4.000000 36.000000 4.734890E+01
-4.000000 34.000000 4.331157E+01
-4.000000 32.000000 1.643921E+01
-4.000000 30.000000 -1.661583E+01
-4.000000 28.000000 -3.649458E+01
-4.000000 26.000000 -4.270880E+01
-4.000000 24.000000 -5.246748E+01
-4.000000 22.000000 -5.691106E+01
-4.000000 20.000000 -5.221145E+01
-4.000000 18.000000 -3.577352E+01
-4.000000 16.000000 -1.401824E+01
-4.000000 14.000000 8.801708E-01
-4.000000 12.000000 6.586682E+00
-4.000000 10.000000 8.901776E+00
-4.000000 8.000000 1.339615E+01
-4.000000 6.000000 1.284867E+01
-4.000000 4.000000 9.817200E-01
-4.000000 2.000000 -1.181098E+01
-4.000000 0.000000 -1.482612E+01
-4.000000 -2.000000 -6.611766E+00
-4.000000 -4.000000 1.760338E+00
-4.000000 -6.000000 7.969762E+00
-4.000000 -8.000000 1.596896E+01
-4.000000 -10.000000 2.495673E+01
-4.000000 -12.000000 2.941630E+01
-4.000000 -14.000000 2.831793E+01
-4.000000 -16.000000 2.692331E+01
-4.000000 -18.000000 2.945056E+01
-4.000000 -20.000000 3.738264E+01
-4.000000 -22.000000 4.851147E+01
-4.000000 -24.000000 5.386244E+01
-4.000000 -26.000000 4.992204E+01
-4.000000 -28.000000 4.176582E+01
-4.000000 -30.000000 3.468007E+01
-4.000000 -32.000000 2.957205E+01
-4.000000 -34.000000 2.435052E+01
-4.000000 -36.000000 2.809133E+01
-4.000000 -38.000000 3.805056E+01
-4.000000 -40.000000 5.055224E+01
-2.000000 40.000000 2.398222E+01
-2.000000 38.000000 3.792018E+01
-2.000000 36.000000 4.109827E+01
-2.000000 34.000000 3.230385E+01
-2.000000 32.000000 5.422705E+00
-2.000000 30.000000 -2.215828E+01
-2.000000 28.000000 -3.528031E+01
-2.000000 26.000000 -3.488183E+01
-2.000000 24.000000 -3.744268E+01
-2.000000 22.000000 -3.933028E+01
-2.000000 20.000000 -3.290320E+01
-2.000000 18.000000 -1.840904E+01
-2.000000 16.000000 -1.420797E+00
-2.000000 14.000000 1.320072E+01
-2.000000 12.000000 2.381528E+01
-2.000000 10.000000 3.554852E+01
-2.000000 8.000000 4.491430E+01
-2.000000 6.000000 4.165094E+01
-2.000000 4.000000 1.703695E+01
-2.000000 2.000000 -9.815506E+00
-2.000000 0.000000 -2.244643E+01
-2.000000 -2.000000 -1.802403E+01
-2.000000 -4.000000 -8.924347E+00
-2.000000 -6.000000 -5.093061E+00
-2.000000 -8.000000 -1.821373E+00
-2.000000 -10.000000 4.552083E+00
-2.000000 -12.000000 1.098532E+01
-2.000000 -14.000000 1.114095E+01
-2.000000 -16.000000 1.079858E+01
-2.000000 -18.000000 1.512119E+01
-2.000000 -20.000000 2.459582E+01
-2.000000 -22.000000 3.637169E+01
-2.000000 -24.000000 4.653655E+01
-2.000000 -26.000000 4.825803E+01
-2.000000 -28.000000 4.410978E+01
-2.000000 -30.000000 4.055580E+01
-2.000000 -32.000000 3.863981E+01
-2.000000 -34.000000 3.305780E+01
-2.000000 -36.000000 3.252114E+01
-2.000000 -38.000000 3.799106E+01
-2.000000 -40.000000 4.737678E+01
0.000000 40.000000 2.135746E+01
0.000000 38.000000 3.152291E+01
0.000000 36.000000 3.021026E+01
0.000000 34.000000 1.796797E+01
0.000000 32.000000 -5.482499E+00
0.000000 30.000000 -2.359462E+01
0.000000 28.000000 -3.015240E+01
0.000000 26.000000 -2.557750E+01
0.000000 24.000000 -2.191130E+01
0.000000 22.000000 -2.075501E+01
0.000000 20.000000 -1.308176E+01
0.000000 18.000000 -1.909911E+00
0.000000 16.000000 1.135825E+01
0.000000 14.000000 2.770607E+01
0.000000 12.000000 4.135164E+01
0.000000 10.000000 5.537032E+01
0.000000 8.000000 6.296812E+01
0.000000 6.000000 5.352215E+01
0.000000 4.000000 2.123201E+01
0.000000 2.000000 -1.018011E+01
0.000000 0.000000 -2.651963E+01
0.000000 -2.000000 -2.481040E+01
0.000000 -4.000000 -1.627597E+01
0.000000 -6.000000 -1.085638E+01
0.000000 -8.000000 -9.307399E+00
0.000000 -10.000000 -5.695805E+00
0.000000 -12.000000 1.350442E+00
0.000000 -14.000000 3.237638E+00
0.000000 -16.000000 2.235770E+00
0.000000 -18.000000 4.106272E+00
0.000000 -20.000000 1.242709E+01
0.000000 -22.000000 2.296180E+01
0.000000 -24.000000 3.490050E+01
0.000000 -26.000000 4.097618E+01
0.000000 -28.000000 4.148127E+01
0.000000 -30.000000 4.179684E+01
0.000000 -32.000000 4.212623E+01
0.000000 -34.000000 3.635877E+01
0.000000 -36.000000 3.408269E+01
0.000000 -38.000000 3.743215E+01
0.000000 -40.000000 4.574475E+01
2.000000 40.000000 1.846868E+01
2.000000 38.000000 2.589542E+01
2.000000 36.000000 2.048431E+01
2.000000 34.000000 3.918115E+00
2.000000 32.000000 -1.828656E+01
2.000000 30.000000 -2.689350E+01
2.000000 28.000000 -2.527329E+01
2.000000 26.000000 -1.968561E+01
2.000000 24.000000 -1.312171E+01
2.000000 22.000000 -1.038703E+01
2.000000 20.000000 -4.325660E+00
2.000000 18.000000 4.161381E+00
2.000000 16.000000 1.661930E+01
2.000000 14.000000 3.454496E+01
2.000000 12.000000 5.049416E+01
2.000000 10.000000 6.425877E+01
2.000000 8.000000 6.696139E+01
2.000000 6.000000 5.214586E+01
2.000000 4.000000 2.045439E+01
2.000000 2.000000 -5.764469E+00
2.000000 0.000000 -1.901659E+01
2.000000 -2.000000 -1.822675E+01
2.000000 -4.000000 -1.177634E+01
2.000000 -6.000000 -4.941620E+00
2.000000 -8.000000 -4.611700E+00
2.000000 -10.000000 -4.196140E+00
2.000000 -12.000000 1.826025E+00
2.000000 -14.000000 5.451556E+00
2.000000 -16.000000 3.173252E+00
2.000000 -18.000000 -2.629652E-01
2.000000 -20.000000 4.360266E+00
2.000000 -22.000000 1.342124E+01
2.000000 -24.000000 2.354029E+01
2.000000 -26.000000 3.052828E+01
2.000000 -28.000000 3.477574E+01
2.000000 -30.000000 3.836922E+01
2.000000 -32.000000 3.921770E+01
2.000000 -34.000000 3.274984E+01
2.000000 -36.000000 3.130039E+01
2.000000 -38.000000 3.586989E+01
2.000000 -40.000000 4.577339E+01
4.000000 40.000000 1.743468E+01
4.000000 38.000000 2.266823E+01
4.000000 36.000000 1.337649E+01
4.000000 34.000000 -7.295512E+00
4.000000 32.000000 -3.004054E+01
4.000000 30.000000 -3.328600E+01
4.000000 28.000000 -2.602106E+01
4.000000 26.000000 -1.998749E+01
4.000000 24.000000 -1.260952E+01
4.000000 22.000000 -9.799052E+00
4.000000 20.000000 -7.219004E+00
4.000000 18.000000 -1.385344E+00
4.000000 16.000000 1.073679E+01
4.000000 14.000000 2.883411E+01
4.000000 12.000000 4.879857E+01
4.000000 10.000000 6.395123E+01
4.000000 8.000000 6.105843E+01
4.000000 6.000000 4.470835E+01
4.000000 4.000000 2.175010E+01
4.000000 2.000000 7.522992E+00
4.000000 0.000000 3.182389E+00
4.000000 -2.000000 4.912811E+00
4.000000 -4.000000 7.730599E+00
4.000000 -6.000000 1.040888E+01
4.000000 -8.000000 6.324676E+00
4.000000 -10.000000 2.252953E+00
4.000000 -12.000000 5.403129E+00
4.000000 -14.000000 9.826588E+00
4.000000 -16.000000 7.148742E+00
4.000000 -18.000000 1.424788E+00
4.000000 -20.000000 2.293603E+00
4.000000 -22.000000 9.226850E+00
4.000000 -24.000000 1.776922E+01
4.000000 -26.000000 2.424413E+01
4.000000 -28.000000 2.935379E+01
4.000000 -30.000000 3.296942E+01
4.000000 -32.000000 3.329459E+01
4.000000 -34.000000 2.595458E+01
4.000000 -36.000000 2.564703E+01
4.000000 -38.000000 3.292198E+01
4.000000 -40.000000 4.588923E+01
6.000000 40.000000 1.897070E+01
6.000000 38.000000 2.231083E+01
6.000000 36.000000 9.664217E+00
6.000000 34.000000 -1.404950E+01
6.000000 32.000000 -3.822160E+01
6.000000 30.000000 -4.192352E+01
6.000000 28.000000 -3.428673E+01
6.000000 26.000000 -2.686529E+01
6.000000 24.000000 -1.863832E+01
6.000000 22.000000 -1.399783E+01
6.000000 20.000000 -1.213366E+01
6.000000 18.000000 -8.976501E+00
6.000000 16.000000 9.923691E-01
6.000000 14.000000 1.905160E+01
6.000000 12.000000 4.153673E+01
6.000000 10.000000 5.582535E+01
6.000000 8.000000 4.817947E+01
6.000000 6.000000 3.332975E+01
6.000000 4.000000 2.040156E+01
6.000000 2.000000 1.966284E+01
6.000000 0.000000 2.727881E+01
6.000000 -2.000000 3.353270E+01
6.000000 -4.000000 3.405039E+01
6.000000 -6.000000 2.919515E+01
6.000000 -8.000000 1.681104E+01
6.000000 -10.000000 6.508197E+00
6.000000 -12.000000 7.408215E+00
6.000000 -14.000000 1.329629E+01
6.000000 -16.000000 1.280286E+01
6.000000 -18.000000 8.659032E+00
6.000000 -20.000000 8.164750E+00
6.000000 -22.000000 1.377113E+01
6.000000 -24.000000 2.131157E+01
6.000000 -26.000000 2.608827E+01
6.000000 -28.000000 2.910867E+01
6.000000 -30.000000 2.987122E+01
6.000000 -32.000000 2.900973E+01
6.000000 -34.000000 2.014624E+01
6.000000 -36.000000 1.924157E+01
6.000000 -38.000000 2.848040E+01
6.000000 -40.000000 4.447460E+01
8.000000 40.000000 2.204565E+01
8.000000 38.000000 2.614187E+01
8.000000 36.000000 1.324534E+01
8.000000 34.000000 -1.354957E+01
8.000000 32.000000 -4.198647E+01
8.000000 30.000000 -5.078095E+01
8.000000 28.000000 -4.712776E+01
8.000000 26.000000 -3.826535E+01
8.000000 24.000000 -2.801581E+01
8.000000 22.000000 -1.952266E+01
8.000000 20.000000 -1.477262E+01
8.000000 18.000000 -1.306079E+01
8.000000 16.000000 -7.674284E+00
8.000000 14.000000 7.551067E+00
8.000000 12.000000 2.824588E+01
8.000000 10.000000 3.844373E+01
8.000000 8.000000 2.789687E+01
8.000000 6.000000 1.727816E+01
8.000000 4.000000 1.375435E+01
8.000000 2.000000 2.484556E+01
8.000000 0.000000 4.530071E+01
8.000000 -2.000000 6.052974E+01
8.000000 -4.000000 6.263989E+01
8.000000 -6.000000 5.000141E+01
8.000000 -8.000000 2.684692E+01
8.000000 -10.000000 8.937051E+00
8.000000 -12.000000 8.702192E+00
8.000000 -14.000000 1.634966E+01
8.000000 -16.000000 2.117587E+01
8.000000 -18.000000 2.078768E+01
8.000000 -20.000000 2.164068E+01
8.000000 -22.000000 2.731007E+01
8.000000 -24.000000 3.268508E+01
8.000000 -26.000000 3.315864E+01
8.000000 -28.000000 3.290487E+01
8.000000 -30.000000 3.154052E+01
8.000000 -32.000000 2.833293E+01
8.000000 -34.000000 1.703815E+01
8.000000 -36.000000 1.409254E+01
8.000000 -38.000000 2.374098E+01
8.000000 -40.000000 4.145091E+01
10.000000 40.000000 2.636989E+01
10.000000 38.000000 3.351987E+01
10.000000 36.000000 2.356531E+01
10.000000 34.000000 -4.165394E+00
10.000000 32.000000 -3.730636E+01
10.000000 30.000000 -5.381869E+01
10.000000 28.000000 -5.815043E+01
10.000000 26.000000 -5.008846E+01
10.000000 24.000000 -3.951757E+01
10.000000 22.000000 -2.769432E+01
10.000000 20.000000 -1.786470E+01
10.000000 18.000000 -1.577070E+01
10.000000 16.000000 -1.713725E+01
10.000000 14.000000 -1.095731E+01
10.000000 12.000000 5.989962E-01
10.000000 10.000000 5.909305E+00
10.000000 8.000000 1.278073E+00
10.000000 6.000000 -1.634811E+00
10.000000 4.000000 4.350659E+00
10.000000 2.000000 2.579929E+01
10.000000 0.000000 5.951264E+01
10.000000 -2.000000 8.840031E+01
10.000000 -4.000000 9.712171E+01
10.000000 -6.000000 7.792400E+01
10.000000 -8.000000 4.283685E+01
10.000000 -10.000000 1.501240E+01
10.000000 -12.000000 1.189475E+01
10.000000 -14.000000 2.213823E+01
10.000000 -16.000000 3.245703E+01
10.000000 -18.000000 3.616013E+01
10.000000 -20.000000 3.802102E+01
10.000000 -22.000000 4.297502E+01
10.000000 -24.000000 4.500843E+01
10.000000 -26.000000 4.002343E+01
10.000000 -28.000000 3.673005E+01
10.000000 -30.000000 3.373421E+01
10.000000 -32.000000 2.822020E+01
10.000000 -34.000000 1.555860E+01
10.000000 -36.000000 1.135835E+01
10.000000 -38.000000 2.079047E+01
10.000000 -40.000000 3.897938E+01
12.000000 40.000000 3.237983E+01
12.000000 38.000000 4.258540E+01
12.000000 36.000000 3.623495E+01
12.000000 34.000000 1.253286E+01
12.000000 32.000000 -2.191154E+01
12.000000 30.000000 -4.566122E+01
12.000000 28.000000 -5.993697E+01
12.000000 26.000000 -5.952394E+01
12.000000 24.000000 -5.318014E+01
12.000000 22.000000 -3.928149E+01
12.000000 20.000000 -2.573101E+01
12.000000 18.000000 -2.210105E+01
12.000000 16.000000 -2.856404E+01
12.000000 14.000000 -3.448056E+01
12.000000 12.000000 -3.611626E+01
12.000000 10.000000 -3.504594E+01
12.000000 8.000000 -2.777121E+01
12.000000 6.000000 -1.906193E+01
12.000000 4.000000 -2.742397E+00
12.000000 2.000000 2.756014E+01
12.000000 0.000000 7.290723E+01
12.000000 -2.000000 1.159235E+02
12.000000 -4.000000 1.330790E+02
12.000000 -6.000000 1.097029E+02
12.000000 -8.000000 6.313318E+01
12.000000 -10.000000 2.518502E+01
12.000000 -12.000000 1.907802E+01
12.000000 -14.000000 3.261312E+01
12.000000 -16.000000 4.647591E+01
12.000000 -18.000000 5.197329E+01
12.000000 -20.000000 5.083583E+01
12.000000 -22.000000 5.228461E+01
12.000000 -24.000000 5.063082E+01
12.000000 -26.000000 4.171964E+01
12.000000 -28.000000 3.651044E+01
12.000000 -30.000000 3.158785E+01
12.000000 -32.000000 2.513810E+01
12.000000 -34.000000 1.364411E+01
12.000000 -36.000000 1.085321E+01
12.000000 -38.000000 2.106783E+01
12.000000 -40.000000 3.972924E+01
14.000000 40.000000 3.923187E+01
14.000000 38.000000 5.346057E+01
14.000000 36.000000 5.104299E+01
14.000000 34.000000 3.271438E+01
14.000000 32.000000 -7.479144E-01
14.000000 30.000000 -2.925968E+01
14.000000 28.000000 -5.324254E+01
14.000000 26.000000 -6.427822E+01
14.000000 24.000000 -6.543225E+01
14.000000 22.000000 -5.161251E+01
14.000000 20.000000 -3.624232E+01
14.000000 18.000000 -2.944990E+01
14.000000 16.000000 -3.730338E+01
14.000000 14.000000 -5.239389E+01
14.000000 12.000000 -6.426111E+01
14.000000 10.000000 -6.802963E+01
14.000000 8.000000 -5.309997E+01
14.000000 6.000000 -3.295212E+01
14.000000 4.000000 -5.719637E+00
14.000000 2.000000 3.267946E+01
14.000000 0.000000 8.471551E+01
14.000000 -2.000000 1.363028E+02
14.000000 -4.000000 1.583822E+02
14.000000 -6.000000 1.343156E+02
14.000000 -8.000000 8.066901E+01
14.000000 -10.000000 3.445249E+01
14.000000 -12.000000 2.725509E+01
14.000000 -14.000000 4.526477E+01
14.000000 -16.000000 6.159185E+01
14.000000 -18.000000 6.325640E+01
14.000000 -20.000000 5.448393E+01
14.000000 -22.000000 4.846351E+01
14.000000 -24.000000 4.303839E+01
14.000000 -26.000000 3.470724E+01
14.000000 -28.000000 3.064329E+01
14.000000 -30.000000 2.664429E+01
14.000000 -32.000000 2.111615E+01
14.000000 -34.000000 1.147541E+01
14.000000 -36.000000 1.164070E+01
14.000000 -38.000000 2.428191E+01
14.000000 -40.000000 4.427486E+01
16.000000 40.000000 4.631663E+01
16.000000 38.000000 6.558092E+01
16.000000 36.000000 6.762007E+01
16.000000 34.000000 5.245150E+01
16.000000 32.000000 1.944027E+01
16.000000 30.000000 -1.237317E+01
16.000000 28.000000 -4.352160E+01
16.000000 26.000000 -6.302616E+01
16.000000 24.000000 -7.019672E+01
16.000000 22.000000 -5.785184E+01
16.000000 20.000000 -4.039493E+01
16.000000 18.000000 -2.883029E+01
16.000000 16.000000 -3.569731E+01
16.000000 14.000000 -5.463915E+01
16.000000 12.000000 -7.356582E+01
16.000000 10.000000 -8.224576E+01
16.000000 8.000000 -6.679296E+01
16.000000 6.000000 -4.163489E+01
16.000000 4.000000 -6.723586E+00
16.000000 2.000000 3.746635E+01
16.000000 0.000000 9.117234E+01
16.000000 -2.000000 1.418286E+02
16.000000 -4.000000 1.632672E+02
16.000000 -6.000000 1.397634E+02
16.000000 -8.000000 8.580340E+01
16.000000 -10.000000 3.841289E+01
16.000000 -12.000000 3.420136E+01
16.000000 -14.000000 5.645832E+01
16.000000 -16.000000 7.314731E+01
16.000000 -18.000000 6.647423E+01
16.000000 -20.000000 4.709792E+01
16.000000 -22.000000 3.200663E+01
16.000000 -24.000000 2.415350E+01
16.000000 -26.000000 2.072126E+01
16.000000 -28.000000 2.085941E+01
16.000000 -30.000000 2.065132E+01
16.000000 -32.000000 1.767387E+01
16.000000 -34.000000 9.974830E+00
16.000000 -36.000000 1.384166E+01
16.000000 -38.000000 2.962815E+01
16.000000 -40.000000 5.112866E+01
18.000000 40.000000 5.398228E+01
18.000000 38.000000 7.642097E+01
18.000000 36.000000 8.279114E+01
18.000000 34.000000 6.950245E+01
18.000000 32.000000 3.420806E+01
18.000000 30.000000 -2.646723E+00
18.000000 28.000000 -3.631509E+01
18.000000 26.000000 -5.549133E+01
18.000000 24.000000 -6.168822E+01
18.000000 22.000000 -5.011273E+01
18.000000 20.000000 -3.098828E+01
18.000000 18.000000 -1.704273E+01
18.000000 16.000000 -2.190004E+01
18.000000 14.000000 -4.040973E+01
18.000000 12.000000 -6.382943E+01
18.000000 10.000000 -7.713739E+01
18.000000 8.000000 -6.761912E+01
18.000000 6.000000 -4.478362E+01
18.000000 4.000000 -7.439249E+00
18.000000 2.000000 3.898851E+01
18.000000 0.000000 8.869855E+01
18.000000 -2.000000 1.288534E+02
18.000000 -4.000000 1.448994E+02
18.000000 -6.000000 1.230015E+02
18.000000 -8.000000 7.701242E+01
18.000000 -10.000000 3.789528E+01
18.000000 -12.000000 3.966977E+01
18.000000 -14.000000 6.376460E+01
18.000000 -16.000000 7.763081E+01
18.000000 -18.000000 6.119658E+01
18.000000 -20.000000 3.129099E+01
18.000000 -22.000000 1.062965E+01
18.000000 -24.000000 3.826422E+00
18.000000 -26.000000 6.064243E+00
18.000000 -28.000000 9.840769E+00
18.000000 -30.000000 1.265408E+01
18.000000 -32.000000 1.294470E+01
18.000000 -34.000000 9.349460E+00
18.000000 -36.000000 1.839202E+01
18.000000 -38.000000 3.608311E+01
18.000000 -40.000000 5.755275E+01
20.000000 40.000000 6.019857E+01
20.000000 38.000000 8.403034E+01
20.000000 36.000000 9.452692E+01
20.000000 34.000000 8.322639E+01
20.000000 32.000000 4.448517E+01
20.000000 30.000000 2.572800E+00
20.000000 28.000000 -3.033814E+01
20.000000 26.000000 -4.383871E+01
20.000000 24.000000 -4.379406E+01
20.000000 22.000000 -2.995115E+01
20.000000 20.000000 -9.205636E+00
20.000000 18.000000 2.208072E+00
20.000000 16.000000 -2.574436E+00
20.000000 14.000000 -2.002218E+01
20.000000 12.000000 -4.517314E+01
20.000000 10.000000 -6.344684E+01
20.000000 8.000000 -6.251713E+01
20.000000 6.000000 -4.407936E+01
20.000000 4.000000 -7.833708E+00
20.000000 2.000000 3.543425E+01
20.000000 0.000000 7.530059E+01
20.000000 -2.000000 1.027416E+02
20.000000 -4.000000 1.113795E+02
20.000000 -6.000000 9.484640E+01
20.000000 -8.000000 6.456009E+01
20.000000 -10.000000 4.038223E+01
20.000000 -12.000000 4.939044E+01
20.000000 -14.000000 7.168496E+01
20.000000 -16.000000 7.698615E+01
20.000000 -18.000000 5.033506E+01
20.000000 -20.000000 1.383087E+01
20.000000 -22.000000 -8.032276E+00
20.000000 -24.000000 -1.154246E+01
20.000000 -26.000000 -4.805031E+00
20.000000 -28.000000 -5.506649E-01
20.000000 -30.000000 2.771070E+00
20.000000 -32.000000 5.583574E+00
20.000000 -34.000000 7.096767E+00
20.000000 -36.000000 2.232395E+01
20.000000 -38.000000 4.168002E+01
20.000000 -40.000000 6.222157E+01
22.000000 40.000000 6.137536E+01
22.000000 38.000000 8.712098E+01
22.000000 36.000000 1.020406E+02
22.000000 34.000000 9.437343E+01
22.000000 32.000000 5.444131E+01
22.000000 30.000000 1.062522E+01
22.000000 28.000000 -2.201845E+01
22.000000 26.000000 -3.419409E+01
22.000000 24.000000 -2.882016E+01
22.000000 22.000000 -8.185824E+00
22.000000 20.000000 1.568111E+01
22.000000 18.000000 2.424508E+01
22.000000 16.000000 1.560121E+01
22.000000 14.000000 -4.402258E+00
22.000000 12.000000 -3.221507E+01
22.000000 10.000000 -5.523592E+01
22.000000 8.000000 -6.029848E+01
22.000000 6.000000 -4.572112E+01
22.000000 4.000000 -1.250737E+01
22.000000 2.000000 2.541114E+01
22.000000 0.000000 5.560067E+01
22.000000 -2.000000 7.416943E+01
22.000000 -4.000000 7.917249E+01
22.000000 -6.000000 7.127475E+01
22.000000 -8.000000 5.903282E+01
22.000000 -10.000000 5.220898E+01
22.000000 -12.000000 6.890976E+01
22.000000 -14.000000 8.806361E+01
22.000000 -16.000000 8.117530E+01
22.000000 -18.000000 4.399024E+01
22.000000 -20.000000 1.697385E+00
22.000000 -22.000000 -2.148888E+01
22.000000 -24.000000 -2.149779E+01
22.000000 -26.000000 -1.140474E+01
22.000000 -28.000000 -8.120361E+00
22.000000 -30.000000 -6.688726E+00
22.000000 -32.000000 -3.881613E+00
22.000000 -34.000000 4.919472E-01
22.000000 -36.000000 2.070873E+01
22.000000 -38.000000 4.366480E+01
22.000000 -40.000000 6.469104E+01
24.000000 40.000000 5.600401E+01
24.000000 38.000000 8.481660E+01
24.000000 36.000000 1.054651E+02
24.000000 34.000000 1.042537E+02
24.000000 32.000000 6.504922E+01
24.000000 30.000000 1.878734E+01
24.000000 28.000000 -1.651413E+01
24.000000 26.000000 -3.137792E+01
24.000000 24.000000 -2.338029E+01
24.000000 22.000000 6.138511E+00
24.000000 20.000000 3.566110E+01
24.000000 18.000000 4.338953E+01
24.000000 16.000000 2.854251E+01
24.000000 14.000000 2.312893E+00
24.000000 12.000000 -3.124710E+01
24.000000 10.000000 -5.912296E+01
24.000000 8.000000 -6.613206E+01
24.000000 6.000000 -5.293261E+01
24.000000 4.000000 -2.315085E+01
24.000000 2.000000 9.360155E+00
24.000000 0.000000 3.603596E+01
24.000000 -2.000000 5.485481E+01
24.000000 -4.000000 6.522292E+01
24.000000 -6.000000 6.582755E+01
24.000000 -8.000000 6.331348E+01
24.000000 -10.000000 6.857297E+01
24.000000 -12.000000 9.146040E+01
24.000000 -14.000000 1.099965E+02
24.000000 -16.000000 9.513850E+01
24.000000 -18.000000 4.729833E+01
24.000000 -20.000000 -2.901013E+00
24.000000 -22.000000 -2.786973E+01
24.000000 -24.000000 -2.532200E+01
24.000000 -26.000000 -1.304900E+01
24.000000 -28.000000 -1.087116E+01
24.000000 -30.000000 -1.278778E+01
24.000000 -32.000000 -1.280976E+01
24.000000 -34.000000 -8.393787E+00
24.000000 -36.000000 1.385839E+01
24.000000 -38.000000 3.990641E+01
24.000000 -40.000000 6.245910E+01
26.000000 40.000000 4.483223E+01
26.000000 38.000000 7.607231E+01
26.000000 36.000000 1.027291E+02
26.000000 34.000000 1.100393E+02
26.000000 32.000000 7.283067E+01
26.000000 30.000000 2.195054E+01
26.000000 28.000000 -1.856881E+01
26.000000 26.000000 -3.521306E+01
26.000000 24.000000 -2.618894E+01
26.000000 22.000000 1.022624E+01
26.000000 20.000000 4.770132E+01
26.000000 18.000000 5.535963E+01
26.000000 16.000000 3.454296E+01
26.000000 14.000000 2.541126E+00
26.000000 12.000000 -3.609553E+01
26.000000 10.000000 -6.861962E+01
26.000000 8.000000 -7.657446E+01
26.000000 6.000000 -6.410717E+01
26.000000 4.000000 -3.627215E+01
26.000000 2.000000 -6.332931E+00
26.000000 0.000000 2.259129E+01
26.000000 -2.000000 5.026889E+01
26.000000 -4.000000 7.177434E+01
26.000000 -6.000000 7.864699E+01
26.000000 -8.000000 7.599315E+01
26.000000 -10.000000 8.228517E+01
26.000000 -12.000000 1.051137E+02
26.000000 -14.000000 1.228943E+02
26.000000 -16.000000 1.047751E+02
26.000000 -18.000000 5.065576E+01
26.000000 -20.000000 -4.232571E+00
26.000000 -22.000000 -2.764284E+01
26.000000 -24.000000 -2.127065E+01
26.000000 -26.000000 -7.806019E+00
26.000000 -28.000000 -7.562510E+00
26.000000 -30.000000 -1.335838E+01
26.000000 -32.000000 -1.770258E+01
26.000000 -34.000000 -1.512792E+01
26.000000 -36.000000 5.649608E+00
26.000000 -38.000000 3.122766E+01
26.000000 -40.000000 5.411208E+01
28.000000 40.000000 3.051907E+01
28.000000 38.000000 5.978448E+01
28.000000 36.000000 8.905239E+01
28.000000 34.000000 1.031584E+02
28.000000 32.000000 7.190162E+01
28.000000 30.000000 2.123093E+01
28.000000 28.000000 -2.285855E+01
28.000000 26.000000 -4.161316E+01
28.000000 24.000000 -3.418650E+01
28.000000 22.000000 4.270986E+00
28.000000 20.000000 4.641726E+01
28.000000 18.000000 5.644346E+01
28.000000 16.000000 3.471648E+01
28.000000 14.000000 1.607005E+00
28.000000 12.000000 -3.835526E+01
28.000000 10.000000 -7.415462E+01
28.000000 8.000000 -8.327801E+01
28.000000 6.000000 -7.194563E+01
28.000000 4.000000 -4.546369E+01
28.000000 2.000000 -1.634985E+01
28.000000 0.000000 1.670747E+01
28.000000 -2.000000 5.652034E+01
28.000000 -4.000000 8.905140E+01
28.000000 -6.000000 9.917098E+01
28.000000 -8.000000 9.005317E+01
28.000000 -10.000000 8.651285E+01
28.000000 -12.000000 1.011918E+02
28.000000 -14.000000 1.157008E+02
28.000000 -16.000000 9.750010E+01
28.000000 -18.000000 4.482128E+01
28.000000 -20.000000 -6.937662E+00
28.000000 -22.000000 -2.521704E+01
28.000000 -24.000000 -1.162935E+01
28.000000 -26.000000 3.391032E+00
28.000000 -28.000000 7.072954E-01
28.000000 -30.000000 -7.994053E+00
28.000000 -32.000000 -1.582914E+01
28.000000 -34.000000 -1.678255E+01
28.000000 -36.000000 -1.184776E+00
28.000000 -38.000000 2.069697E+01
28.000000 -40.000000 4.135575E+01
30.000000 40.000000 1.470736E+01
30.000000 38.000000 3.639519E+01
30.000000 36.000000 6.341621E+01
30.000000 34.000000 8.039250E+01
30.000000 32.000000 5.801065E+01
30.000000 30.000000 1.522467E+01
30.000000 28.000000 -2.611750E+01
30.000000 26.000000 -4.524554E+01
30.000000 24.000000 -4.086142E+01
30.000000 22.000000 -5.278928E+00
30.000000 20.000000 3.602493E+01
30.000000 18.000000 4.867866E+01
30.000000 16.000000 2.978616E+01
30.000000 14.000000 -2.128181E-01
30.000000 12.000000 -3.731759E+01
30.000000 10.000000 -7.249331E+01
30.000000 8.000000 -8.361298E+01
30.000000 6.000000 -7.246537E+01
30.000000 4.000000 -4.696927E+01
30.000000 2.000000 -1.780351E+01
30.000000 0.000000 1.832258E+01
30.000000 -2.000000 6.464370E+01
30.000000 -4.000000 1.030087E+02
30.000000 -6.000000 1.137409E+02
30.000000 -8.000000 9.651380E+01
30.000000 -10.000000 7.908072E+01
30.000000 -12.000000 8.029977E+01
30.000000 -14.000000 8.821117E+01
30.000000 -16.000000 7.232079E+01
30.000000 -18.000000 2.863859E+01
30.000000 -20.000000 -1.192258E+01
30.000000 -22.000000 -2.161875E+01
30.000000 -24.000000 -1.381145E+00
30.000000 -26.000000 1.507327E+01
30.000000 -28.000000 1.075251E+01
30.000000 -30.000000 1.447023E+00
30.000000 -32.000000 -8.356502E+00
30.000000 -34.000000 -1.356323E+01
30.000000 -36.000000 -5.472589E+00
30.000000 -38.000000 1.079806E+01
30.000000 -40.000000 2.712377E+01
32.000000 40.000000 -1.949187E+00
32.000000 38.000000 8.920207E+00
32.000000 36.000000 2.984524E+01
32.000000 34.000000 4.557470E+01
32.000000 32.000000 3.044991E+01
32.000000 30.000000 -1.049739E+00
32.000000 28.000000 -3.093280E+01
32.000000 26.000000 -4.273678E+01
32.000000 24.000000 -3.960988E+01
32.000000 22.000000 -1.395414E+01
32.000000 20.000000 1.903298E+01
32.000000 18.000000 3.216241E+01
32.000000 16.000000 2.041359E+01
32.000000 14.000000 -2.585485E+00
32.000000 12.000000 -3.341449E+01
32.000000 10.000000 -6.408779E+01
32.000000 8.000000 -7.391134E+01
32.000000 6.000000 -6.091416E+01
32.000000 4.000000 -3.647345E+01
32.000000 2.000000 -9.310089E+00
32.000000 0.000000 2.577103E+01
32.000000 -2.000000 7.116087E+01
32.000000 -4.000000 1.092044E+02
32.000000 -6.000000 1.177071E+02
32.000000 -8.000000 9.303355E+01
32.000000 -10.000000 6.264064E+01
32.000000 -12.000000 5.015295E+01
32.000000 -14.000000 4.873753E+01
32.000000 -16.000000 3.525481E+01
32.000000 -18.000000 4.196722E+00
32.000000 -20.000000 -2.074299E+01
32.000000 -22.000000 -1.969993E+01
32.000000 -24.000000 3.284397E+00
32.000000 -26.000000 2.127662E+01
32.000000 -28.000000 1.882063E+01
32.000000 -30.000000 1.083068E+01
32.000000 -32.000000 2.481298E-01
32.000000 -34.000000 -7.793099E+00
32.000000 -36.000000 -6.432996E+00
32.000000 -38.000000 3.696481E+00
32.000000 -40.000000 1.442891E+01
34.000000 40.000000 -1.636561E+01
34.000000 38.000000 -1.773659E+01
34.000000 36.000000 -8.072812E+00
34.000000 34.000000 8.714204E-01
34.000000 32.000000 -7.837622E+00
34.000000 30.000000 -2.535122E+01
34.000000 28.000000 -3.923589E+01
34.000000 26.000000 -4.023701E+01
34.000000 24.000000 -3.613059E+01
34.000000 22.000000 -2.070574E+01
34.000000 20.000000 3.948264E+00
34.000000 18.000000 1.648608E+01
34.000000 16.000000 1.169148E+01
34.000000 14.000000 -4.283134E+00
34.000000 12.000000 -2.844526E+01
34.000000 10.000000 -5.173550E+01
34.000000 8.000000 -5.466813E+01
34.000000 6.000000 -3.970985E+01
34.000000 4.000000 -1.710105E+01
34.000000 2.000000 5.342053E+00
34.000000 0.000000 3.453183E+01
34.000000 -2.000000 7.298442E+01
34.000000 -4.000000 1.076869E+02
34.000000 -6.000000 1.120881E+02
34.000000 -8.000000 8.130566E+01
34.000000 -10.000000 4.293557E+01
34.000000 -12.000000 2.111221E+01
34.000000 -14.000000 1.208905E+01
34.000000 -16.000000 -6.010599E-01
34.000000 -18.000000 -2.067370E+01
34.000000 -20.000000 -3.290536E+01
34.000000 -22.000000 -2.323883E+01
34.000000 -24.000000 1.946851E+00
34.000000 -26.000000 2.073764E+01
34.000000 -28.000000 2.037631E+01
34.000000 -30.000000 1.420927E+01
34.000000 -32.000000 5.939570E+00
34.000000 -34.000000 -1.225622E+00
34.000000 -36.000000 -3.721120E+00
34.000000 -38.000000 6.134005E-01
34.000000 -40.000000 4.999390E+00
36.000000 40.000000 -2.671324E+01
36.000000 38.000000 -4.022358E+01
36.000000 36.000000 -4.657864E+01
36.000000 34.000000 -4.857956E+01
36.000000 32.000000 -4.896754E+01
36.000000 30.000000 -4.896245E+01
36.000000 28.000000 -4.677864E+01
36.000000 26.000000 -4.062151E+01
36.000000 24.000000 -3.460071E+01
36.000000 22.000000 -2.331755E+01
36.000000 20.000000 -4.849644E+00
36.000000 18.000000 7.380795E+00
36.000000 16.000000 6.578972E+00
36.000000 14.000000 -4.829800E+00
36.000000 12.000000 -2.293610E+01
36.000000 10.000000 -3.810991E+01
36.000000 8.000000 -3.606075E+01
36.000000 6.000000 -2.096689E+01
36.000000 4.000000 -1.557516E+00
36.000000 2.000000 1.576993E+01
36.000000 0.000000 3.790783E+01
36.000000 -2.000000 6.665942E+01
36.000000 -4.000000 9.506190E+01
36.000000 -6.000000 9.657397E+01
36.000000 -8.000000 6.501978E+01
36.000000 -10.000000 2.625187E+01
36.000000 -12.000000 1.333375E+00
36.000000 -14.000000 -1.073882E+01
36.000000 -16.000000 -2.242146E+01
36.000000 -18.000000 -3.455021E+01
36.000000 -20.000000 -3.896419E+01
36.000000 -22.000000 -2.503476E+01
36.000000 -24.000000 2.618504E-01
36.000000 -26.000000 1.604993E+01
36.000000 -28.000000 1.434826E+01
36.000000 -30.000000 9.312842E+00
36.000000 -32.000000 6.727605E+00
36.000000 -34.000000 4.442835E+00
36.000000 -36.000000 1.121107E+00
36.000000 -38.000000 3.498621E-01
36.000000 -40.000000 -1.868584E+00
38.000000 40.000000 -3.577067E+01
38.000000 38.000000 -6.006067E+01
38.000000 36.000000 -8.064651E+01
38.000000 34.000000 -9.127388E+01
38.000000 32.000000 -8.118760E+01
38.000000 30.000000 -6.367291E+01
38.000000 28.000000 -4.842844E+01
38.000000 26.000000 -3.812550E+01
38.000000 24.000000 -3.051645E+01
38.000000 22.000000 -2.066549E+01
38.000000 20.000000 -6.798889E+00
38.000000 18.000000 5.127519E+00
38.000000 16.000000 4.937981E+00
38.000000 14.000000 -4.965523E+00
38.000000 12.000000 -1.921370E+01
38.000000 10.000000 -2.926707E+01
38.000000 8.000000 -2.644048E+01
38.000000 6.000000 -1.422879E+01
38.000000 4.000000 3.690281E-01
38.000000 2.000000 1.421548E+01
38.000000 0.000000 3.166976E+01
38.000000 -2.000000 5.068058E+01
38.000000 -4.000000 6.935319E+01
38.000000 -6.000000 7.014491E+01
38.000000 -8.000000 4.475639E+01
38.000000 -10.000000 1.225698E+01
38.000000 -12.000000 -9.871274E+00
38.000000 -14.000000 -2.030210E+01
38.000000 -16.000000 -2.770177E+01
38.000000 -18.000000 -3.381987E+01
38.000000 -20.000000 -3.115473E+01
38.000000 -22.000000 -1.538469E+01
38.000000 -24.000000 4.378323E+00
38.000000 -26.000000 1.199554E+01
38.000000 -28.000000 6.438306E+00
38.000000 -30.000000 1.675838E+00
38.000000 -32.000000 3.793452E+00
38.000000 -34.000000 7.379179E+00
38.000000 -36.000000 4.901932E+00
38.000000 -38.000000 -1.656342E-01
38.000000 -40.000000 -8.662783E+00
40.000000 40.000000 -4.383840E+01
40.000000 38.000000 -7.586831E+01
40.000000 36.000000 -1.059322E+02
40.000000 34.000000 -1.196019E+02
40.000000 32.000000 -9.729986E+01
40.000000 30.000000 -6.519477E+01
40.000000 28.000000 -4.256941E+01
40.000000 26.000000 -3.156774E+01
40.000000 24.000000 -2.337942E+01
40.000000 22.000000 -1.549933E+01
40.000000 20.000000 -6.508060E+00
40.000000 18.000000 5.797119E+00
40.000000 16.000000 5.015990E+00
40.000000 14.000000 -5.573958E+00
40.000000 12.000000 -1.871685E+01
40.000000 10.000000 -2.684530E+01
40.000000 8.000000 -2.472581E+01
40.000000 6.000000 -1.570956E+01
40.000000 4.000000 -4.882875E+00
40.000000 2.000000 5.986851E+00
40.000000 0.000000 1.920242E+01
40.000000 -2.000000 3.043056E+01
40.000000 -4.000000 3.873490E+01
40.000000 -6.000000 3.889998E+01
40.000000 -8.000000 2.276174E+01
40.000000 -10.000000 -1.570486E+00
40.000000 -12.000000 -1.944017E+01
40.000000 -14.000000 -2.634830E+01
40.000000 -16.000000 -2.790798E+01
40.000000 -18.000000 -2.747141E+01
40.000000 -20.000000 -1.800461E+01
40.000000 -22.000000 -2.127266E-02
40.000000 -24.000000 1.431068E+01
40.000000 -26.000000 1.341440E+01
40.000000 -28.000000 3.066672E+00
40.000000 -30.000000 -2.633860E+00
40.000000 -32.000000 9.527769E-01
40.000000 -34.000000 8.117511E+00
40.000000 -36.000000 6.036378E+00
40.000000 -38.000000 -2.617219E+00
40.000000 -40.000000 -1.655625E+01
42.000000 40.000000 -4.804478E+01
42.000000 38.000000 -8.343580E+01
42.000000 36.000000 -1.190334E+02
42.000000 34.000000 -1.308658E+02
42.000000 32.000000 -9.695512E+01
42.000000 30.000000 -5.474520E+01
42.000000 28.000000 -3.109349E+01
42.000000 26.000000 -2.501951E+01
42.000000 24.000000 -1.962504E+01
42.000000 22.000000 -1.380027E+01
42.000000 20.000000 -6.542516E+00
42.000000 18.000000 4.066109E+00
42.000000 16.000000 2.145940E+00
42.000000 14.000000 -9.682405E+00
42.000000 12.000000 -2.231283E+01
42.000000 10.000000 -2.856952E+01
42.000000 8.000000 -2.574637E+01
42.000000 6.000000 -1.780059E+01
42.000000 4.000000 -8.490925E+00
42.000000 2.000000 -3.185792E-01
42.000000 0.000000 9.057831E+00
42.000000 -2.000000 1.467607E+01
42.000000 -4.000000 1.454056E+01
42.000000 -6.000000 1.387356E+01
42.000000 -8.000000 5.905948E+00
42.000000 -10.000000 -1.283533E+01
42.000000 -12.000000 -2.886262E+01
42.000000 -14.000000 -3.464548E+01
42.000000 -16.000000 -3.210826E+01
42.000000 -18.000000 -2.618055E+01
42.000000 -20.000000 -1.304635E+01
42.000000 -22.000000 7.611640E+00
42.000000 -24.000000 2.208588E+01
42.000000 -26.000000 1.871039E+01
42.000000 -28.000000 4.583241E+00
42.000000 -30.000000 -2.321308E+00
42.000000 -32.000000 8.690052E-01
42.000000 -34.000000 7.704006E+00
42.000000 -36.000000 4.567791E+00
42.000000 -38.000000 -6.734518E+00
42.000000 -40.000000 -2.457124E+01
44.000000 40.000000 -4.909880E+01
44.000000 38.000000 -8.330238E+01
44.000000 36.000000 -1.168812E+02
44.000000 34.000000 -1.216266E+02
44.000000 32.000000 -8.104036E+01
44.000000 30.000000 -3.832487E+01
44.000000 28.000000 -1.993621E+01
44.000000 26.000000 -2.111179E+01
44.000000 24.000000 -2.199135E+01
44.000000 22.000000 -1.868149E+01
44.000000 20.000000 -9.790003E+00
44.000000 18.000000 -2.395235E+00
44.000000 16.000000 -5.709582E+00
44.000000 14.000000 -1.863111E+01
44.000000 12.000000 -2.983559E+01
44.000000 10.000000 -3.202085E+01
44.000000 8.000000 -2.603516E+01
44.000000 6.000000 -1.675715E+01
44.000000 4.000000 -6.623049E+00
44.000000 2.000000 -4.221759E-01
44.000000 0.000000 4.331832E+00
44.000000 -2.000000 5.952733E+00
44.000000 -4.000000 3.021908E+00
44.000000 -6.000000 2.714018E+00
44.000000 -8.000000 -1.011813E+00
44.000000 -10.000000 -1.574821E+01
44.000000 -12.000000 -3.218730E+01
44.000000 -14.000000 -4.079543E+01
44.000000 -16.000000 -3.886638E+01
44.000000 -18.000000 -3.225543E+01
44.000000 -20.000000 -1.818295E+01
44.000000 -22.000000 2.706975E+00
44.000000 -24.000000 1.881401E+01
44.000000 -26.000000 1.873201E+01
44.000000 -28.000000 5.655373E+00
44.000000 -30.000000 -1.016436E+00
44.000000 -32.000000 1.272747E+00
44.000000 -34.000000 6.053638E+00
44.000000 -36.000000 1.722302E+00
44.000000 -38.000000 -1.060288E+01
44.000000 -40.000000 -3.054766E+01
46.000000 40.000000 -4.861488E+01
46.000000 38.000000 -7.778859E+01
46.000000 36.000000 -9.945105E+01
46.000000 34.000000 -9.335615E+01
46.000000 32.000000 -5.466854E+01
46.000000 30.000000 -2.392897E+01
46.000000 28.000000 -1.547412E+01
46.000000 26.000000 -2.120367E+01
46.000000 24.000000 -2.757386E+01
46.000000 22.000000 -2.729587E+01
46.000000 20.000000 -1.824603E+01
46.000000 18.000000 -1.081921E+01
46.000000 16.000000 -1.410952E+01
46.000000 14.000000 -2.509755E+01
46.000000 12.000000 -3.293405E+01
46.000000 10.000000 -3.276952E+01
46.000000 8.000000 -2.540429E+01
46.000000 6.000000 -1.393572E+01
46.000000 4.000000 -2.107510E+00
46.000000 2.000000 2.796901E+00
46.000000 0.000000 4.001257E+00
46.000000 -2.000000 3.272386E+00
46.000000 -4.000000 8.796787E-01
46.000000 -6.000000 3.164392E+00
46.000000 -8.000000 2.194494E+00
46.000000 -10.000000 -8.205713E+00
46.000000 -12.000000 -2.447970E+01
46.000000 -14.000000 -3.684273E+01
46.000000 -16.000000 -4.158107E+01
46.000000 -18.000000 -4.050954E+01
46.000000 -20.000000 -2.855410E+01
46.000000 -22.000000 -1.152769E+01
46.000000 -24.000000 3.803032E+00
46.000000 -26.000000 8.940185E+00
46.000000 -28.000000 1.249942E+00
46.000000 -30.000000 -3.102008E+00
46.000000 -32.000000 -7.873755E-01
46.000000 -34.000000 2.931068E+00
46.000000 -36.000000 -1.205675E+00
46.000000 -38.000000 -1.258048E+01
46.000000 -40.000000 -3.264392E+01
48.000000 40.000000 -4.569633E+01
48.000000 38.000000 -6.703044E+01
48.000000 36.000000 -7.440096E+01
48.000000 34.000000 -6.088108E+01
48.000000 32.000000 -3.075175E+01
48.000000 30.000000 -1.526745E+01
48.000000 28.000000 -1.675734E+01
48.000000 26.000000 -2.504239E+01
48.000000 24.000000 -3.243248E+01
48.000000 22.000000 -3.195795E+01
48.000000 20.000000 -2.163359E+01
48.000000 18.000000 -1.102951E+01
48.000000 16.000000 -1.379781E+01
48.000000 14.000000 -2.035875E+01
48.000000 12.000000 -2.552136E+01
48.000000 10.000000 -2.725080E+01
48.000000 8.000000 -2.312417E+01
48.000000 6.000000 -1.223502E+01
48.000000 4.000000 -6.223080E-01
48.000000 2.000000 3.469469E+00
48.000000 0.000000 2.534012E+00
48.000000 -2.000000 1.154029E-01
48.000000 -4.000000 1.111941E-01
48.000000 -6.000000 6.567318E+00
48.000000 -8.000000 7.752792E+00
48.000000 -10.000000 1.662973E+00
48.000000 -12.000000 -1.220856E+01
48.000000 -14.000000 -2.624454E+01
48.000000 -16.000000 -3.828677E+01
48.000000 -18.000000 -4.394824E+01
48.000000 -20.000000 -3.659090E+01
48.000000 -22.000000 -2.327837E+01
48.000000 -24.000000 -1.004459E+01
48.000000 -26.000000 -3.039068E+00
48.000000 -28.000000 -6.412076E+00
48.000000 -30.000000 -8.420602E+00
48.000000 -32.000000 -5.546421E+00
48.000000 -34.000000 -1.606303E+00
48.000000 -36.000000 -5.065189E+00
48.000000 -38.000000 -1.419323E+01
48.000000 -40.000000 -3.132383E+01
50.000000 40.000000 -4.045203E+01
50.000000 38.000000 -5.375868E+01
50.000000 36.000000 -5.087542E+01
50.000000 34.000000 -3.644238E+01
50.000000 32.000000 -1.764663E+01
50.000000 30.000000 -1.398618E+01
50.000000 28.000000 -2.133535E+01
50.000000 26.000000 -2.883557E+01
50.000000 24.000000 -3.087347E+01
50.000000 22.000000 -2.508342E+01
50.000000 20.000000 -1.156573E+01
50.000000 18.000000 1.608550E+00
50.000000 16.000000 -1.263251E+00
50.000000 14.000000 -6.178885E+00
50.000000 12.000000 -1.204045E+01
50.000000 10.000000 -1.607803E+01
50.000000 8.000000 -1.579642E+01
50.000000 6.000000 -9.663843E+00
50.000000 4.000000 -2.407726E+00
50.000000 2.000000 -7.083109E-01
50.000000 0.000000 -3.856264E+00
50.000000 -2.000000 -7.280005E+00
50.000000 -4.000000 -5.971756E+00
50.000000 -6.000000 1.964366E+00
50.000000 -8.000000 5.720792E+00
50.000000 -10.000000 3.752467E+00
50.000000 -12.000000 -5.679711E+00
50.000000 -14.000000 -1.708716E+01
50.000000 -16.000000 -3.029544E+01
50.000000 -18.000000 -3.847825E+01
50.000000 -20.000000 -3.488050E+01
50.000000 -22.000000 -2.413729E+01
50.000000 -24.000000 -1.311845E+01
50.000000 -26.000000 -8.149445E+00
50.000000 -28.000000 -1.153639E+01
50.000000 -30.000000 -1.332884E+01
50.000000 -32.000000 -1.017514E+01
50.000000 -34.000000 -5.675373E+00
50.000000 -36.000000 -9.037593E+00
50.000000 -38.000000 -1.564719E+01
50.000000 -40.000000 -2.845445E+01
52.000000 40.000000 -3.334295E+01
52.000000 38.000000 -4.098361E+01
52.000000 36.000000 -3.495655E+01
52.000000 34.000000 -2.343139E+01
52.000000 32.000000 -1.422185E+01
52.000000 30.000000 -1.967529E+01
52.000000 28.000000 -2.844231E+01
52.000000 26.000000 -2.902615E+01
52.000000 24.000000 -2.052147E+01
52.000000 22.000000 -7.256830E+00
52.000000 20.000000 7.998844E+00
52.000000 18.000000 1.779958E+01
52.000000 16.000000 1.611310E+01
52.000000 14.000000 9.991607E+00
52.000000 12.000000 1.528685E+00
52.000000 10.000000 -4.999701E+00
52.000000 8.000000 -7.170246E+00
52.000000 6.000000 -6.613551E+00
52.000000 4.000000 -6.174589E+00
52.000000 2.000000 -8.549836E+00
52.000000 0.000000 -1.436978E+01
52.000000 -2.000000 -1.883293E+01
52.000000 -4.000000 -1.800876E+01
52.000000 -6.000000 -1.102916E+01
52.000000 -8.000000 -4.750754E+00
52.000000 -10.000000 -2.741780E+00
52.000000 -12.000000 -5.809083E+00
52.000000 -14.000000 -1.050686E+01
52.000000 -16.000000 -2.000256E+01
52.000000 -18.000000 -2.677931E+01
52.000000 -20.000000 -2.405645E+01
52.000000 -22.000000 -1.546130E+01
52.000000 -24.000000 -4.610724E+00
52.000000 -26.000000 -2.982098E+00
52.000000 -28.000000 -1.010568E+01
52.000000 -30.000000 -1.400434E+01
52.000000 -32.000000 -1.081565E+01
52.000000 -34.000000 -6.880391E+00
52.000000 -36.000000 -1.052405E+01
52.000000 -38.000000 -1.540111E+01
52.000000 -40.000000 -2.669065E+01
54.000000 40.000000 -2.484987E+01
54.000000 38.000000 -3.041166E+01
54.000000 36.000000 -2.786290E+01
54.000000 34.000000 -2.221623E+01
54.000000 32.000000 -1.918150E+01
54.000000 30.000000 -2.768042E+01
54.000000 28.000000 -3.179529E+01
54.000000 26.000000 -2.399293E+01
54.000000 24.000000 -7.288510E+00
54.000000 22.000000 1.008944E+01
54.000000 20.000000 2.457202E+01
54.000000 18.000000 2.837105E+01
54.000000 16.000000 2.688885E+01
54.000000 14.000000 2.091127E+01
54.000000 12.000000 1.168956E+01
54.000000 10.000000 9.742789E-01
54.000000 8.000000 -3.728658E+00
54.000000 6.000000 -7.232517E+00
54.000000 4.000000 -1.182593E+01
54.000000 2.000000 -1.718022E+01
54.000000 0.000000 -2.383346E+01
54.000000 -2.000000 -2.872308E+01
54.000000 -4.000000 -2.898523E+01
54.000000 -6.000000 -2.312434E+01
54.000000 -8.000000 -1.702374E+01
54.000000 -10.000000 -1.305870E+01
54.000000 -12.000000 -1.064649E+01
54.000000 -14.000000 -9.269385E+00
54.000000 -16.000000 -1.256350E+01
54.000000 -18.000000 -1.542104E+01
54.000000 -20.000000 -1.047895E+01
54.000000 -22.000000 -1.125090E+00
54.000000 -24.000000 9.898906E+00
54.000000 -26.000000 9.542866E+00
54.000000 -28.000000 -5.207024E-01
54.000000 -30.000000 -6.637061E+00
54.000000 -32.000000 -5.318379E+00
54.000000 -34.000000 -4.487805E+00
54.000000 -36.000000 -9.832238E+00
54.000000 -38.000000 -1.511466E+01
54.000000 -40.000000 -2.719536E+01
56.000000 40.000000 -1.901968E+01
56.000000 38.000000 -2.534051E+01
56.000000 36.000000 -2.756209E+01
56.000000 34.000000 -2.953097E+01
56.000000 32.000000 -2.888514E+01
56.000000 30.000000 -3.354642E+01
56.000000 28.000000 -2.885568E+01
56.000000 26.000000 -1.588167E+01
56.000000 24.000000 1.207413E+00
56.000000 22.000000 1.671425E+01
56.000000 20.000000 2.851134E+01
56.000000 18.000000 3.116270E+01
56.000000 16.000000 2.933532E+01
56.000000 14.000000 2.425266E+01
56.000000 12.000000 1.512155E+01
56.000000 10.000000 3.145456E+00
56.000000 8.000000 -3.159802E+00
56.000000 6.000000 -9.082876E+00
56.000000 4.000000 -1.569400E+01
56.000000 2.000000 -2.170844E+01
56.000000 0.000000 -2.719955E+01
56.000000 -2.000000 -3.149712E+01
56.000000 -4.000000 -3.246429E+01
56.000000 -6.000000 -2.846953E+01
56.000000 -8.000000 -2.502078E+01
56.000000 -10.000000 -2.213415E+01
56.000000 -12.000000 -1.893766E+01
56.000000 -14.000000 -1.721371E+01
56.000000 -16.000000 -1.681224E+01
56.000000 -18.000000 -1.485289E+01
56.000000 -20.000000 -4.107892E+00
56.000000 -22.000000 1.198976E+01
56.000000 -24.000000 2.548567E+01
56.000000 -26.000000 2.375872E+01
56.000000 -28.000000 1.496964E+01
56.000000 -30.000000 8.185418E+00
56.000000 -32.000000 5.033040E+00
56.000000 -34.000000 5.200748E-01
56.000000 -36.000000 -8.748353E+00
56.000000 -38.000000 -1.517282E+01
56.000000 -40.000000 -2.770089E+01
58.000000 40.000000 -1.528781E+01
58.000000 38.000000 -2.242732E+01
58.000000 36.000000 -2.932212E+01
58.000000 34.000000 -3.632452E+01
58.000000 32.000000 -3.644882E+01
58.000000 30.000000 -3.632370E+01
58.000000 28.000000 -2.585755E+01
58.000000 26.000000 -1.066422E+01
58.000000 24.000000 3.456680E+00
58.000000 22.000000 1.487925E+01
58.000000 20.000000 2.476159E+01
58.000000 18.000000 2.947121E+01
58.000000 16.000000 2.695696E+01
58.000000 14.000000 2.191821E+01
58.000000 12.000000 1.339727E+01
58.000000 10.000000 3.401607E+00
58.000000 8.000000 -3.336342E+00
58.000000 6.000000 -9.979305E+00
58.000000 4.000000 -1.646677E+01
58.000000 2.000000 -2.186334E+01
58.000000 0.000000 -2.600101E+01
58.000000 -2.000000 -2.930552E+01
58.000000 -4.000000 -3.052811E+01
58.000000 -6.000000 -2.847672E+01
58.000000 -8.000000 -2.700134E+01
58.000000 -10.000000 -2.613720E+01
58.000000 -12.000000 -2.551464E+01
58.000000 -14.000000 -2.745714E+01
58.000000 -16.000000 -2.724306E+01
58.000000 -18.000000 -2.070659E+01
58.000000 -20.000000 -5.706730E+00
58.000000 -22.000000 1.540523E+01
58.000000 -24.000000 3.151907E+01
58.000000 -26.000000 3.477397E+01
58.000000 -28.000000 2.653768E+01
58.000000 -30.000000 1.909903E+01
58.000000 -32.000000 1.230190E+01
58.000000 -34.000000 3.844594E+00
58.000000 -36.000000 -7.890884E+00
58.000000 -38.000000 -1.683626E+01
