-10.000000 20.000000 4.187589E+01
-10.000000 18.000000 5.859692E+01
-10.000000 16.000000 9.938629E+01
-10.000000 14.000000 1.544677E+02
-10.000000 12.000000 1.923993E+02
-10.000000 10.000000 1.889833E+02
-10.000000 8.000000 1.271335E+02
-10.000000 6.000000 4.668094E+01
-10.000000 4.000000 -2.270388E+01
-10.000000 2.000000 -5.229452E+01
-10.000000 0.000000 -5.955611E+01
-10.000000 -2.000000 -5.951748E+01
-10.000000 -4.000000 -6.777883E+01
-10.000000 -6.000000 -8.027003E+01
-10.000000 -8.000000 -8.372290E+01
-10.000000 -10.000000 -8.057988E+01
-10.000000 -12.000000 -7.208734E+01
-10.000000 -14.000000 -6.906104E+01
-10.000000 -16.000000 -6.757225E+01
-10.000000 -18.000000 -6.460296E+01
-10.000000 -20.000000 -6.424857E+01
-10.000000 -22.000000 -6.426984E+01
-10.000000 -24.000000 -5.758369E+01
-10.000000 -26.000000 -4.688532E+01
-10.000000 -28.000000 -3.684731E+01
-10.000000 -30.000000 -2.422871E+01
-10.000000 -32.000000 -1.560327E+01
-10.000000 -34.000000 -1.866431E+01
-10.000000 -36.000000 -2.313846E+01
-10.000000 -38.000000 -2.011977E+01
-10.000000 -40.000000 -9.284645E+00
-8.000000 40.000000 4.455954E+01
-8.000000 38.000000 5.484574E+01
-8.000000 36.000000 5.278805E+01
-8.000000 34.000000 4.409685E+01
-8.000000 32.000000 4.038873E+01
-8.000000 30.000000 4.900054E+01
-8.000000 28.000000 5.285447E+01
-8.000000 26.000000 4.671138E+01
-8.000000 24.000000 3.587798E+01
-8.000000 22.000000 2.325852E+01
-8.000000 20.000000 1.739231E+01
-8.000000 18.000000 2.866450E+01
-8.000000 16.000000 6.539852E+01
-8.000000 14.000000 1.214155E+02
-8.000000 12.000000 1.697657E+02
-8.000000 10.000000 1.816737E+02
-8.000000 8.000000 1.327846E+02
-8.000000 6.000000 5.590137E+01
-8.000000 4.000000 -1.745459E+01
-8.000000 2.000000 -4.802660E+01
-8.000000 0.000000 -4.608752E+01
-8.000000 -2.000000 -3.059196E+01
-8.000000 -4.000000 -2.758302E+01
-8.000000 -6.000000 -4.492661E+01
-8.000000 -8.000000 -6.218346E+01
-8.000000 -10.000000 -7.167669E+01
-8.000000 -12.000000 -6.923096E+01
-8.000000 -14.000000 -6.322544E+01
-8.000000 -16.000000 -5.663751E+01
-8.000000 -18.000000 -5.316664E+01
-8.000000 -20.000000 -5.722975E+01
-8.000000 -22.000000 -6.338245E+01
-8.000000 -24.000000 -6.319279E+01
-8.000000 -26.000000 -5.830135E+01
-8.000000 -28.000000 -4.903956E+01
-8.000000 -30.000000 -3.607108E+01
-8.000000 -32.000000 -2.591443E+01
-8.000000 -34.000000 -2.397229E+01
-8.000000 -36.000000 -2.083576E+01
-8.000000 -38.000000 -1.380303E+01
-8.000000 -40.000000 -1.433848E+00
-6.000000 40.000000 4.596649E+01
-6.000000 38.000000 5.416996E+01
-6.000000 36.000000 5.053595E+01
-6.000000 34.000000 3.888845E+01
-6.000000 32.000000 3.059466E+01
-6.000000 30.000000 3.554642E+01
-6.000000 28.000000 3.787197E+01
-6.000000 26.000000 3.084660E+01
-6.000000 24.000000 1.811353E+01
-6.000000 22.000000 5.766579E+00
-6.000000 20.000000 -2.268982E+00
-6.000000 18.000000 2.939457E+00
-6.000000 16.000000 3.254629E+01
-6.000000 14.000000 8.275084E+01
-6.000000 12.000000 1.331572E+02
-6.000000 10.000000 1.548532E+02
-6.000000 8.000000 1.210105E+02
-6.000000 6.000000 5.605817E+01
-6.000000 4.000000 -7.476364E+00
-6.000000 2.000000 -2.982612E+01
-6.000000 0.000000 -1.977982E+01
-6.000000 -2.000000 2.033275E+00
-6.000000 -4.000000 9.579607E+00
-6.000000 -6.000000 -8.955195E+00
-6.000000 -8.000000 -3.330235E+01
-6.000000 -10.000000 -5.001330E+01
-6.000000 -12.000000 -5.300090E+01
-6.000000 -14.000000 -4.779049E+01
-6.000000 -16.000000 -4.075528E+01
-6.000000 -18.000000 -3.860822E+01
-6.000000 -20.000000 -4.761463E+01
-6.000000 -22.000000 -5.912498E+01
-6.000000 -24.000000 -6.392946E+01
-6.000000 -26.000000 -6.401237E+01
-6.000000 -28.000000 -5.664870E+01
-6.000000 -30.000000 -4.475479E+01
-6.000000 -32.000000 -3.434436E+01
-6.000000 -34.000000 -2.880073E+01
-6.000000 -36.000000 -1.946261E+01
-6.000000 -38.000000 -8.333800E+00
-6.000000 -40.000000 6.687193E+00
-4.000000 40.000000 4.613107E+01
-4.000000 38.000000 5.337617E+01
-4.000000 36.000000 4.789429E+01
-4.000000 34.000000 3.222496E+01
-4.000000 32.000000 1.839118E+01
-4.000000 30.000000 1.978617E+01
-4.000000 28.000000 2.080054E+01
-4.000000 26.000000 1.413073E+01
-4.000000 24.000000 3.263012E+00
-4.000000 22.000000 -3.451511E+00
-4.000000 20.000000 -9.342823E+00
-4.000000 18.000000 -8.664825E+00
-4.000000 16.000000 1.253827E+01
-4.000000 14.000000 5.384739E+01
-4.000000 12.000000 1.010866E+02
-4.000000 10.000000 1.269914E+02
-4.000000 8.000000 1.065082E+02
-4.000000 6.000000 5.522057E+01
-4.000000 4.000000 4.726711E+00
-4.000000 2.000000 -9.061728E+00
-4.000000 0.000000 4.217834E+00
-4.000000 -2.000000 2.289004E+01
-4.000000 -4.000000 2.812304E+01
-4.000000 -6.000000 1.285961E+01
-4.000000 -8.000000 -9.287722E+00
-4.000000 -10.000000 -2.586810E+01
-4.000000 -12.000000 -3.128951E+01
-4.000000 -14.000000 -2.885698E+01
-4.000000 -16.000000 -2.554532E+01
-4.000000 -18.000000 -2.727828E+01
-4.000000 -20.000000 -3.838349E+01
-4.000000 -22.000000 -5.099839E+01
-4.000000 -24.000000 -5.771226E+01
-4.000000 -26.000000 -5.915111E+01
-4.000000 -28.000000 -5.452741E+01
-4.000000 -30.000000 -4.567850E+01
-4.000000 -32.000000 -3.710538E+01
-4.000000 -34.000000 -3.032774E+01
-4.000000 -36.000000 -1.802965E+01
-4.000000 -38.000000 -4.035436E+00
-4.000000 -40.000000 1.361837E+01
-2.000000 40.000000 4.458181E+01
-2.000000 38.000000 5.148833E+01
-2.000000 36.000000 4.412395E+01
-2.000000 34.000000 2.568341E+01
-2.000000 32.000000 7.572105E+00
-2.000000 30.000000 4.975861E+00
-2.000000 28.000000 4.337856E+00
-2.000000 26.000000 4.622192E-01
-2.000000 24.000000 -4.841282E+00
-2.000000 22.000000 -3.262657E+00
-2.000000 20.000000 -3.015537E+00
-2.000000 18.000000 -3.822338E+00
-2.000000 16.000000 9.003349E+00
-2.000000 14.000000 4.126477E+01
-2.000000 12.000000 8.406948E+01
-2.000000 10.000000 1.118593E+02
-2.000000 8.000000 9.978585E+01
-2.000000 6.000000 5.692201E+01
-2.000000 4.000000 1.241069E+01
-2.000000 2.000000 1.593032E+00
-2.000000 0.000000 1.491651E+01
-2.000000 -2.000000 2.998553E+01
-2.000000 -4.000000 3.184315E+01
-2.000000 -6.000000 1.946346E+01
-2.000000 -8.000000 3.889339E+00
-2.000000 -10.000000 -7.297277E+00
-2.000000 -12.000000 -1.227117E+01
-2.000000 -14.000000 -1.274984E+01
-2.000000 -16.000000 -1.528423E+01
-2.000000 -18.000000 -2.140797E+01
-2.000000 -20.000000 -3.226204E+01
-2.000000 -22.000000 -4.182887E+01
-2.000000 -24.000000 -4.588680E+01
-2.000000 -26.000000 -4.610139E+01
-2.000000 -28.000000 -4.435419E+01
-2.000000 -30.000000 -3.849700E+01
-2.000000 -32.000000 -3.257947E+01
-2.000000 -34.000000 -2.705151E+01
-2.000000 -36.000000 -1.461508E+01
-2.000000 -38.000000 7.340574E-01
-2.000000 -40.000000 1.990247E+01
0.000000 40.000000 4.185804E+01
0.000000 38.000000 4.849238E+01
0.000000 36.000000 4.017910E+01
0.000000 34.000000 2.184211E+01
0.000000 32.000000 1.530045E+00
0.000000 30.000000 -3.939999E+00
0.000000 28.000000 -6.788605E+00
0.000000 26.000000 -8.616524E+00
0.000000 24.000000 -8.125954E+00
0.000000 22.000000 1.470917E+00
0.000000 20.000000 9.781601E+00
0.000000 18.000000 9.197426E+00
0.000000 16.000000 1.499742E+01
0.000000 14.000000 4.095088E+01
0.000000 12.000000 8.124457E+01
0.000000 10.000000 1.120988E+02
0.000000 8.000000 1.026123E+02
0.000000 6.000000 5.968060E+01
0.000000 4.000000 1.355240E+01
0.000000 2.000000 1.647188E+00
0.000000 0.000000 1.232425E+01
0.000000 -2.000000 2.513714E+01
0.000000 -4.000000 2.617795E+01
0.000000 -6.000000 1.655737E+01
0.000000 -8.000000 8.164248E+00
0.000000 -10.000000 5.165047E+00
0.000000 -12.000000 4.166387E+00
0.000000 -14.000000 1.859255E-01
0.000000 -16.000000 -9.974818E+00
0.000000 -18.000000 -2.052393E+01
0.000000 -20.000000 -3.023968E+01
0.000000 -22.000000 -3.480698E+01
0.000000 -24.000000 -3.305911E+01
0.000000 -26.000000 -3.076855E+01
0.000000 -28.000000 -2.999708E+01
0.000000 -30.000000 -2.576133E+01
0.000000 -32.000000 -2.184449E+01
0.000000 -34.000000 -1.853716E+01
0.000000 -36.000000 -7.428649E+00
0.000000 -38.000000 7.580481E+00
0.000000 -40.000000 2.615116E+01
2.000000 40.000000 3.940663E+01
2.000000 38.000000 4.654685E+01
2.000000 36.000000 3.835540E+01
2.000000 34.000000 2.150786E+01
2.000000 32.000000 5.760460E-01
2.000000 30.000000 -4.854111E+00
2.000000 28.000000 -7.969753E+00
2.000000 26.000000 -1.043174E+01
2.000000 24.000000 -7.703220E+00
2.000000 22.000000 5.686039E+00
2.000000 20.000000 1.714187E+01
2.000000 18.000000 1.650552E+01
2.000000 16.000000 1.821282E+01
2.000000 14.000000 4.199511E+01
2.000000 12.000000 8.413970E+01
2.000000 10.000000 1.197612E+02
2.000000 8.000000 1.132513E+02
2.000000 6.000000 6.926285E+01
2.000000 4.000000 1.585585E+01
2.000000 2.000000 -4.521589E+00
2.000000 0.000000 -1.295452E-01
2.000000 -2.000000 1.181495E+01
2.000000 -4.000000 1.532277E+01
2.000000 -6.000000 9.970067E+00
2.000000 -8.000000 7.421323E+00
2.000000 -10.000000 1.179769E+01
2.000000 -12.000000 1.606769E+01
2.000000 -14.000000 9.604440E+00
2.000000 -16.000000 -6.551342E+00
2.000000 -18.000000 -2.019723E+01
2.000000 -20.000000 -2.890800E+01
2.000000 -22.000000 -2.915336E+01
2.000000 -24.000000 -2.147195E+01
2.000000 -26.000000 -1.634689E+01
2.000000 -28.000000 -1.476740E+01
2.000000 -30.000000 -1.077041E+01
2.000000 -32.000000 -7.664545E+00
2.000000 -34.000000 -6.720666E+00
2.000000 -36.000000 2.242510E+00
2.000000 -38.000000 1.569074E+01
2.000000 -40.000000 3.223898E+01
4.000000 40.000000 3.849385E+01
4.000000 38.000000 4.724978E+01
4.000000 36.000000 4.000944E+01
4.000000 34.000000 2.447806E+01
4.000000 32.000000 5.113792E+00
4.000000 30.000000 1.800449E+00
4.000000 28.000000 1.044418E+00
4.000000 26.000000 -2.152111E+00
4.000000 24.000000 -1.505745E+00
4.000000 22.000000 8.238686E+00
4.000000 20.000000 1.471293E+01
4.000000 18.000000 1.259270E+01
4.000000 16.000000 1.284053E+01
4.000000 14.000000 3.636478E+01
4.000000 12.000000 8.282803E+01
4.000000 10.000000 1.263967E+02
4.000000 8.000000 1.291228E+02
4.000000 6.000000 8.957147E+01
4.000000 4.000000 2.727558E+01
4.000000 2.000000 -8.536369E+00
4.000000 0.000000 -1.405478E+01
4.000000 -2.000000 -3.322198E+00
4.000000 -4.000000 2.647974E+00
4.000000 -6.000000 -4.175329E-01
4.000000 -8.000000 -4.856930E-01
4.000000 -10.000000 7.891091E+00
4.000000 -12.000000 1.616385E+01
4.000000 -14.000000 1.031047E+01
4.000000 -16.000000 -7.270178E+00
4.000000 -18.000000 -1.882828E+01
4.000000 -20.000000 -2.347461E+01
4.000000 -22.000000 -1.978376E+01
4.000000 -24.000000 -9.090410E+00
4.000000 -26.000000 -3.338295E+00
4.000000 -28.000000 -2.189901E+00
4.000000 -30.000000 2.856878E+00
4.000000 -32.000000 6.793039E+00
4.000000 -34.000000 5.636524E+00
4.000000 -36.000000 1.180586E+01
4.000000 -38.000000 2.295692E+01
4.000000 -40.000000 3.712837E+01
6.000000 40.000000 3.810585E+01
6.000000 38.000000 5.101722E+01
6.000000 36.000000 4.724703E+01
6.000000 34.000000 3.248580E+01
6.000000 32.000000 1.492315E+01
6.000000 30.000000 1.336489E+01
6.000000 28.000000 1.457524E+01
6.000000 26.000000 1.194267E+01
6.000000 24.000000 1.018064E+01
6.000000 22.000000 1.220439E+01
6.000000 20.000000 1.062320E+01
6.000000 18.000000 7.248623E+00
6.000000 16.000000 9.130527E+00
6.000000 14.000000 3.244415E+01
6.000000 12.000000 8.010533E+01
6.000000 10.000000 1.302910E+02
6.000000 8.000000 1.446679E+02
6.000000 6.000000 1.142532E+02
6.000000 4.000000 4.798449E+01
6.000000 2.000000 -2.391096E+00
6.000000 0.000000 -2.103577E+01
6.000000 -2.000000 -1.626234E+01
6.000000 -4.000000 -1.232487E+01
6.000000 -6.000000 -1.755997E+01
6.000000 -8.000000 -1.930229E+01
6.000000 -10.000000 -1.128019E+01
6.000000 -12.000000 -2.723977E+00
6.000000 -14.000000 -5.486163E+00
6.000000 -16.000000 -1.591160E+01
6.000000 -18.000000 -1.797531E+01
6.000000 -20.000000 -1.365587E+01
6.000000 -22.000000 -6.154310E+00
6.000000 -24.000000 1.919277E+00
6.000000 -26.000000 4.795160E+00
6.000000 -28.000000 4.673174E+00
6.000000 -30.000000 1.151845E+01
6.000000 -32.000000 1.786986E+01
6.000000 -34.000000 1.642156E+01
6.000000 -36.000000 1.957517E+01
6.000000 -38.000000 2.739468E+01
6.000000 -40.000000 3.987181E+01
8.000000 40.000000 3.635189E+01
8.000000 38.000000 5.641403E+01
8.000000 36.000000 6.022318E+01
8.000000 34.000000 4.785815E+01
8.000000 32.000000 3.004364E+01
8.000000 30.000000 2.692080E+01
8.000000 28.000000 2.744525E+01
8.000000 26.000000 2.604345E+01
8.000000 24.000000 2.476369E+01
8.000000 22.000000 2.056335E+01
8.000000 20.000000 1.397058E+01
8.000000 18.000000 1.174445E+01
8.000000 16.000000 1.821056E+01
8.000000 14.000000 4.213817E+01
8.000000 12.000000 8.455087E+01
8.000000 10.000000 1.311211E+02
8.000000 8.000000 1.527762E+02
8.000000 6.000000 1.352583E+02
8.000000 4.000000 7.665073E+01
8.000000 2.000000 1.943080E+01
8.000000 0.000000 -1.393515E+01
8.000000 -2.000000 -2.401238E+01
8.000000 -4.000000 -3.023295E+01
8.000000 -6.000000 -4.040616E+01
8.000000 -8.000000 -4.557225E+01
8.000000 -10.000000 -4.181005E+01
8.000000 -12.000000 -3.533032E+01
8.000000 -14.000000 -3.390229E+01
8.000000 -16.000000 -3.191375E+01
8.000000 -18.000000 -2.203714E+01
8.000000 -20.000000 -9.944324E+00
8.000000 -22.000000 -1.370171E+00
8.000000 -24.000000 2.012289E+00
8.000000 -26.000000 1.497835E+00
8.000000 -28.000000 2.106878E+00
8.000000 -30.000000 1.203917E+01
8.000000 -32.000000 2.203485E+01
8.000000 -34.000000 2.208856E+01
8.000000 -36.000000 2.354998E+01
8.000000 -38.000000 2.848104E+01
8.000000 -40.000000 4.198828E+01
10.000000 40.000000 3.395786E+01
10.000000 38.000000 6.179895E+01
10.000000 36.000000 7.546299E+01
10.000000 34.000000 6.948361E+01
10.000000 32.000000 4.945516E+01
10.000000 30.000000 4.028859E+01
10.000000 28.000000 3.775873E+01
10.000000 26.000000 3.777846E+01
10.000000 24.000000 3.872062E+01
10.000000 22.000000 3.227288E+01
10.000000 20.000000 2.431753E+01
10.000000 18.000000 2.253451E+01
10.000000 16.000000 3.339680E+01
10.000000 14.000000 5.947362E+01
10.000000 12.000000 9.594106E+01
10.000000 10.000000 1.347239E+02
10.000000 8.000000 1.578532E+02
10.000000 6.000000 1.525641E+02
10.000000 4.000000 1.109907E+02
10.000000 2.000000 5.828072E+01
10.000000 0.000000 1.390201E+01
10.000000 -2.000000 -1.814414E+01
10.000000 -4.000000 -4.473821E+01
10.000000 -6.000000 -6.562132E+01
10.000000 -8.000000 -7.487244E+01
10.000000 -10.000000 -7.523861E+01
10.000000 -12.000000 -6.948174E+01
10.000000 -14.000000 -6.431627E+01
10.000000 -16.000000 -5.416888E+01
10.000000 -18.000000 -3.710371E+01
10.000000 -20.000000 -2.226420E+01
10.000000 -22.000000 -1.483094E+01
10.000000 -24.000000 -1.264460E+01
10.000000 -26.000000 -1.356803E+01
10.000000 -28.000000 -1.065564E+01
10.000000 -30.000000 2.676910E+00
10.000000 -32.000000 1.665922E+01
10.000000 -34.000000 1.884960E+01
10.000000 -36.000000 2.221770E+01
10.000000 -38.000000 2.784004E+01
10.000000 -40.000000 4.504586E+01
12.000000 40.000000 3.185780E+01
12.000000 38.000000 6.707101E+01
12.000000 36.000000 9.027101E+01
12.000000 34.000000 9.240234E+01
12.000000 32.000000 6.897689E+01
12.000000 30.000000 5.188722E+01
12.000000 28.000000 4.453323E+01
12.000000 26.000000 4.437421E+01
12.000000 24.000000 4.670096E+01
12.000000 22.000000 4.129195E+01
12.000000 20.000000 3.506057E+01
12.000000 18.000000 3.404040E+01
12.000000 16.000000 4.612916E+01
12.000000 14.000000 7.214433E+01
12.000000 12.000000 1.042474E+02
12.000000 10.000000 1.383897E+02
12.000000 8.000000 1.637561E+02
12.000000 6.000000 1.708606E+02
12.000000 4.000000 1.484902E+02
12.000000 2.000000 1.057372E+02
12.000000 0.000000 5.491522E+01
12.000000 -2.000000 1.569611E+00
12.000000 -4.000000 -4.841716E+01
12.000000 -6.000000 -8.477498E+01
12.000000 -8.000000 -1.001263E+02
12.000000 -10.000000 -1.049844E+02
12.000000 -12.000000 -9.929048E+01
12.000000 -14.000000 -9.167780E+01
12.000000 -16.000000 -7.788243E+01
12.000000 -18.000000 -5.766299E+01
12.000000 -20.000000 -4.284434E+01
12.000000 -22.000000 -3.698587E+01
12.000000 -24.000000 -3.478771E+01
12.000000 -26.000000 -3.379731E+01
12.000000 -28.000000 -2.816211E+01
12.000000 -30.000000 -1.390346E+01
12.000000 -32.000000 1.218189E+00
12.000000 -34.000000 5.463692E+00
12.000000 -36.000000 1.444871E+01
12.000000 -38.000000 2.537812E+01
12.000000 -40.000000 4.764022E+01
14.000000 40.000000 3.000071E+01
14.000000 38.000000 7.220723E+01
14.000000 36.000000 1.028563E+02
14.000000 34.000000 1.110073E+02
14.000000 32.000000 8.410237E+01
14.000000 30.000000 5.942699E+01
14.000000 28.000000 4.579226E+01
14.000000 26.000000 4.360941E+01
14.000000 24.000000 4.640902E+01
14.000000 22.000000 4.324928E+01
14.000000 20.000000 3.935703E+01
14.000000 18.000000 3.841295E+01
14.000000 16.000000 4.723914E+01
14.000000 14.000000 7.083946E+01
14.000000 12.000000 1.021197E+02
14.000000 10.000000 1.386976E+02
14.000000 8.000000 1.734268E+02
14.000000 6.000000 1.940096E+02
14.000000 4.000000 1.847305E+02
14.000000 2.000000 1.481917E+02
14.000000 0.000000 9.408742E+01
14.000000 -2.000000 2.817894E+01
14.000000 -4.000000 -3.713093E+01
14.000000 -6.000000 -8.672014E+01
14.000000 -8.000000 -1.110413E+02
14.000000 -10.000000 -1.245187E+02
14.000000 -12.000000 -1.238855E+02
14.000000 -14.000000 -1.156455E+02
14.000000 -16.000000 -9.680178E+01
14.000000 -18.000000 -7.364204E+01
14.000000 -20.000000 -5.981430E+01
14.000000 -22.000000 -5.633238E+01
14.000000 -24.000000 -5.436810E+01
14.000000 -26.000000 -5.138984E+01
14.000000 -28.000000 -4.306084E+01
14.000000 -30.000000 -2.984180E+01
14.000000 -32.000000 -1.816281E+01
14.000000 -34.000000 -1.502190E+01
14.000000 -36.000000 -8.966827E-01
14.000000 -38.000000 1.830500E+01
14.000000 -40.000000 4.790832E+01
16.000000 40.000000 2.775545E+01
16.000000 38.000000 7.533621E+01
16.000000 36.000000 1.099483E+02
16.000000 34.000000 1.215749E+02
16.000000 32.000000 9.322889E+01
16.000000 30.000000 6.277237E+01
16.000000 28.000000 4.242832E+01
16.000000 26.000000 3.653675E+01
16.000000 24.000000 3.701889E+01
16.000000 22.000000 3.526561E+01
16.000000 20.000000 3.238919E+01
16.000000 18.000000 3.122201E+01
16.000000 16.000000 3.688944E+01
16.000000 14.000000 5.714175E+01
16.000000 12.000000 9.037089E+01
16.000000 10.000000 1.351536E+02
16.000000 8.000000 1.836142E+02
16.000000 6.000000 2.166257E+02
16.000000 4.000000 2.140550E+02
16.000000 2.000000 1.774287E+02
16.000000 0.000000 1.206189E+02
16.000000 -2.000000 5.211966E+01
16.000000 -4.000000 -1.511571E+01
16.000000 -6.000000 -6.935636E+01
16.000000 -8.000000 -1.032033E+02
16.000000 -10.000000 -1.280561E+02
16.000000 -12.000000 -1.384563E+02
16.000000 -14.000000 -1.334207E+02
16.000000 -16.000000 -1.101557E+02
16.000000 -18.000000 -8.247460E+01
16.000000 -20.000000 -6.918579E+01
16.000000 -22.000000 -6.763079E+01
16.000000 -24.000000 -6.412510E+01
16.000000 -26.000000 -6.004109E+01
16.000000 -28.000000 -5.085228E+01
16.000000 -30.000000 -3.956489E+01
16.000000 -32.000000 -3.428545E+01
16.000000 -34.000000 -3.693405E+01
16.000000 -36.000000 -2.109262E+01
16.000000 -38.000000 6.882008E+00
16.000000 -40.000000 4.530832E+01
18.000000 40.000000 2.233369E+01
18.000000 38.000000 7.415907E+01
18.000000 36.000000 1.110188E+02
18.000000 34.000000 1.241622E+02
18.000000 32.000000 9.519604E+01
18.000000 30.000000 6.195238E+01
18.000000 28.000000 3.740596E+01
18.000000 26.000000 2.691505E+01
18.000000 24.000000 2.198371E+01
18.000000 22.000000 1.979641E+01
18.000000 20.000000 1.708131E+01
18.000000 18.000000 1.621868E+01
18.000000 16.000000 2.094704E+01
18.000000 14.000000 3.843016E+01
18.000000 12.000000 7.441396E+01
18.000000 10.000000 1.301863E+02
18.000000 8.000000 1.923723E+02
18.000000 6.000000 2.337227E+02
18.000000 4.000000 2.324801E+02
18.000000 2.000000 1.924985E+02
18.000000 0.000000 1.336259E+02
18.000000 -2.000000 6.931060E+01
18.000000 -4.000000 9.909224E+00
18.000000 -6.000000 -4.230331E+01
18.000000 -8.000000 -8.542183E+01
18.000000 -10.000000 -1.225848E+02
18.000000 -12.000000 -1.445008E+02
18.000000 -14.000000 -1.448370E+02
18.000000 -16.000000 -1.209367E+02
18.000000 -18.000000 -8.908339E+01
18.000000 -20.000000 -7.295782E+01
18.000000 -22.000000 -6.912681E+01
18.000000 -24.000000 -6.275887E+01
18.000000 -26.000000 -5.733982E+01
18.000000 -28.000000 -4.901917E+01
18.000000 -30.000000 -4.150849E+01
18.000000 -32.000000 -4.392325E+01
18.000000 -34.000000 -5.339154E+01
18.000000 -36.000000 -3.845434E+01
18.000000 -38.000000 -4.869499E+00
18.000000 -40.000000 3.951331E+01
20.000000 40.000000 1.214900E+01
20.000000 38.000000 6.683123E+01
20.000000 36.000000 1.061671E+02
20.000000 34.000000 1.207043E+02
20.000000 32.000000 9.106743E+01
20.000000 30.000000 5.691520E+01
20.000000 28.000000 3.121137E+01
20.000000 26.000000 1.849955E+01
20.000000 24.000000 9.962248E+00
20.000000 22.000000 6.083717E+00
20.000000 20.000000 1.331158E+00
20.000000 18.000000 -1.416880E+00
20.000000 16.000000 8.559628E-01
20.000000 14.000000 1.763316E+01
20.000000 12.000000 5.893141E+01
20.000000 10.000000 1.258432E+02
20.000000 8.000000 1.986326E+02
20.000000 6.000000 2.437979E+02
20.000000 4.000000 2.391108E+02
20.000000 2.000000 1.954433E+02
20.000000 0.000000 1.390069E+02
20.000000 -2.000000 8.292116E+01
20.000000 -4.000000 3.318015E+01
20.000000 -6.000000 -1.659132E+01
20.000000 -8.000000 -7.008851E+01
20.000000 -10.000000 -1.195343E+02
20.000000 -12.000000 -1.501974E+02
20.000000 -14.000000 -1.543104E+02
20.000000 -16.000000 -1.307985E+02
20.000000 -18.000000 -9.605307E+01
20.000000 -20.000000 -7.380112E+01
20.000000 -22.000000 -6.443501E+01
20.000000 -24.000000 -5.546002E+01
20.000000 -26.000000 -4.820178E+01
20.000000 -28.000000 -4.066709E+01
20.000000 -30.000000 -3.678617E+01
20.000000 -32.000000 -4.572822E+01
20.000000 -34.000000 -6.079555E+01
20.000000 -36.000000 -4.853929E+01
20.000000 -38.000000 -1.358051E+01
20.000000 -40.000000 3.289915E+01
22.000000 40.000000 -1.750375E+00
22.000000 38.000000 5.302097E+01
22.000000 36.000000 9.455010E+01
22.000000 34.000000 1.117891E+02
22.000000 32.000000 8.312997E+01
22.000000 30.000000 4.904234E+01
22.000000 28.000000 2.433061E+01
22.000000 26.000000 1.386627E+01
22.000000 24.000000 6.464748E+00
22.000000 22.000000 -2.191429E-01
22.000000 20.000000 -9.843346E+00
22.000000 18.000000 -1.650793E+01
22.000000 16.000000 -1.592339E+01
22.000000 14.000000 1.722733E+00
22.000000 12.000000 4.774089E+01
22.000000 10.000000 1.216529E+02
22.000000 8.000000 1.980816E+02
22.000000 6.000000 2.428656E+02
22.000000 4.000000 2.340168E+02
22.000000 2.000000 1.881975E+02
22.000000 0.000000 1.354089E+02
22.000000 -2.000000 8.658470E+01
22.000000 -4.000000 4.415590E+01
22.000000 -6.000000 -5.355330E+00
22.000000 -8.000000 -6.783891E+01
22.000000 -10.000000 -1.239346E+02
22.000000 -12.000000 -1.564101E+02
22.000000 -14.000000 -1.600168E+02
22.000000 -16.000000 -1.347556E+02
22.000000 -18.000000 -9.685030E+01
22.000000 -20.000000 -7.030332E+01
22.000000 -22.000000 -5.764027E+01
22.000000 -24.000000 -4.703834E+01
22.000000 -26.000000 -3.936597E+01
22.000000 -28.000000 -3.254795E+01
22.000000 -30.000000 -2.977826E+01
22.000000 -32.000000 -4.150159E+01
22.000000 -34.000000 -6.096230E+01
22.000000 -36.000000 -5.222905E+01
22.000000 -38.000000 -1.783328E+01
22.000000 -40.000000 2.919563E+01
24.000000 40.000000 -1.799318E+01
24.000000 38.000000 3.635122E+01
24.000000 36.000000 7.932694E+01
24.000000 34.000000 9.860530E+01
24.000000 32.000000 7.115231E+01
24.000000 30.000000 3.834636E+01
24.000000 28.000000 1.726773E+01
24.000000 26.000000 1.197214E+01
24.000000 24.000000 9.325233E+00
24.000000 22.000000 7.410164E-01
24.000000 20.000000 -1.319339E+01
24.000000 18.000000 -2.115944E+01
24.000000 16.000000 -1.838143E+01
24.000000 14.000000 2.441139E-01
24.000000 12.000000 4.516122E+01
24.000000 10.000000 1.174190E+02
24.000000 8.000000 1.875749E+02
24.000000 6.000000 2.265686E+02
24.000000 4.000000 2.153599E+02
24.000000 2.000000 1.712744E+02
24.000000 0.000000 1.196815E+02
24.000000 -2.000000 7.238850E+01
24.000000 -4.000000 3.108177E+01
24.000000 -6.000000 -2.152284E+01
24.000000 -8.000000 -8.588142E+01
24.000000 -10.000000 -1.389095E+02
24.000000 -12.000000 -1.617561E+02
24.000000 -14.000000 -1.560971E+02
24.000000 -16.000000 -1.239420E+02
24.000000 -18.000000 -8.298657E+01
24.000000 -20.000000 -5.759596E+01
24.000000 -22.000000 -4.795410E+01
24.000000 -24.000000 -4.013995E+01
24.000000 -26.000000 -3.416481E+01
24.000000 -28.000000 -2.867770E+01
24.000000 -30.000000 -2.668549E+01
24.000000 -32.000000 -3.724117E+01
24.000000 -34.000000 -5.674544E+01
24.000000 -36.000000 -4.906419E+01
24.000000 -38.000000 -1.656798E+01
24.000000 -40.000000 2.888782E+01
26.000000 40.000000 -3.432342E+01
26.000000 38.000000 1.962225E+01
26.000000 36.000000 6.290602E+01
26.000000 34.000000 8.274049E+01
26.000000 32.000000 5.674999E+01
26.000000 30.000000 2.710106E+01
26.000000 28.000000 1.099145E+01
26.000000 26.000000 1.108084E+01
26.000000 24.000000 1.453688E+01
26.000000 22.000000 7.157014E+00
26.000000 20.000000 -7.379641E+00
26.000000 18.000000 -1.313118E+01
26.000000 16.000000 -7.199863E+00
26.000000 14.000000 1.102236E+01
26.000000 12.000000 4.810624E+01
26.000000 10.000000 1.077827E+02
26.000000 8.000000 1.628891E+02
26.000000 6.000000 1.915350E+02
26.000000 4.000000 1.787916E+02
26.000000 2.000000 1.400120E+02
26.000000 0.000000 9.236867E+01
26.000000 -2.000000 4.530128E+01
26.000000 -4.000000 -1.436585E+00
26.000000 -6.000000 -6.022830E+01
26.000000 -8.000000 -1.199171E+02
26.000000 -10.000000 -1.625619E+02
26.000000 -12.000000 -1.661521E+02
26.000000 -14.000000 -1.405056E+02
26.000000 -16.000000 -9.439897E+01
26.000000 -18.000000 -5.150860E+01
26.000000 -20.000000 -3.312936E+01
26.000000 -22.000000 -3.337360E+01
26.000000 -24.000000 -3.481342E+01
26.000000 -26.000000 -3.413634E+01
26.000000 -28.000000 -3.068481E+01
26.000000 -30.000000 -2.919254E+01
26.000000 -32.000000 -3.652780E+01
26.000000 -34.000000 -5.176236E+01
26.000000 -36.000000 -4.151620E+01
26.000000 -38.000000 -1.168711E+01
26.000000 -40.000000 3.030523E+01
28.000000 40.000000 -4.899146E+01
28.000000 38.000000 3.304129E+00
28.000000 36.000000 4.609678E+01
28.000000 34.000000 6.735117E+01
28.000000 32.000000 4.518541E+01
28.000000 30.000000 1.996252E+01
28.000000 28.000000 7.897724E+00
28.000000 26.000000 1.224607E+01
28.000000 24.000000 2.097746E+01
28.000000 22.000000 1.591796E+01
28.000000 20.000000 2.286190E+00
28.000000 18.000000 -4.386816E+00
28.000000 16.000000 1.578427E+00
28.000000 14.000000 1.758938E+01
28.000000 12.000000 4.474730E+01
28.000000 10.000000 8.573118E+01
28.000000 8.000000 1.226293E+02
28.000000 6.000000 1.387451E+02
28.000000 4.000000 1.267379E+02
28.000000 2.000000 9.958442E+01
28.000000 0.000000 6.289395E+01
28.000000 -2.000000 1.871059E+01
28.000000 -4.000000 -3.395160E+01
28.000000 -6.000000 -9.770823E+01
28.000000 -8.000000 -1.528219E+02
28.000000 -10.000000 -1.852013E+02
28.000000 -12.000000 -1.674294E+02
28.000000 -14.000000 -1.179686E+02
28.000000 -16.000000 -5.686025E+01
28.000000 -18.000000 -1.374631E+01
28.000000 -20.000000 -4.208628E+00
28.000000 -22.000000 -1.598633E+01
28.000000 -24.000000 -2.940383E+01
28.000000 -26.000000 -3.696786E+01
28.000000 -28.000000 -3.694755E+01
28.000000 -30.000000 -3.535940E+01
28.000000 -32.000000 -3.915754E+01
28.000000 -34.000000 -4.956147E+01
28.000000 -36.000000 -3.627016E+01
28.000000 -38.000000 -7.921280E+00
28.000000 -40.000000 3.146531E+01
30.000000 40.000000 -6.031536E+01
30.000000 38.000000 -1.098986E+01
30.000000 36.000000 3.082501E+01
30.000000 34.000000 5.406188E+01
30.000000 32.000000 3.695350E+01
30.000000 30.000000 1.693958E+01
30.000000 28.000000 8.264395E+00
30.000000 26.000000 1.409944E+01
30.000000 24.000000 2.452504E+01
30.000000 22.000000 1.965732E+01
30.000000 20.000000 5.556873E+00
30.000000 18.000000 -4.997697E+00
30.000000 16.000000 -1.572845E+00
30.000000 14.000000 1.157851E+01
30.000000 12.000000 3.119304E+01
30.000000 10.000000 5.722944E+01
30.000000 8.000000 8.112638E+01
30.000000 6.000000 8.934992E+01
30.000000 4.000000 8.207335E+01
30.000000 2.000000 6.789551E+01
30.000000 0.000000 4.370387E+01
30.000000 -2.000000 4.747832E+00
30.000000 -4.000000 -5.089905E+01
30.000000 -6.000000 -1.176540E+02
30.000000 -8.000000 -1.697523E+02
30.000000 -10.000000 -1.954344E+02
30.000000 -12.000000 -1.652734E+02
30.000000 -14.000000 -1.018104E+02
30.000000 -16.000000 -3.355542E+01
30.000000 -18.000000 8.313051E+00
30.000000 -20.000000 1.275769E+01
30.000000 -22.000000 -5.220100E+00
30.000000 -24.000000 -2.589879E+01
30.000000 -26.000000 -3.926517E+01
30.000000 -28.000000 -4.328844E+01
30.000000 -30.000000 -4.279735E+01
30.000000 -32.000000 -4.380232E+01
30.000000 -34.000000 -5.018262E+01
30.000000 -36.000000 -3.552731E+01
30.000000 -38.000000 -7.984928E+00
30.000000 -40.000000 2.979810E+01
32.000000 40.000000 -6.728075E+01
32.000000 38.000000 -2.232859E+01
32.000000 36.000000 1.641231E+01
32.000000 34.000000 4.029362E+01
32.000000 32.000000 2.915878E+01
32.000000 30.000000 1.564632E+01
32.000000 28.000000 1.057339E+01
32.000000 26.000000 1.470521E+01
32.000000 24.000000 2.249085E+01
32.000000 22.000000 1.705157E+01
32.000000 20.000000 1.666802E+00
32.000000 18.000000 -1.155079E+01
32.000000 16.000000 -1.096421E+01
32.000000 14.000000 8.645229E-01
32.000000 12.000000 1.836488E+01
32.000000 10.000000 3.716444E+01
32.000000 8.000000 5.333560E+01
32.000000 6.000000 5.776463E+01
32.000000 4.000000 5.547624E+01
32.000000 2.000000 5.197717E+01
32.000000 0.000000 3.986986E+01
32.000000 -2.000000 8.199924E+00
32.000000 -4.000000 -4.607929E+01
32.000000 -6.000000 -1.132058E+02
32.000000 -8.000000 -1.637080E+02
32.000000 -10.000000 -1.872944E+02
32.000000 -12.000000 -1.595567E+02
32.000000 -14.000000 -1.011942E+02
32.000000 -16.000000 -3.876242E+01
32.000000 -18.000000 -4.577065E-02
32.000000 -20.000000 6.275478E+00
32.000000 -22.000000 -8.711168E+00
32.000000 -24.000000 -2.881810E+01
32.000000 -26.000000 -4.334015E+01
32.000000 -28.000000 -4.951940E+01
32.000000 -30.000000 -4.911759E+01
32.000000 -32.000000 -4.835386E+01
32.000000 -34.000000 -5.314396E+01
32.000000 -36.000000 -3.861631E+01
32.000000 -38.000000 -1.194643E+01
32.000000 -40.000000 2.456822E+01
34.000000 40.000000 -7.167719E+01
34.000000 38.000000 -3.187272E+01
34.000000 36.000000 2.071258E+00
34.000000 34.000000 2.524923E+01
34.000000 32.000000 2.130674E+01
34.000000 30.000000 1.469647E+01
34.000000 28.000000 1.297248E+01
34.000000 26.000000 1.603268E+01
34.000000 24.000000 2.052005E+01
34.000000 22.000000 1.480150E+01
34.000000 20.000000 -9.260015E-01
34.000000 18.000000 -1.552726E+01
34.000000 16.000000 -1.659691E+01
34.000000 14.000000 -3.985956E+00
34.000000 12.000000 1.487335E+01
34.000000 10.000000 2.992925E+01
34.000000 8.000000 3.717481E+01
34.000000 6.000000 3.676109E+01
34.000000 4.000000 3.792334E+01
34.000000 2.000000 4.405581E+01
34.000000 0.000000 4.296443E+01
34.000000 -2.000000 1.849520E+01
34.000000 -4.000000 -3.078774E+01
34.000000 -6.000000 -9.318512E+01
34.000000 -8.000000 -1.395413E+02
34.000000 -10.000000 -1.611587E+02
34.000000 -12.000000 -1.436374E+02
34.000000 -14.000000 -1.034320E+02
34.000000 -16.000000 -5.722763E+01
34.000000 -18.000000 -2.421733E+01
34.000000 -20.000000 -1.554465E+01
34.000000 -22.000000 -2.443783E+01
34.000000 -24.000000 -3.890292E+01
34.000000 -26.000000 -5.106932E+01
34.000000 -28.000000 -5.721684E+01
34.000000 -30.000000 -5.646474E+01
34.000000 -32.000000 -5.551058E+01
34.000000 -34.000000 -6.031825E+01
34.000000 -36.000000 -4.533017E+01
34.000000 -38.000000 -1.821683E+01
34.000000 -40.000000 1.751507E+01
36.000000 40.000000 -7.580415E+01
36.000000 38.000000 -4.037530E+01
36.000000 36.000000 -1.067871E+01
36.000000 34.000000 1.098674E+01
36.000000 32.000000 1.313258E+01
36.000000 30.000000 1.362880E+01
36.000000 28.000000 1.599007E+01
36.000000 26.000000 2.047342E+01
36.000000 24.000000 2.375357E+01
36.000000 22.000000 1.713454E+01
36.000000 20.000000 1.989668E+00
36.000000 18.000000 -1.179595E+01
36.000000 16.000000 -1.176145E+01
36.000000 14.000000 6.219349E-01
36.000000 12.000000 1.686060E+01
36.000000 10.000000 2.552537E+01
36.000000 8.000000 2.373539E+01
36.000000 6.000000 1.944541E+01
36.000000 4.000000 2.389731E+01
36.000000 2.000000 3.689343E+01
36.000000 0.000000 4.229374E+01
36.000000 -2.000000 2.398712E+01
36.000000 -4.000000 -1.731115E+01
36.000000 -6.000000 -7.033057E+01
36.000000 -8.000000 -1.096158E+02
36.000000 -10.000000 -1.274676E+02
36.000000 -12.000000 -1.170912E+02
36.000000 -14.000000 -9.170757E+01
36.000000 -16.000000 -6.253484E+01
36.000000 -18.000000 -4.063349E+01
36.000000 -20.000000 -3.597293E+01
36.000000 -22.000000 -4.315567E+01
36.000000 -24.000000 -5.304980E+01
36.000000 -26.000000 -6.140069E+01
36.000000 -28.000000 -6.600452E+01
36.000000 -30.000000 -6.648231E+01
36.000000 -32.000000 -6.734280E+01
36.000000 -34.000000 -7.086192E+01
36.000000 -36.000000 -5.345031E+01
36.000000 -38.000000 -2.523656E+01
36.000000 -40.000000 9.119473E+00
38.000000 40.000000 -7.973095E+01
38.000000 38.000000 -4.802773E+01
38.000000 36.000000 -2.221340E+01
38.000000 34.000000 -2.119510E+00
38.000000 32.000000 5.404277E+00
38.000000 30.000000 1.409520E+01
38.000000 28.000000 2.160570E+01
38.000000 26.000000 2.695917E+01
38.000000 24.000000 2.919890E+01
38.000000 22.000000 2.205922E+01
38.000000 20.000000 8.813137E+00
38.000000 18.000000 -2.294753E+00
38.000000 16.000000 -6.349115E-01
38.000000 14.000000 1.113300E+01
38.000000 12.000000 2.227365E+01
38.000000 10.000000 2.198689E+01
38.000000 8.000000 1.323353E+01
38.000000 6.000000 6.213952E+00
38.000000 4.000000 1.159676E+01
38.000000 2.000000 2.768826E+01
38.000000 0.000000 3.660255E+01
38.000000 -2.000000 2.378615E+01
38.000000 -4.000000 -9.961648E+00
38.000000 -6.000000 -5.228271E+01
38.000000 -8.000000 -8.279740E+01
38.000000 -10.000000 -9.607326E+01
38.000000 -12.000000 -8.878982E+01
38.000000 -14.000000 -7.075494E+01
38.000000 -16.000000 -5.184747E+01
38.000000 -18.000000 -4.229320E+01
38.000000 -20.000000 -4.666078E+01
38.000000 -22.000000 -5.682953E+01
38.000000 -24.000000 -6.496751E+01
38.000000 -26.000000 -7.068238E+01
38.000000 -28.000000 -7.407328E+01
38.000000 -30.000000 -7.571712E+01
38.000000 -32.000000 -7.864721E+01
38.000000 -34.000000 -8.054569E+01
38.000000 -36.000000 -6.121216E+01
38.000000 -38.000000 -3.282968E+01
38.000000 -40.000000 -9.520531E-01
40.000000 40.000000 -8.186347E+01
40.000000 38.000000 -5.455103E+01
40.000000 36.000000 -3.409399E+01
40.000000 34.000000 -1.590900E+01
40.000000 32.000000 -3.278747E+00
40.000000 30.000000 1.413305E+01
40.000000 28.000000 2.802891E+01
40.000000 26.000000 3.415937E+01
40.000000 24.000000 3.441361E+01
40.000000 22.000000 2.669811E+01
40.000000 20.000000 1.711481E+01
40.000000 18.000000 1.054606E+01
40.000000 16.000000 1.353043E+01
40.000000 14.000000 2.366981E+01
40.000000 12.000000 2.828524E+01
40.000000 10.000000 1.902182E+01
40.000000 8.000000 4.749786E+00
40.000000 6.000000 -4.072046E+00
40.000000 4.000000 2.012656E+00
40.000000 2.000000 1.927071E+01
40.000000 0.000000 2.981058E+01
40.000000 -2.000000 2.101978E+01
40.000000 -4.000000 -5.382987E+00
40.000000 -6.000000 -3.630386E+01
40.000000 -8.000000 -5.744441E+01
40.000000 -10.000000 -6.765381E+01
40.000000 -12.000000 -6.437031E+01
40.000000 -14.000000 -5.256645E+01
40.000000 -16.000000 -4.089839E+01
40.000000 -18.000000 -4.139532E+01
40.000000 -20.000000 -5.478801E+01
40.000000 -22.000000 -6.705910E+01
40.000000 -24.000000 -7.155424E+01
40.000000 -26.000000 -7.500744E+01
40.000000 -28.000000 -7.737373E+01
40.000000 -30.000000 -7.886666E+01
40.000000 -32.000000 -8.390393E+01
40.000000 -34.000000 -8.666493E+01
40.000000 -36.000000 -6.810605E+01
40.000000 -38.000000 -4.056326E+01
40.000000 -40.000000 -1.168567E+01
42.000000 40.000000 -8.144599E+01
42.000000 38.000000 -5.816681E+01
42.000000 36.000000 -4.449530E+01
42.000000 34.000000 -3.132988E+01
42.000000 32.000000 -1.668962E+01
42.000000 30.000000 8.569542E+00
42.000000 28.000000 2.993054E+01
42.000000 26.000000 3.873136E+01
42.000000 24.000000 3.865445E+01
42.000000 22.000000 3.037537E+01
42.000000 20.000000 2.427439E+01
42.000000 18.000000 2.252703E+01
42.000000 16.000000 2.765147E+01
42.000000 14.000000 3.592426E+01
42.000000 12.000000 3.358649E+01
42.000000 10.000000 1.733755E+01
42.000000 8.000000 -7.655268E-01
42.000000 6.000000 -1.123061E+01
42.000000 4.000000 -4.658668E+00
42.000000 2.000000 1.386707E+01
42.000000 0.000000 2.634592E+01
42.000000 -2.000000 2.272328E+01
42.000000 -4.000000 5.319539E+00
42.000000 -6.000000 -1.625952E+01
42.000000 -8.000000 -3.092689E+01
42.000000 -10.000000 -4.016076E+01
42.000000 -12.000000 -4.539201E+01
42.000000 -14.000000 -4.699343E+01
42.000000 -16.000000 -4.814847E+01
42.000000 -18.000000 -5.632008E+01
42.000000 -20.000000 -7.066948E+01
42.000000 -22.000000 -7.729273E+01
42.000000 -24.000000 -7.327692E+01
42.000000 -26.000000 -7.128641E+01
42.000000 -28.000000 -7.198388E+01
42.000000 -30.000000 -7.404399E+01
42.000000 -32.000000 -8.198920E+01
42.000000 -34.000000 -8.725697E+01
42.000000 -36.000000 -7.210133E+01
42.000000 -38.000000 -4.772952E+01
42.000000 -40.000000 -2.281101E+01
44.000000 40.000000 -7.806946E+01
44.000000 38.000000 -5.841679E+01
44.000000 36.000000 -5.119251E+01
44.000000 34.000000 -4.661164E+01
44.000000 32.000000 -3.511099E+01
44.000000 30.000000 -5.804379E+00
44.000000 28.000000 2.245916E+01
44.000000 26.000000 3.661476E+01
44.000000 24.000000 4.093019E+01
44.000000 22.000000 3.477318E+01
44.000000 20.000000 3.039113E+01
44.000000 18.000000 2.958389E+01
44.000000 16.000000 3.398875E+01
44.000000 14.000000 4.133963E+01
44.000000 12.000000 3.713014E+01
44.000000 10.000000 2.025272E+01
44.000000 8.000000 1.372306E+00
44.000000 6.000000 -1.253411E+01
44.000000 4.000000 -1.082101E+01
44.000000 2.000000 6.911129E+00
44.000000 0.000000 2.621934E+01
44.000000 -2.000000 3.343088E+01
44.000000 -4.000000 2.526360E+01
44.000000 -6.000000 9.287814E+00
44.000000 -8.000000 -4.117197E+00
44.000000 -10.000000 -1.549007E+01
44.000000 -12.000000 -3.338186E+01
44.000000 -14.000000 -5.407810E+01
44.000000 -16.000000 -7.413662E+01
44.000000 -18.000000 -8.865585E+01
44.000000 -20.000000 -9.477070E+01
44.000000 -22.000000 -8.769851E+01
44.000000 -24.000000 -7.098382E+01
44.000000 -26.000000 -6.044829E+01
44.000000 -28.000000 -6.116480E+01
44.000000 -30.000000 -6.536896E+01
44.000000 -32.000000 -7.596527E+01
44.000000 -34.000000 -8.374241E+01
44.000000 -36.000000 -7.314632E+01
44.000000 -38.000000 -5.393040E+01
44.000000 -40.000000 -3.342068E+01
46.000000 40.000000 -7.183211E+01
46.000000 38.000000 -5.634180E+01
46.000000 36.000000 -5.386567E+01
46.000000 34.000000 -5.921151E+01
46.000000 32.000000 -5.566323E+01
46.000000 30.000000 -2.816102E+01
46.000000 28.000000 5.913468E+00
46.000000 26.000000 2.911303E+01
46.000000 24.000000 4.185713E+01
46.000000 22.000000 3.993507E+01
46.000000 20.000000 3.390901E+01
46.000000 18.000000 3.111986E+01
46.000000 16.000000 3.464538E+01
46.000000 14.000000 4.167024E+01
46.000000 12.000000 3.885893E+01
46.000000 10.000000 2.422092E+01
46.000000 8.000000 6.127432E+00
46.000000 6.000000 -9.134883E+00
46.000000 4.000000 -1.199435E+01
46.000000 2.000000 2.246269E+00
46.000000 0.000000 2.768342E+01
46.000000 -2.000000 4.682672E+01
46.000000 -4.000000 4.679416E+01
46.000000 -6.000000 3.423610E+01
46.000000 -8.000000 1.819472E+01
46.000000 -10.000000 2.293159E+00
46.000000 -12.000000 -2.715543E+01
46.000000 -14.000000 -6.492011E+01
46.000000 -16.000000 -1.023170E+02
46.000000 -18.000000 -1.215354E+02
46.000000 -20.000000 -1.196535E+02
46.000000 -22.000000 -9.937642E+01
46.000000 -24.000000 -6.989743E+01
46.000000 -26.000000 -5.148249E+01
46.000000 -28.000000 -5.262563E+01
46.000000 -30.000000 -5.848647E+01
46.000000 -32.000000 -7.121077E+01
46.000000 -34.000000 -8.138744E+01
46.000000 -36.000000 -7.384595E+01
46.000000 -38.000000 -5.800972E+01
46.000000 -40.000000 -4.013490E+01
48.000000 40.000000 -6.549780E+01
48.000000 38.000000 -5.278916E+01
48.000000 36.000000 -5.254778E+01
48.000000 34.000000 -6.664778E+01
48.000000 32.000000 -7.364090E+01
48.000000 30.000000 -5.146489E+01
48.000000 28.000000 -1.327941E+01
48.000000 26.000000 1.913946E+01
48.000000 24.000000 4.141537E+01
48.000000 22.000000 4.470446E+01
48.000000 20.000000 3.777169E+01
48.000000 18.000000 3.312419E+01
48.000000 16.000000 3.502331E+01
48.000000 14.000000 4.064744E+01
48.000000 12.000000 3.883693E+01
48.000000 10.000000 2.664433E+01
48.000000 8.000000 1.196065E+01
48.000000 6.000000 1.277432E+00
48.000000 4.000000 -7.505064E-01
48.000000 2.000000 9.941925E+00
48.000000 0.000000 3.221865E+01
48.000000 -2.000000 5.169052E+01
48.000000 -4.000000 5.358435E+01
48.000000 -6.000000 4.046472E+01
48.000000 -8.000000 2.214135E+01
48.000000 -10.000000 3.818619E+00
48.000000 -12.000000 -2.853623E+01
48.000000 -14.000000 -7.238842E+01
48.000000 -16.000000 -1.156802E+02
48.000000 -18.000000 -1.369180E+02
48.000000 -20.000000 -1.329799E+02
48.000000 -22.000000 -1.084762E+02
48.000000 -24.000000 -7.329335E+01
48.000000 -26.000000 -5.081851E+01
48.000000 -28.000000 -5.033899E+01
48.000000 -30.000000 -5.689490E+01
48.000000 -32.000000 -7.103205E+01
48.000000 -34.000000 -8.215180E+01
48.000000 -36.000000 -7.492451E+01
48.000000 -38.000000 -5.908290E+01
48.000000 -40.000000 -4.144756E+01
50.000000 40.000000 -6.350087E+01
50.000000 38.000000 -5.016426E+01
50.000000 36.000000 -4.838638E+01
50.000000 34.000000 -6.516952E+01
50.000000 32.000000 -8.008544E+01
50.000000 30.000000 -6.526179E+01
50.000000 28.000000 -2.714267E+01
50.000000 26.000000 1.034750E+01
50.000000 24.000000 4.047428E+01
50.000000 22.000000 5.034747E+01
50.000000 20.000000 4.649595E+01
50.000000 18.000000 3.801948E+01
50.000000 16.000000 3.227656E+01
50.000000 14.000000 3.321110E+01
50.000000 12.000000 3.250289E+01
50.000000 10.000000 2.664145E+01
50.000000 8.000000 1.942257E+01
50.000000 6.000000 1.529968E+01
50.000000 4.000000 1.506969E+01
50.000000 2.000000 2.315837E+01
50.000000 0.000000 3.770535E+01
50.000000 -2.000000 4.705457E+01
50.000000 -4.000000 4.145353E+01
50.000000 -6.000000 2.192037E+01
50.000000 -8.000000 3.276497E+00
50.000000 -10.000000 -1.294974E+01
50.000000 -12.000000 -3.717242E+01
50.000000 -14.000000 -7.199826E+01
50.000000 -16.000000 -1.067701E+02
50.000000 -18.000000 -1.270109E+02
50.000000 -20.000000 -1.271535E+02
50.000000 -22.000000 -1.082311E+02
50.000000 -24.000000 -7.647096E+01
50.000000 -26.000000 -5.525260E+01
50.000000 -28.000000 -5.311590E+01
50.000000 -30.000000 -5.894504E+01
50.000000 -32.000000 -7.298883E+01
50.000000 -34.000000 -8.404021E+01
50.000000 -36.000000 -7.610552E+01
50.000000 -38.000000 -5.863082E+01
50.000000 -40.000000 -4.005402E+01
52.000000 40.000000 -6.837119E+01
52.000000 38.000000 -5.202748E+01
52.000000 36.000000 -4.499527E+01
52.000000 34.000000 -5.521240E+01
52.000000 32.000000 -6.918352E+01
52.000000 30.000000 -5.946751E+01
52.000000 28.000000 -2.606841E+01
52.000000 26.000000 9.833214E+00
52.000000 24.000000 4.020423E+01
52.000000 22.000000 5.277700E+01
52.000000 20.000000 4.985087E+01
52.000000 18.000000 3.497964E+01
52.000000 16.000000 2.076380E+01
52.000000 14.000000 1.685665E+01
52.000000 12.000000 1.890795E+01
52.000000 10.000000 2.219781E+01
52.000000 8.000000 2.312564E+01
52.000000 6.000000 2.185676E+01
52.000000 4.000000 2.158444E+01
52.000000 2.000000 2.873075E+01
52.000000 0.000000 3.757721E+01
52.000000 -2.000000 3.702584E+01
52.000000 -4.000000 2.066144E+01
52.000000 -6.000000 -6.456547E+00
52.000000 -8.000000 -2.328409E+01
52.000000 -10.000000 -3.194729E+01
52.000000 -12.000000 -4.106833E+01
52.000000 -14.000000 -5.932601E+01
52.000000 -16.000000 -8.091670E+01
52.000000 -18.000000 -9.837508E+01
52.000000 -20.000000 -1.048649E+02
52.000000 -22.000000 -9.587595E+01
52.000000 -24.000000 -7.327382E+01
52.000000 -26.000000 -5.768467E+01
52.000000 -28.000000 -5.635760E+01
52.000000 -30.000000 -6.097803E+01
52.000000 -32.000000 -7.358642E+01
52.000000 -34.000000 -8.454013E+01
52.000000 -36.000000 -7.668925E+01
52.000000 -38.000000 -5.872174E+01
52.000000 -40.000000 -3.963797E+01
54.000000 40.000000 -7.578606E+01
54.000000 38.000000 -5.773698E+01
54.000000 36.000000 -4.564759E+01
54.000000 34.000000 -4.399561E+01
54.000000 32.000000 -4.920021E+01
54.000000 30.000000 -3.939096E+01
54.000000 28.000000 -1.265769E+01
54.000000 26.000000 1.475548E+01
54.000000 24.000000 3.604929E+01
54.000000 22.000000 4.471723E+01
54.000000 20.000000 4.120986E+01
54.000000 18.000000 2.551681E+01
54.000000 16.000000 9.995599E+00
54.000000 14.000000 4.245052E+00
54.000000 12.000000 6.427629E+00
54.000000 10.000000 1.300879E+01
54.000000 8.000000 1.813345E+01
54.000000 6.000000 1.859327E+01
54.000000 4.000000 2.087792E+01
54.000000 2.000000 2.852535E+01
54.000000 0.000000 3.150957E+01
54.000000 -2.000000 2.222185E+01
54.000000 -4.000000 -2.217747E+00
54.000000 -6.000000 -3.117445E+01
54.000000 -8.000000 -4.179820E+01
54.000000 -10.000000 -3.828651E+01
54.000000 -12.000000 -3.279126E+01
54.000000 -14.000000 -3.772079E+01
54.000000 -16.000000 -5.007798E+01
54.000000 -18.000000 -6.393927E+01
54.000000 -20.000000 -7.449871E+01
54.000000 -22.000000 -7.505547E+01
54.000000 -24.000000 -6.417333E+01
54.000000 -26.000000 -5.609168E+01
54.000000 -28.000000 -5.723616E+01
54.000000 -30.000000 -6.143377E+01
54.000000 -32.000000 -7.170031E+01
54.000000 -34.000000 -8.164434E+01
54.000000 -36.000000 -7.450174E+01
54.000000 -38.000000 -5.842428E+01
54.000000 -40.000000 -4.105423E+01
56.000000 40.000000 -7.729389E+01
56.000000 38.000000 -6.043825E+01
56.000000 36.000000 -4.875857E+01
56.000000 34.000000 -3.788851E+01
56.000000 32.000000 -3.405069E+01
56.000000 30.000000 -2.199470E+01
56.000000 28.000000 -1.857177E+00
56.000000 26.000000 1.505805E+01
56.000000 24.000000 2.689770E+01
56.000000 22.000000 3.110444E+01
56.000000 20.000000 2.966200E+01
56.000000 18.000000 2.214590E+01
56.000000 16.000000 1.169732E+01
56.000000 14.000000 5.672085E+00
56.000000 12.000000 3.367813E+00
56.000000 10.000000 3.386690E+00
56.000000 8.000000 6.222428E+00
56.000000 6.000000 8.361438E+00
56.000000 4.000000 1.662424E+01
56.000000 2.000000 2.646159E+01
56.000000 0.000000 2.660071E+01
56.000000 -2.000000 1.190916E+01
56.000000 -4.000000 -1.719087E+01
56.000000 -6.000000 -4.392186E+01
56.000000 -8.000000 -4.582744E+01
56.000000 -10.000000 -3.044326E+01
56.000000 -12.000000 -1.631082E+01
56.000000 -14.000000 -1.461207E+01
56.000000 -16.000000 -2.183687E+01
56.000000 -18.000000 -3.304487E+01
56.000000 -20.000000 -4.717448E+01
56.000000 -22.000000 -5.664439E+01
56.000000 -24.000000 -5.646152E+01
56.000000 -26.000000 -5.441939E+01
56.000000 -28.000000 -5.686797E+01
56.000000 -30.000000 -5.984904E+01
56.000000 -32.000000 -6.704354E+01
56.000000 -34.000000 -7.518857E+01
56.000000 -36.000000 -6.924781E+01
56.000000 -38.000000 -5.753094E+01
56.000000 -40.000000 -4.394457E+01
58.000000 40.000000 -7.620271E+01
58.000000 38.000000 -6.296175E+01
58.000000 36.000000 -5.278964E+01
58.000000 34.000000 -3.864817E+01
58.000000 32.000000 -2.877041E+01
58.000000 30.000000 -1.420057E+01
58.000000 28.000000 3.017552E+00
58.000000 26.000000 1.480706E+01
58.000000 24.000000 2.093569E+01
58.000000 22.000000 2.308849E+01
58.000000 20.000000 2.357212E+01
58.000000 18.000000 2.406475E+01
58.000000 16.000000 1.982948E+01
58.000000 14.000000 1.439244E+01
58.000000 12.000000 8.109112E+00
58.000000 10.000000 9.022522E-01
58.000000 8.000000 -1.522392E+00
58.000000 6.000000 6.240005E-01
58.000000 4.000000 1.293623E+01
58.000000 2.000000 2.440158E+01
58.000000 0.000000 2.458767E+01
58.000000 -2.000000 9.151258E+00
58.000000 -4.000000 -1.875610E+01
58.000000 -6.000000 -4.045538E+01
58.000000 -8.000000 -3.735134E+01
58.000000 -10.000000 -1.920101E+01
58.000000 -12.000000 -4.469109E+00
58.000000 -14.000000 -6.807368E-01
58.000000 -16.000000 -5.865105E+00
58.000000 -18.000000 -1.579185E+01
58.000000 -20.000000 -3.162562E+01
58.000000 -22.000000 -4.575349E+01
58.000000 -24.000000 -5.226612E+01
58.000000 -26.000000 -5.361282E+01
58.000000 -28.000000 -5.511431E+01
58.000000 -30.000000 -5.734878E+01
58.000000 -32.000000 -6.139685E+01
58.000000 -34.000000 -6.699714E+01
58.000000 -36.000000 -6.285573E+01
58.000000 -38.000000 -5.555377E+01
58.000000 -40.000000 -4.670801E+01
60.000000 40.000000 -7.565195E+01
