-22.000000 32.000000 -4.021237E+01
-22.000000 30.000000 -3.615378E+01
-22.000000 28.000000 -2.657648E+01
-22.000000 26.000000 -2.756143E+01
-22.000000 24.000000 -4.613188E+01
-22.000000 22.000000 -5.270030E+01
-22.000000 20.000000 -4.027256E+01
-22.000000 18.000000 -2.041753E+01
-22.000000 16.000000 8.182526E-03
-22.000000 14.000000 1.756515E+01
-22.000000 12.000000 2.622087E+01
-22.000000 10.000000 3.034545E+01
-22.000000 8.000000 2.639690E+01
-22.000000 6.000000 2.451082E+01
-22.000000 4.000000 2.470768E+01
-22.000000 2.000000 2.448629E+01
-22.000000 0.000000 1.266168E+01
-22.000000 -2.000000 -1.267261E+01
-22.000000 -4.000000 -4.535320E+01
-22.000000 -6.000000 -6.024180E+01
-22.000000 -8.000000 -4.275411E+01
-22.000000 -10.000000 -2.127369E+01
-22.000000 -12.000000 2.851521E-01
-22.000000 -14.000000 1.451845E+01
-22.000000 -16.000000 1.312576E+01
-22.000000 -18.000000 8.150182E-01
-22.000000 -20.000000 -1.080404E+01
-22.000000 -22.000000 -1.748987E+01
-22.000000 -24.000000 -2.241219E+01
-22.000000 -26.000000 -2.392561E+01
-22.000000 -28.000000 -2.381658E+01
-22.000000 -30.000000 -2.123706E+01
-22.000000 -32.000000 -1.645125E+01
-22.000000 -34.000000 -1.362114E+01
-22.000000 -36.000000 -1.385873E+01
-22.000000 -38.000000 -1.576883E+01
-22.000000 -40.000000 -2.287392E+01
-20.000000 40.000000 -1.369308E+01
-20.000000 38.000000 -1.920235E+01
-20.000000 36.000000 -2.329437E+01
-20.000000 34.000000 -2.992253E+01
-20.000000 32.000000 -3.618773E+01
-20.000000 30.000000 -3.398588E+01
-20.000000 28.000000 -2.440697E+01
-20.000000 26.000000 -2.726685E+01
-20.000000 24.000000 -5.055029E+01
-20.000000 22.000000 -5.705787E+01
-20.000000 20.000000 -4.316502E+01
-20.000000 18.000000 -2.472300E+01
-20.000000 16.000000 -1.010297E+01
-20.000000 14.000000 -6.036282E-01
-20.000000 12.000000 3.011360E-01
-20.000000 10.000000 -1.018367E+00
-20.000000 8.000000 -2.110207E+00
-20.000000 6.000000 6.049662E-01
-20.000000 4.000000 8.070627E+00
-20.000000 2.000000 1.535345E+01
-20.000000 0.000000 1.227344E+01
-20.000000 -2.000000 -1.383224E+00
-20.000000 -4.000000 -1.857409E+01
-20.000000 -6.000000 -2.651783E+01
-20.000000 -8.000000 -1.950610E+01
-20.000000 -10.000000 -7.308064E+00
-20.000000 -12.000000 6.956082E+00
-20.000000 -14.000000 1.587249E+01
-20.000000 -16.000000 1.247087E+01
-20.000000 -18.000000 1.910399E+00
-20.000000 -20.000000 -4.352160E+00
-20.000000 -22.000000 -6.637709E+00
-20.000000 -24.000000 -9.961234E+00
-20.000000 -26.000000 -1.318996E+01
-20.000000 -28.000000 -1.344600E+01
-20.000000 -30.000000 -7.067317E+00
-20.000000 -32.000000 1.782520E+00
-20.000000 -34.000000 4.439913E+00
-20.000000 -36.000000 -4.249344E-01
-20.000000 -38.000000 -9.207872E+00
-20.000000 -40.000000 -2.199933E+01
-18.000000 40.000000 -1.069449E+01
-18.000000 38.000000 -1.810003E+01
-18.000000 36.000000 -2.381980E+01
-18.000000 34.000000 -3.306602E+01
-18.000000 32.000000 -4.037767E+01
-18.000000 30.000000 -3.608395E+01
-18.000000 28.000000 -2.540656E+01
-18.000000 26.000000 -2.794408E+01
-18.000000 24.000000 -4.805011E+01
-18.000000 22.000000 -5.083140E+01
-18.000000 20.000000 -3.657098E+01
-18.000000 18.000000 -2.345670E+01
-18.000000 16.000000 -2.196156E+01
-18.000000 14.000000 -2.894124E+01
-18.000000 12.000000 -4.087080E+01
-18.000000 10.000000 -4.695539E+01
-18.000000 8.000000 -3.875863E+01
-18.000000 6.000000 -2.510388E+01
-18.000000 4.000000 -7.452130E+00
-18.000000 2.000000 6.535850E+00
-18.000000 0.000000 1.086045E+01
-18.000000 -2.000000 7.391096E+00
-18.000000 -4.000000 4.330953E+00
-18.000000 -6.000000 5.400320E+00
-18.000000 -8.000000 7.628407E+00
-18.000000 -10.000000 1.320330E+01
-18.000000 -12.000000 1.830778E+01
-18.000000 -14.000000 1.821668E+01
-18.000000 -16.000000 1.275372E+01
-18.000000 -18.000000 5.400103E+00
-18.000000 -20.000000 4.665141E+00
-18.000000 -22.000000 7.743106E+00
-18.000000 -24.000000 6.076178E+00
-18.000000 -26.000000 6.302099E-01
-18.000000 -28.000000 1.807044E+00
-18.000000 -30.000000 1.144741E+01
-18.000000 -32.000000 2.025602E+01
-18.000000 -34.000000 2.005023E+01
-18.000000 -36.000000 1.025430E+01
-18.000000 -38.000000 -6.035626E+00
-18.000000 -40.000000 -2.513411E+01
-16.000000 40.000000 -4.889160E+00
-16.000000 38.000000 -1.697003E+01
-16.000000 36.000000 -2.803124E+01
-16.000000 34.000000 -4.186851E+01
-16.000000 32.000000 -5.009104E+01
-16.000000 30.000000 -4.354695E+01
-16.000000 28.000000 -3.122310E+01
-16.000000 26.000000 -3.103124E+01
-16.000000 24.000000 -4.514982E+01
-16.000000 22.000000 -4.376582E+01
-16.000000 20.000000 -2.797715E+01
-16.000000 18.000000 -2.079129E+01
-16.000000 16.000000 -3.320625E+01
-16.000000 14.000000 -5.740342E+01
-16.000000 12.000000 -8.242609E+01
-16.000000 10.000000 -9.040874E+01
-16.000000 8.000000 -6.929352E+01
-16.000000 6.000000 -4.112695E+01
-16.000000 4.000000 -1.552491E+01
-16.000000 2.000000 -1.288588E+00
-16.000000 0.000000 3.026795E+00
-16.000000 -2.000000 2.093963E+00
-16.000000 -4.000000 4.474530E+00
-16.000000 -6.000000 1.305214E+01
-16.000000 -8.000000 2.233346E+01
-16.000000 -10.000000 3.303382E+01
-16.000000 -12.000000 3.742237E+01
-16.000000 -14.000000 3.256181E+01
-16.000000 -16.000000 2.256815E+01
-16.000000 -18.000000 1.482320E+01
-16.000000 -20.000000 1.602052E+01
-16.000000 -22.000000 2.126829E+01
-16.000000 -24.000000 2.004156E+01
-16.000000 -26.000000 1.340479E+01
-16.000000 -28.000000 1.561112E+01
-16.000000 -30.000000 2.546052E+01
-16.000000 -32.000000 3.214339E+01
-16.000000 -34.000000 2.832920E+01
-16.000000 -36.000000 1.350350E+01
-16.000000 -38.000000 -5.696846E+00
-16.000000 -40.000000 -2.706116E+01
-14.000000 40.000000 7.734451E-01
-14.000000 38.000000 -1.632644E+01
-14.000000 36.000000 -3.285770E+01
-14.000000 34.000000 -4.956439E+01
-14.000000 32.000000 -5.776992E+01
-14.000000 30.000000 -5.012692E+01
-14.000000 28.000000 -3.554932E+01
-14.000000 26.000000 -3.171069E+01
-14.000000 24.000000 -4.260733E+01
-14.000000 22.000000 -4.102960E+01
-14.000000 20.000000 -2.555624E+01
-14.000000 18.000000 -2.353721E+01
-14.000000 16.000000 -4.605467E+01
-14.000000 14.000000 -8.373961E+01
-14.000000 12.000000 -1.191191E+02
-14.000000 10.000000 -1.275265E+02
-14.000000 8.000000 -9.736095E+01
-14.000000 6.000000 -5.799364E+01
-14.000000 4.000000 -2.609505E+01
-14.000000 2.000000 -1.335284E+01
-14.000000 0.000000 -1.303617E+01
-14.000000 -2.000000 -1.495412E+01
-14.000000 -4.000000 -1.064037E+01
-14.000000 -6.000000 5.805033E+00
-14.000000 -8.000000 2.883328E+01
-14.000000 -10.000000 5.242926E+01
-14.000000 -12.000000 6.170408E+01
-14.000000 -14.000000 5.495785E+01
-14.000000 -16.000000 4.037187E+01
-14.000000 -18.000000 2.944195E+01
-14.000000 -20.000000 2.847788E+01
-14.000000 -22.000000 3.318898E+01
-14.000000 -24.000000 3.120138E+01
-14.000000 -26.000000 2.417146E+01
-14.000000 -28.000000 2.535211E+01
-14.000000 -30.000000 3.185452E+01
-14.000000 -32.000000 3.503145E+01
-14.000000 -34.000000 2.801755E+01
-14.000000 -36.000000 9.230013E+00
-14.000000 -38.000000 -9.235660E+00
-14.000000 -40.000000 -2.929171E+01
-12.000000 40.000000 9.547462E-01
-12.000000 38.000000 -1.781884E+01
-12.000000 36.000000 -3.397809E+01
-12.000000 34.000000 -4.887515E+01
-12.000000 32.000000 -5.554752E+01
-12.000000 30.000000 -4.841053E+01
-12.000000 28.000000 -3.393790E+01
-12.000000 26.000000 -2.912305E+01
-12.000000 24.000000 -4.195502E+01
-12.000000 22.000000 -4.542077E+01
-12.000000 20.000000 -3.347322E+01
-12.000000 18.000000 -3.497023E+01
-12.000000 16.000000 -6.348402E+01
-12.000000 14.000000 -1.108089E+02
-12.000000 12.000000 -1.522780E+02
-12.000000 10.000000 -1.604776E+02
-12.000000 8.000000 -1.232787E+02
-12.000000 6.000000 -7.513606E+01
-12.000000 4.000000 -3.507414E+01
-12.000000 2.000000 -1.929346E+01
-12.000000 0.000000 -1.953445E+01
-12.000000 -2.000000 -2.147540E+01
-12.000000 -4.000000 -1.739573E+01
-12.000000 -6.000000 4.791985E-01
-12.000000 -8.000000 3.007317E+01
-12.000000 -10.000000 6.150849E+01
-12.000000 -12.000000 7.577677E+01
-12.000000 -14.000000 7.012338E+01
-12.000000 -16.000000 5.433378E+01
-12.000000 -18.000000 4.003364E+01
-12.000000 -20.000000 3.620049E+01
-12.000000 -22.000000 3.978973E+01
-12.000000 -24.000000 3.593878E+01
-12.000000 -26.000000 2.802072E+01
-12.000000 -28.000000 2.800547E+01
-12.000000 -30.000000 3.213462E+01
-12.000000 -32.000000 3.174580E+01
-12.000000 -34.000000 2.254343E+01
-12.000000 -36.000000 2.727329E+00
-12.000000 -38.000000 -1.632857E+01
-12.000000 -40.000000 -3.597988E+01
-10.000000 40.000000 -2.142193E+00
-10.000000 38.000000 -1.955096E+01
-10.000000 36.000000 -3.113593E+01
-10.000000 34.000000 -4.026801E+01
-10.000000 32.000000 -4.327712E+01
-10.000000 30.000000 -3.809145E+01
-10.000000 28.000000 -2.805283E+01
-10.000000 26.000000 -2.836170E+01
-10.000000 24.000000 -4.885877E+01
-10.000000 22.000000 -5.862117E+01
-10.000000 20.000000 -5.034790E+01
-10.000000 18.000000 -5.104301E+01
-10.000000 16.000000 -7.923380E+01
-10.000000 14.000000 -1.295547E+02
-10.000000 12.000000 -1.729250E+02
-10.000000 10.000000 -1.797219E+02
-10.000000 8.000000 -1.340685E+02
-10.000000 6.000000 -7.897166E+01
-10.000000 4.000000 -3.099093E+01
-10.000000 2.000000 -7.622595E+00
-10.000000 0.000000 -2.501381E+00
-10.000000 -2.000000 -2.382954E+00
-10.000000 -4.000000 1.912441E-01
-10.000000 -6.000000 9.015123E+00
-10.000000 -8.000000 2.629702E+01
-10.000000 -10.000000 4.988433E+01
-10.000000 -12.000000 6.596704E+01
-10.000000 -14.000000 6.380628E+01
-10.000000 -16.000000 4.972632E+01
-10.000000 -18.000000 3.570923E+01
-10.000000 -20.000000 3.081831E+01
-10.000000 -22.000000 3.305374E+01
-10.000000 -24.000000 2.760080E+01
-10.000000 -26.000000 1.906171E+01
-10.000000 -28.000000 1.922026E+01
-10.000000 -30.000000 2.343164E+01
-10.000000 -32.000000 2.205037E+01
-10.000000 -34.000000 1.320474E+01
-10.000000 -36.000000 -4.486485E+00
-10.000000 -38.000000 -2.287712E+01
-10.000000 -40.000000 -4.172808E+01
-8.000000 40.000000 -5.419525E+00
-8.000000 38.000000 -2.104344E+01
-8.000000 36.000000 -2.782693E+01
-8.000000 34.000000 -2.951943E+01
-8.000000 32.000000 -2.703539E+01
-8.000000 30.000000 -2.389195E+01
-8.000000 28.000000 -2.031920E+01
-8.000000 26.000000 -2.973834E+01
-8.000000 24.000000 -6.001921E+01
-8.000000 22.000000 -7.288435E+01
-8.000000 20.000000 -6.495442E+01
-8.000000 18.000000 -6.044731E+01
-8.000000 16.000000 -8.012783E+01
-8.000000 14.000000 -1.225867E+02
-8.000000 12.000000 -1.602431E+02
-8.000000 10.000000 -1.617647E+02
-8.000000 8.000000 -1.131249E+02
-8.000000 6.000000 -5.872543E+01
-8.000000 4.000000 -1.349140E+01
-8.000000 2.000000 9.518789E+00
-8.000000 0.000000 1.783998E+01
-8.000000 -2.000000 1.973550E+01
-8.000000 -4.000000 2.103533E+01
-8.000000 -6.000000 1.774331E+01
-8.000000 -8.000000 1.591050E+01
-8.000000 -10.000000 2.358580E+01
-8.000000 -12.000000 3.447626E+01
-8.000000 -14.000000 3.305823E+01
-8.000000 -16.000000 2.163716E+01
-8.000000 -18.000000 1.194416E+01
-8.000000 -20.000000 9.898207E+00
-8.000000 -22.000000 1.197303E+01
-8.000000 -24.000000 7.380083E+00
-8.000000 -26.000000 8.750916E-02
-8.000000 -28.000000 2.144146E+00
-8.000000 -30.000000 7.344257E+00
-8.000000 -32.000000 7.543625E+00
-8.000000 -34.000000 1.723913E+00
-8.000000 -36.000000 -1.178722E+01
-8.000000 -38.000000 -2.627866E+01
-8.000000 -40.000000 -4.242825E+01
-6.000000 40.000000 -9.698984E+00
-6.000000 38.000000 -2.367736E+01
-6.000000 36.000000 -2.565015E+01
-6.000000 34.000000 -1.974908E+01
-6.000000 32.000000 -1.253666E+01
-6.000000 30.000000 -1.124211E+01
-6.000000 28.000000 -1.404488E+01
-6.000000 26.000000 -2.963542E+01
-6.000000 24.000000 -6.350112E+01
-6.000000 22.000000 -7.480356E+01
-6.000000 20.000000 -6.360910E+01
-6.000000 18.000000 -5.239955E+01
-6.000000 16.000000 -5.970119E+01
-6.000000 14.000000 -8.627958E+01
-6.000000 12.000000 -1.110238E+02
-6.000000 10.000000 -1.056937E+02
-6.000000 8.000000 -6.507662E+01
-6.000000 6.000000 -2.218825E+01
-6.000000 4.000000 4.743063E+00
-6.000000 2.000000 1.336733E+01
-6.000000 0.000000 1.659151E+01
-6.000000 -2.000000 1.812428E+01
-6.000000 -4.000000 1.920191E+01
-6.000000 -6.000000 1.035211E+01
-6.000000 -8.000000 -2.553415E+00
-6.000000 -10.000000 -7.612736E+00
-6.000000 -12.000000 -5.213373E+00
-6.000000 -14.000000 -9.444404E+00
-6.000000 -16.000000 -1.898219E+01
-6.000000 -18.000000 -2.373175E+01
-6.000000 -20.000000 -2.002394E+01
-6.000000 -22.000000 -1.491033E+01
-6.000000 -24.000000 -1.605141E+01
-6.000000 -26.000000 -2.022298E+01
-6.000000 -28.000000 -1.447637E+01
-6.000000 -30.000000 -7.624058E+00
-6.000000 -32.000000 -5.984273E+00
-6.000000 -34.000000 -8.122597E+00
-6.000000 -36.000000 -1.674941E+01
-6.000000 -38.000000 -2.768274E+01
-6.000000 -40.000000 -4.163157E+01
-4.000000 40.000000 -1.403155E+01
-4.000000 38.000000 -2.674315E+01
-4.000000 36.000000 -2.506475E+01
-4.000000 34.000000 -1.339186E+01
-4.000000 32.000000 -2.611847E+00
-4.000000 30.000000 -1.394150E+00
-4.000000 28.000000 -6.876503E+00
-4.000000 26.000000 -2.302504E+01
-4.000000 24.000000 -5.295100E+01
-4.000000 22.000000 -6.105762E+01
-4.000000 20.000000 -4.641300E+01
-4.000000 18.000000 -3.001137E+01
-4.000000 16.000000 -2.813380E+01
-4.000000 14.000000 -4.043217E+01
-4.000000 12.000000 -5.387284E+01
-4.000000 10.000000 -4.470662E+01
-4.000000 8.000000 -1.608356E+01
-4.000000 6.000000 1.106402E+01
-4.000000 4.000000 1.493430E+01
-4.000000 2.000000 4.017693E+00
-4.000000 0.000000 -5.500851E+00
-4.000000 -2.000000 -8.167850E+00
-4.000000 -4.000000 -7.349276E+00
-4.000000 -6.000000 -1.315182E+01
-4.000000 -8.000000 -2.513796E+01
-4.000000 -10.000000 -3.539266E+01
-4.000000 -12.000000 -3.881128E+01
-4.000000 -14.000000 -4.625059E+01
-4.000000 -16.000000 -5.472155E+01
-4.000000 -18.000000 -5.540856E+01
-4.000000 -20.000000 -4.655014E+01
-4.000000 -22.000000 -3.664832E+01
-4.000000 -24.000000 -3.302852E+01
-4.000000 -26.000000 -3.337830E+01
-4.000000 -28.000000 -2.484704E+01
-4.000000 -30.000000 -1.701586E+01
-4.000000 -32.000000 -1.486648E+01
-4.000000 -34.000000 -1.427811E+01
-4.000000 -36.000000 -1.888580E+01
-4.000000 -38.000000 -2.792009E+01
-4.000000 -40.000000 -4.113740E+01
-2.000000 40.000000 -1.540976E+01
-2.000000 38.000000 -2.789073E+01
-2.000000 36.000000 -2.627149E+01
-2.000000 34.000000 -1.305618E+01
-2.000000 32.000000 5.886536E-01
-2.000000 30.000000 4.022083E+00
-2.000000 28.000000 5.245590E-01
-2.000000 26.000000 -1.100510E+01
-2.000000 24.000000 -3.204124E+01
-2.000000 22.000000 -3.749220E+01
-2.000000 20.000000 -2.297418E+01
-2.000000 18.000000 -6.783558E+00
-2.000000 16.000000 -2.494888E+00
-2.000000 14.000000 -8.730818E+00
-2.000000 12.000000 -1.819474E+01
-2.000000 10.000000 -1.089193E+01
-2.000000 8.000000 8.011183E+00
-2.000000 6.000000 2.303181E+01
-2.000000 4.000000 1.170429E+01
-2.000000 2.000000 -1.233511E+01
-2.000000 0.000000 -3.373122E+01
-2.000000 -2.000000 -4.268544E+01
-2.000000 -4.000000 -4.364359E+01
-2.000000 -6.000000 -4.218192E+01
-2.000000 -8.000000 -4.431599E+01
-2.000000 -10.000000 -5.116099E+01
-2.000000 -12.000000 -5.597683E+01
-2.000000 -14.000000 -6.401308E+01
-2.000000 -16.000000 -7.124557E+01
-2.000000 -18.000000 -7.059254E+01
-2.000000 -20.000000 -5.975580E+01
-2.000000 -22.000000 -4.551571E+01
-2.000000 -24.000000 -3.728355E+01
-2.000000 -26.000000 -3.497073E+01
-2.000000 -28.000000 -2.791314E+01
-2.000000 -30.000000 -2.142767E+01
-2.000000 -32.000000 -1.885014E+01
-2.000000 -34.000000 -1.642386E+01
-2.000000 -36.000000 -1.910537E+01
-2.000000 -38.000000 -2.692633E+01
-2.000000 -40.000000 -4.002400E+01
0.000000 40.000000 -1.232760E+01
0.000000 38.000000 -2.587697E+01
0.000000 36.000000 -2.787423E+01
0.000000 34.000000 -1.816486E+01
0.000000 32.000000 -4.949644E+00
0.000000 30.000000 9.500847E-01
0.000000 28.000000 2.856812E+00
0.000000 26.000000 -2.129517E-01
0.000000 24.000000 -1.029407E+01
0.000000 22.000000 -1.425160E+01
0.000000 20.000000 -3.000311E+00
0.000000 18.000000 7.232273E+00
0.000000 16.000000 6.894535E+00
0.000000 14.000000 -2.158834E+00
0.000000 12.000000 -1.511005E+01
0.000000 10.000000 -1.572424E+01
0.000000 8.000000 -4.769350E+00
0.000000 6.000000 4.309803E+00
0.000000 4.000000 -5.735495E+00
0.000000 2.000000 -2.818577E+01
0.000000 0.000000 -5.213110E+01
0.000000 -2.000000 -6.564918E+01
0.000000 -4.000000 -6.943499E+01
0.000000 -6.000000 -6.273672E+01
0.000000 -8.000000 -5.412323E+01
0.000000 -10.000000 -5.114065E+01
0.000000 -12.000000 -5.107767E+01
0.000000 -14.000000 -5.678760E+01
0.000000 -16.000000 -6.420019E+01
0.000000 -18.000000 -6.478765E+01
0.000000 -20.000000 -5.530050E+01
0.000000 -22.000000 -4.082837E+01
0.000000 -24.000000 -3.181565E+01
0.000000 -26.000000 -2.978790E+01
0.000000 -28.000000 -2.590534E+01
0.000000 -30.000000 -2.093129E+01
0.000000 -32.000000 -1.756263E+01
0.000000 -34.000000 -1.397317E+01
0.000000 -36.000000 -1.670619E+01
0.000000 -38.000000 -2.436222E+01
0.000000 -40.000000 -3.763449E+01
2.000000 40.000000 -5.280220E+00
2.000000 38.000000 -2.087120E+01
2.000000 36.000000 -2.839507E+01
2.000000 34.000000 -2.713730E+01
2.000000 32.000000 -1.983397E+01
2.000000 30.000000 -1.314958E+01
2.000000 28.000000 -4.297279E+00
2.000000 26.000000 8.627815E-01
2.000000 24.000000 -1.627739E+00
2.000000 22.000000 -3.389982E+00
2.000000 20.000000 5.141207E+00
2.000000 18.000000 8.080921E+00
2.000000 16.000000 3.641243E-01
2.000000 14.000000 -1.514730E+01
2.000000 12.000000 -3.566780E+01
2.000000 10.000000 -4.638604E+01
2.000000 8.000000 -4.021881E+01
2.000000 6.000000 -3.045349E+01
2.000000 4.000000 -2.666844E+01
2.000000 2.000000 -3.467746E+01
2.000000 0.000000 -5.140748E+01
2.000000 -2.000000 -6.568647E+01
2.000000 -4.000000 -7.310092E+01
2.000000 -6.000000 -6.525416E+01
2.000000 -8.000000 -4.890705E+01
2.000000 -10.000000 -3.729171E+01
2.000000 -12.000000 -3.125685E+01
2.000000 -14.000000 -3.307525E+01
2.000000 -16.000000 -4.015670E+01
2.000000 -18.000000 -4.280366E+01
2.000000 -20.000000 -3.756325E+01
2.000000 -22.000000 -2.830816E+01
2.000000 -24.000000 -2.389000E+01
2.000000 -26.000000 -2.454526E+01
2.000000 -28.000000 -2.165070E+01
2.000000 -30.000000 -1.518025E+01
2.000000 -32.000000 -9.657888E+00
2.000000 -34.000000 -5.674527E+00
2.000000 -36.000000 -1.006060E+01
2.000000 -38.000000 -1.954153E+01
2.000000 -40.000000 -3.401476E+01
4.000000 40.000000 4.433336E+00
4.000000 38.000000 -1.419672E+01
4.000000 36.000000 -2.807311E+01
4.000000 34.000000 -3.921833E+01
4.000000 32.000000 -4.191557E+01
4.000000 30.000000 -3.705877E+01
4.000000 28.000000 -2.347994E+01
4.000000 26.000000 -1.350701E+01
4.000000 24.000000 -1.396768E+01
4.000000 22.000000 -1.175461E+01
4.000000 20.000000 -3.062834E+00
4.000000 18.000000 -3.979683E+00
4.000000 16.000000 -1.647337E+01
4.000000 14.000000 -3.694811E+01
4.000000 12.000000 -6.309626E+01
4.000000 10.000000 -7.958916E+01
4.000000 8.000000 -7.426904E+01
4.000000 6.000000 -5.942255E+01
4.000000 4.000000 -3.744082E+01
4.000000 2.000000 -2.459871E+01
4.000000 0.000000 -2.794195E+01
4.000000 -2.000000 -4.034502E+01
4.000000 -4.000000 -5.338840E+01
4.000000 -6.000000 -4.909737E+01
4.000000 -8.000000 -2.762726E+01
4.000000 -10.000000 -1.235423E+01
4.000000 -12.000000 -7.160426E+00
4.000000 -14.000000 -5.616235E+00
4.000000 -16.000000 -8.903543E+00
4.000000 -18.000000 -1.399367E+01
4.000000 -20.000000 -1.526848E+01
4.000000 -22.000000 -1.396729E+01
4.000000 -24.000000 -1.652545E+01
4.000000 -26.000000 -2.088967E+01
4.000000 -28.000000 -1.607666E+01
4.000000 -30.000000 -4.976604E+00
4.000000 -32.000000 3.816302E+00
4.000000 -34.000000 7.565642E+00
4.000000 -36.000000 3.550377E-01
4.000000 -38.000000 -1.313241E+01
4.000000 -40.000000 -3.016723E+01
6.000000 40.000000 1.760141E+01
6.000000 38.000000 -6.037859E+00
6.000000 36.000000 -2.817664E+01
6.000000 34.000000 -5.301935E+01
6.000000 32.000000 -6.648131E+01
6.000000 30.000000 -6.519788E+01
6.000000 28.000000 -5.115217E+01
6.000000 26.000000 -4.000699E+01
6.000000 24.000000 -4.219617E+01
6.000000 22.000000 -3.713337E+01
6.000000 20.000000 -2.685396E+01
6.000000 18.000000 -2.895940E+01
6.000000 16.000000 -4.366420E+01
6.000000 14.000000 -6.588693E+01
6.000000 12.000000 -8.964834E+01
6.000000 10.000000 -1.022315E+02
6.000000 8.000000 -9.209031E+01
6.000000 6.000000 -6.742636E+01
6.000000 4.000000 -2.795138E+01
6.000000 2.000000 4.729256E+00
6.000000 0.000000 1.688154E+01
6.000000 -2.000000 8.585205E+00
6.000000 -4.000000 -9.891972E+00
6.000000 -6.000000 -1.536252E+01
6.000000 -8.000000 -5.280628E-01
6.000000 -10.000000 1.280300E+01
6.000000 -12.000000 1.792383E+01
6.000000 -14.000000 2.161937E+01
6.000000 -16.000000 2.063738E+01
6.000000 -18.000000 1.285703E+01
6.000000 -20.000000 5.159206E+00
6.000000 -22.000000 -8.104000E-01
6.000000 -24.000000 -9.155215E+00
6.000000 -26.000000 -1.676384E+01
6.000000 -28.000000 -9.185858E+00
6.000000 -30.000000 6.956876E+00
6.000000 -32.000000 1.857069E+01
6.000000 -34.000000 2.129521E+01
6.000000 -36.000000 1.102833E+01
6.000000 -38.000000 -6.091417E+00
6.000000 -40.000000 -2.525088E+01
8.000000 40.000000 3.449965E+01
8.000000 38.000000 3.809042E+00
8.000000 36.000000 -2.896357E+01
8.000000 34.000000 -6.459364E+01
8.000000 32.000000 -8.551705E+01
8.000000 30.000000 -8.722417E+01
8.000000 28.000000 -7.579067E+01
8.000000 26.000000 -6.676392E+01
8.000000 24.000000 -7.403181E+01
8.000000 22.000000 -6.979614E+01
8.000000 20.000000 -5.837197E+01
8.000000 18.000000 -5.928118E+01
8.000000 16.000000 -7.387956E+01
8.000000 14.000000 -9.473962E+01
8.000000 12.000000 -1.118528E+02
8.000000 10.000000 -1.156625E+02
8.000000 8.000000 -9.976221E+01
8.000000 6.000000 -6.556446E+01
8.000000 4.000000 -1.242575E+01
8.000000 2.000000 3.833634E+01
8.000000 0.000000 6.925066E+01
8.000000 -2.000000 7.074203E+01
8.000000 -4.000000 5.180209E+01
8.000000 -6.000000 3.252221E+01
8.000000 -8.000000 2.723521E+01
8.000000 -10.000000 3.006249E+01
8.000000 -12.000000 3.826070E+01
8.000000 -14.000000 4.483536E+01
8.000000 -16.000000 4.379653E+01
8.000000 -18.000000 3.499565E+01
8.000000 -20.000000 2.383552E+01
8.000000 -22.000000 1.386330E+01
8.000000 -24.000000 2.406446E+00
8.000000 -26.000000 -7.290943E+00
8.000000 -28.000000 2.822113E-01
8.000000 -30.000000 1.720487E+01
8.000000 -32.000000 2.883230E+01
8.000000 -34.000000 2.981833E+01
8.000000 -36.000000 1.785552E+01
8.000000 -38.000000 1.101209E+00
8.000000 -40.000000 -1.760784E+01
10.000000 40.000000 4.610762E+01
10.000000 38.000000 1.169850E+01
10.000000 36.000000 -2.698453E+01
10.000000 34.000000 -6.611891E+01
10.000000 32.000000 -8.787070E+01
10.000000 30.000000 -8.845010E+01
10.000000 28.000000 -7.917850E+01
10.000000 26.000000 -7.425743E+01
10.000000 24.000000 -8.899494E+01
10.000000 22.000000 -9.092947E+01
10.000000 20.000000 -8.252158E+01
10.000000 18.000000 -8.393472E+01
10.000000 16.000000 -9.804923E+01
10.000000 14.000000 -1.171253E+02
10.000000 12.000000 -1.323195E+02
10.000000 10.000000 -1.347023E+02
10.000000 8.000000 -1.168934E+02
10.000000 6.000000 -7.864087E+01
10.000000 4.000000 -1.584264E+01
10.000000 2.000000 5.293090E+01
10.000000 0.000000 1.078294E+02
10.000000 -2.000000 1.290852E+02
10.000000 -4.000000 1.190694E+02
10.000000 -6.000000 8.665905E+01
10.000000 -8.000000 5.651781E+01
10.000000 -10.000000 4.097700E+01
10.000000 -12.000000 4.787746E+01
10.000000 -14.000000 5.972516E+01
10.000000 -16.000000 6.303508E+01
10.000000 -18.000000 5.495583E+01
10.000000 -20.000000 4.163395E+01
10.000000 -22.000000 3.026020E+01
10.000000 -24.000000 1.814617E+01
10.000000 -26.000000 7.705135E+00
10.000000 -28.000000 1.190026E+01
10.000000 -30.000000 2.470214E+01
10.000000 -32.000000 3.314662E+01
10.000000 -34.000000 3.283546E+01
10.000000 -36.000000 2.112899E+01
10.000000 -38.000000 6.893943E+00
10.000000 -40.000000 -1.021774E+01
12.000000 40.000000 4.731691E+01
12.000000 38.000000 1.695896E+01
12.000000 36.000000 -1.824145E+01
12.000000 34.000000 -5.376635E+01
12.000000 32.000000 -7.032588E+01
12.000000 30.000000 -6.536523E+01
12.000000 28.000000 -5.664178E+01
12.000000 26.000000 -5.745697E+01
12.000000 24.000000 -8.054576E+01
12.000000 22.000000 -9.274968E+01
12.000000 20.000000 -9.132777E+01
12.000000 18.000000 -9.232648E+01
12.000000 16.000000 -1.037078E+02
12.000000 14.000000 -1.238865E+02
12.000000 12.000000 -1.458192E+02
12.000000 10.000000 -1.592955E+02
12.000000 8.000000 -1.475657E+02
12.000000 6.000000 -1.132428E+02
12.000000 4.000000 -4.498611E+01
12.000000 2.000000 4.028161E+01
12.000000 0.000000 1.195270E+02
12.000000 -2.000000 1.664918E+02
12.000000 -4.000000 1.735194E+02
12.000000 -6.000000 1.347915E+02
12.000000 -8.000000 8.242803E+01
12.000000 -10.000000 4.647213E+01
12.000000 -12.000000 4.858952E+01
12.000000 -14.000000 6.786052E+01
12.000000 -16.000000 7.960000E+01
12.000000 -18.000000 7.168668E+01
12.000000 -20.000000 5.385500E+01
12.000000 -22.000000 4.039216E+01
12.000000 -24.000000 2.833732E+01
12.000000 -26.000000 1.905818E+01
12.000000 -28.000000 1.990918E+01
12.000000 -30.000000 2.737708E+01
12.000000 -32.000000 3.270063E+01
12.000000 -34.000000 3.318843E+01
12.000000 -36.000000 2.345306E+01
12.000000 -38.000000 1.089436E+01
12.000000 -40.000000 -5.350652E+00
14.000000 40.000000 4.764314E+01
14.000000 38.000000 2.523494E+01
14.000000 36.000000 -3.346420E+00
14.000000 34.000000 -3.311204E+01
14.000000 32.000000 -4.346805E+01
14.000000 30.000000 -3.283658E+01
14.000000 28.000000 -2.291930E+01
14.000000 26.000000 -3.038137E+01
14.000000 24.000000 -6.155991E+01
14.000000 22.000000 -8.070984E+01
14.000000 20.000000 -8.203219E+01
14.000000 18.000000 -7.772308E+01
14.000000 16.000000 -8.330915E+01
14.000000 14.000000 -1.049123E+02
14.000000 12.000000 -1.374622E+02
14.000000 10.000000 -1.692577E+02
14.000000 8.000000 -1.724039E+02
14.000000 6.000000 -1.498653E+02
14.000000 4.000000 -8.433420E+01
14.000000 2.000000 8.869765E+00
14.000000 0.000000 1.027112E+02
14.000000 -2.000000 1.716684E+02
14.000000 -4.000000 1.990296E+02
14.000000 -6.000000 1.645331E+02
14.000000 -8.000000 9.903213E+01
14.000000 -10.000000 4.690613E+01
14.000000 -12.000000 4.389857E+01
14.000000 -14.000000 7.051599E+01
14.000000 -16.000000 9.021855E+01
14.000000 -18.000000 7.985716E+01
14.000000 -20.000000 5.290372E+01
14.000000 -22.000000 3.355473E+01
14.000000 -24.000000 2.159305E+01
14.000000 -26.000000 1.607388E+01
14.000000 -28.000000 1.721184E+01
14.000000 -30.000000 2.283404E+01
14.000000 -32.000000 2.847138E+01
14.000000 -34.000000 3.178360E+01
14.000000 -36.000000 2.565004E+01
14.000000 -38.000000 1.490991E+01
14.000000 -40.000000 -1.274843E-01
16.000000 40.000000 5.105474E+01
16.000000 38.000000 3.594877E+01
16.000000 36.000000 1.305673E+01
16.000000 34.000000 -1.146691E+01
16.000000 32.000000 -1.797928E+01
16.000000 30.000000 -4.574801E+00
16.000000 28.000000 8.483931E+00
16.000000 26.000000 -1.914519E+00
16.000000 24.000000 -3.521821E+01
16.000000 22.000000 -5.247432E+01
16.000000 20.000000 -4.861985E+01
16.000000 18.000000 -3.666831E+01
16.000000 16.000000 -3.703491E+01
16.000000 14.000000 -5.896495E+01
16.000000 12.000000 -1.022398E+02
16.000000 10.000000 -1.525261E+02
16.000000 8.000000 -1.771087E+02
16.000000 6.000000 -1.732887E+02
16.000000 4.000000 -1.206070E+02
16.000000 2.000000 -3.336329E+01
16.000000 0.000000 5.952125E+01
16.000000 -2.000000 1.381838E+02
16.000000 -4.000000 1.811434E+02
16.000000 -6.000000 1.603136E+02
16.000000 -8.000000 9.761080E+01
16.000000 -10.000000 4.318953E+01
16.000000 -12.000000 4.126579E+01
16.000000 -14.000000 7.467625E+01
16.000000 -16.000000 9.747238E+01
16.000000 -18.000000 7.947297E+01
16.000000 -20.000000 3.890100E+01
16.000000 -22.000000 9.207627E+00
16.000000 -24.000000 -2.485129E+00
16.000000 -26.000000 -1.997299E+00
16.000000 -28.000000 3.419679E+00
16.000000 -30.000000 1.110440E+01
16.000000 -32.000000 1.940752E+01
16.000000 -34.000000 2.631895E+01
16.000000 -36.000000 2.517688E+01
16.000000 -38.000000 1.812967E+01
16.000000 -40.000000 6.303145E+00
18.000000 40.000000 5.281775E+01
18.000000 38.000000 4.263392E+01
18.000000 36.000000 2.582126E+01
18.000000 34.000000 7.463663E+00
18.000000 32.000000 3.012428E+00
18.000000 30.000000 1.632359E+01
18.000000 28.000000 3.349284E+01
18.000000 26.000000 2.845840E+01
18.000000 24.000000 4.578326E+00
18.000000 22.000000 -4.238173E+00
18.000000 20.000000 7.607711E+00
18.000000 18.000000 2.318415E+01
18.000000 16.000000 2.303348E+01
18.000000 14.000000 -1.035804E+00
18.000000 12.000000 -5.484127E+01
18.000000 10.000000 -1.211465E+02
18.000000 8.000000 -1.663466E+02
18.000000 6.000000 -1.812978E+02
18.000000 4.000000 -1.460335E+02
18.000000 2.000000 -7.582323E+01
18.000000 0.000000 1.965325E+00
18.000000 -2.000000 7.644727E+01
18.000000 -4.000000 1.255698E+02
18.000000 -6.000000 1.208397E+02
18.000000 -8.000000 7.508260E+01
18.000000 -10.000000 3.550168E+01
18.000000 -12.000000 4.720235E+01
18.000000 -14.000000 9.106424E+01
18.000000 -16.000000 1.125717E+02
18.000000 -18.000000 7.880206E+01
18.000000 -20.000000 1.859634E+01
18.000000 -22.000000 -2.379838E+01
18.000000 -24.000000 -3.602847E+01
18.000000 -26.000000 -3.066328E+01
18.000000 -28.000000 -1.890054E+01
18.000000 -30.000000 -6.435660E+00
18.000000 -32.000000 4.172327E+00
18.000000 -34.000000 1.474352E+01
18.000000 -36.000000 1.966824E+01
18.000000 -38.000000 1.840097E+01
18.000000 -40.000000 1.149901E+01
20.000000 40.000000 5.231472E+01
20.000000 38.000000 4.484382E+01
20.000000 36.000000 3.270378E+01
20.000000 34.000000 1.969393E+01
20.000000 32.000000 1.754590E+01
20.000000 30.000000 3.233763E+01
20.000000 28.000000 5.501221E+01
20.000000 26.000000 5.935588E+01
20.000000 24.000000 4.972186E+01
20.000000 22.000000 4.801329E+01
20.000000 20.000000 6.351639E+01
20.000000 18.000000 7.554759E+01
20.000000 16.000000 7.082173E+01
20.000000 14.000000 4.339136E+01
20.000000 12.000000 -1.532341E+01
20.000000 10.000000 -8.743700E+01
20.000000 8.000000 -1.424588E+02
20.000000 6.000000 -1.683062E+02
20.000000 4.000000 -1.502653E+02
20.000000 2.000000 -1.021310E+02
20.000000 0.000000 -4.711789E+01
20.000000 -2.000000 9.903693E+00
20.000000 -4.000000 5.359088E+01
20.000000 -6.000000 6.050779E+01
20.000000 -8.000000 3.758658E+01
20.000000 -10.000000 2.548439E+01
20.000000 -12.000000 6.472799E+01
20.000000 -14.000000 1.218331E+02
20.000000 -16.000000 1.373515E+02
20.000000 -18.000000 8.297692E+01
20.000000 -20.000000 4.980249E-01
20.000000 -22.000000 -5.479032E+01
20.000000 -24.000000 -6.927545E+01
20.000000 -26.000000 -6.138846E+01
20.000000 -28.000000 -4.536299E+01
20.000000 -30.000000 -2.835553E+01
20.000000 -32.000000 -1.522786E+01
20.000000 -34.000000 -7.083387E-01
20.000000 -36.000000 1.021601E+01
20.000000 -38.000000 1.487346E+01
20.000000 -40.000000 1.304295E+01
22.000000 40.000000 5.110175E+01
22.000000 38.000000 4.493327E+01
22.000000 36.000000 3.393757E+01
22.000000 34.000000 2.313847E+01
22.000000 32.000000 2.361539E+01
22.000000 30.000000 4.251529E+01
22.000000 28.000000 6.936395E+01
22.000000 26.000000 8.100411E+01
22.000000 24.000000 8.266133E+01
22.000000 22.000000 8.314538E+01
22.000000 20.000000 9.628428E+01
22.000000 18.000000 1.010700E+02
22.000000 16.000000 9.070069E+01
22.000000 14.000000 6.173255E+01
22.000000 12.000000 6.410775E+00
22.000000 10.000000 -5.933676E+01
22.000000 8.000000 -1.134108E+02
22.000000 6.000000 -1.424222E+02
22.000000 4.000000 -1.385594E+02
22.000000 2.000000 -1.121839E+02
22.000000 0.000000 -7.970627E+01
22.000000 -2.000000 -4.131108E+01
22.000000 -4.000000 -6.962056E+00
22.000000 -6.000000 7.215594E+00
22.000000 -8.000000 7.271159E+00
22.000000 -10.000000 2.503874E+01
22.000000 -12.000000 9.228674E+01
22.000000 -14.000000 1.589150E+02
22.000000 -16.000000 1.654485E+02
22.000000 -18.000000 9.233807E+01
22.000000 -20.000000 -9.436692E+00
22.000000 -22.000000 -7.704377E+01
22.000000 -24.000000 -9.534943E+01
22.000000 -26.000000 -8.564243E+01
22.000000 -28.000000 -6.950891E+01
22.000000 -30.000000 -5.156084E+01
22.000000 -32.000000 -3.568284E+01
22.000000 -34.000000 -1.727392E+01
22.000000 -36.000000 -1.523726E+00
22.000000 -38.000000 7.695624E+00
22.000000 -40.000000 1.007902E+01
24.000000 40.000000 4.822265E+01
24.000000 38.000000 4.354757E+01
24.000000 36.000000 3.314301E+01
24.000000 34.000000 2.220871E+01
24.000000 32.000000 2.245943E+01
24.000000 30.000000 4.126414E+01
24.000000 28.000000 6.824361E+01
24.000000 26.000000 8.097847E+01
24.000000 24.000000 8.448987E+01
24.000000 22.000000 8.560661E+01
24.000000 20.000000 9.595129E+01
24.000000 18.000000 9.434072E+01
24.000000 16.000000 7.951941E+01
24.000000 14.000000 5.169538E+01
24.000000 12.000000 5.655435E+00
24.000000 10.000000 -4.554821E+01
24.000000 8.000000 -9.090509E+01
24.000000 6.000000 -1.161385E+02
24.000000 4.000000 -1.203621E+02
24.000000 2.000000 -1.101821E+02
24.000000 0.000000 -9.150746E+01
24.000000 -2.000000 -6.088947E+01
24.000000 -4.000000 -3.105027E+01
24.000000 -6.000000 -1.234148E+01
24.000000 -8.000000 5.324355E+00
24.000000 -10.000000 4.373759E+01
24.000000 -12.000000 1.250434E+02
24.000000 -14.000000 1.914573E+02
24.000000 -16.000000 1.884813E+02
24.000000 -18.000000 1.021106E+02
24.000000 -20.000000 -1.365622E+01
24.000000 -22.000000 -9.011114E+01
24.000000 -24.000000 -1.107798E+02
24.000000 -26.000000 -1.004708E+02
24.000000 -28.000000 -8.671822E+01
24.000000 -30.000000 -7.081961E+01
24.000000 -32.000000 -5.400297E+01
24.000000 -34.000000 -3.278676E+01
24.000000 -36.000000 -1.370534E+01
24.000000 -38.000000 -1.343170E+00
24.000000 -40.000000 3.984118E+00
26.000000 40.000000 4.506418E+01
26.000000 38.000000 4.054614E+01
26.000000 36.000000 3.009368E+01
26.000000 34.000000 1.589552E+01
26.000000 32.000000 1.149016E+01
26.000000 30.000000 2.487523E+01
26.000000 28.000000 4.803115E+01
26.000000 26.000000 5.484899E+01
26.000000 24.000000 5.069315E+01
26.000000 22.000000 5.402061E+01
26.000000 20.000000 6.458715E+01
26.000000 18.000000 5.951305E+01
26.000000 16.000000 4.166586E+01
26.000000 14.000000 1.626826E+01
26.000000 12.000000 -1.857967E+01
26.000000 10.000000 -5.304563E+01
26.000000 8.000000 -8.077448E+01
26.000000 6.000000 -9.468413E+01
26.000000 4.000000 -9.815564E+01
26.000000 2.000000 -9.330210E+01
26.000000 0.000000 -7.788639E+01
26.000000 -2.000000 -4.520492E+01
26.000000 -4.000000 -1.072196E+01
26.000000 -6.000000 1.435335E+01
26.000000 -8.000000 3.906485E+01
26.000000 -10.000000 8.209941E+01
26.000000 -12.000000 1.574539E+02
26.000000 -14.000000 2.110536E+02
26.000000 -16.000000 1.954939E+02
26.000000 -18.000000 1.017485E+02
26.000000 -20.000000 -1.835889E+01
26.000000 -22.000000 -9.574436E+01
26.000000 -24.000000 -1.149577E+02
26.000000 -26.000000 -1.042263E+02
26.000000 -28.000000 -9.344719E+01
26.000000 -30.000000 -8.130788E+01
26.000000 -32.000000 -6.595715E+01
26.000000 -34.000000 -4.413871E+01
26.000000 -36.000000 -2.384069E+01
26.000000 -38.000000 -9.647743E+00
26.000000 -40.000000 -3.010824E+00
28.000000 40.000000 4.509230E+01
28.000000 38.000000 3.564243E+01
28.000000 36.000000 2.051362E+01
28.000000 34.000000 -1.400527E+00
28.000000 32.000000 -1.267826E+01
28.000000 30.000000 -5.585855E+00
28.000000 28.000000 9.918668E+00
28.000000 26.000000 8.346588E+00
28.000000 24.000000 -5.240103E+00
28.000000 22.000000 1.321718E+00
28.000000 20.000000 1.371034E+01
28.000000 18.000000 9.391045E+00
28.000000 16.000000 -9.066586E+00
28.000000 14.000000 -3.328904E+01
28.000000 12.000000 -5.916560E+01
28.000000 10.000000 -7.864836E+01
28.000000 8.000000 -8.364027E+01
28.000000 6.000000 -8.007151E+01
28.000000 4.000000 -7.413481E+01
28.000000 2.000000 -6.499135E+01
28.000000 0.000000 -4.356808E+01
28.000000 -2.000000 -1.997898E+00
28.000000 -4.000000 4.328094E+01
28.000000 -6.000000 7.582888E+01
28.000000 -8.000000 9.859263E+01
28.000000 -10.000000 1.339240E+02
28.000000 -12.000000 1.858836E+02
28.000000 -14.000000 2.148228E+02
28.000000 -16.000000 1.819274E+02
28.000000 -18.000000 8.642519E+01
28.000000 -20.000000 -2.392100E+01
28.000000 -22.000000 -9.201172E+01
28.000000 -24.000000 -1.076369E+02
28.000000 -26.000000 -9.724195E+01
28.000000 -28.000000 -8.843680E+01
28.000000 -30.000000 -8.037804E+01
28.000000 -32.000000 -6.834040E+01
28.000000 -34.000000 -4.852037E+01
28.000000 -36.000000 -3.003396E+01
28.000000 -38.000000 -1.544255E+01
28.000000 -40.000000 -9.600716E+00
30.000000 40.000000 4.678280E+01
30.000000 38.000000 2.783874E+01
30.000000 36.000000 3.269542E+00
30.000000 34.000000 -2.843652E+01
30.000000 32.000000 -4.568353E+01
30.000000 30.000000 -4.443935E+01
30.000000 28.000000 -3.799771E+01
30.000000 26.000000 -4.476801E+01
30.000000 24.000000 -6.280612E+01
30.000000 22.000000 -5.188497E+01
30.000000 20.000000 -3.430933E+01
30.000000 18.000000 -3.317558E+01
30.000000 16.000000 -5.104843E+01
30.000000 14.000000 -7.756239E+01
30.000000 12.000000 -1.010911E+02
30.000000 10.000000 -1.117646E+02
30.000000 8.000000 -9.615760E+01
30.000000 6.000000 -7.349777E+01
30.000000 4.000000 -5.214389E+01
30.000000 2.000000 -3.248303E+01
30.000000 0.000000 -6.561327E-01
30.000000 -2.000000 4.735426E+01
30.000000 -4.000000 9.957959E+01
30.000000 -6.000000 1.374033E+02
30.000000 -8.000000 1.563890E+02
30.000000 -10.000000 1.803426E+02
30.000000 -12.000000 2.022866E+02
30.000000 -14.000000 2.035136E+02
30.000000 -16.000000 1.557830E+02
30.000000 -18.000000 6.612785E+01
30.000000 -20.000000 -2.523945E+01
30.000000 -22.000000 -7.832434E+01
30.000000 -24.000000 -8.953744E+01
30.000000 -26.000000 -8.116427E+01
30.000000 -28.000000 -7.378705E+01
30.000000 -30.000000 -6.754173E+01
30.000000 -32.000000 -5.822445E+01
30.000000 -34.000000 -4.237951E+01
30.000000 -36.000000 -2.977022E+01
30.000000 -38.000000 -1.950037E+01
30.000000 -40.000000 -1.808700E+01
32.000000 40.000000 4.522621E+01
32.000000 38.000000 1.567385E+01
32.000000 36.000000 -1.995956E+01
32.000000 34.000000 -5.963011E+01
32.000000 32.000000 -7.998127E+01
32.000000 30.000000 -8.229601E+01
32.000000 28.000000 -8.054340E+01
32.000000 26.000000 -8.581334E+01
32.000000 24.000000 -1.013749E+02
32.000000 22.000000 -8.495816E+01
32.000000 20.000000 -5.927119E+01
32.000000 18.000000 -5.110815E+01
32.000000 16.000000 -6.898941E+01
32.000000 14.000000 -9.821125E+01
32.000000 12.000000 -1.229196E+02
32.000000 10.000000 -1.291738E+02
32.000000 8.000000 -9.900676E+01
32.000000 6.000000 -6.129562E+01
32.000000 4.000000 -2.743244E+01
32.000000 2.000000 -2.293930E+00
32.000000 0.000000 3.014581E+01
32.000000 -2.000000 7.308922E+01
32.000000 -4.000000 1.220928E+02
32.000000 -6.000000 1.612365E+02
32.000000 -8.000000 1.811560E+02
32.000000 -10.000000 1.975252E+02
32.000000 -12.000000 1.955817E+02
32.000000 -14.000000 1.749821E+02
32.000000 -16.000000 1.209767E+02
32.000000 -18.000000 4.538578E+01
32.000000 -20.000000 -2.209941E+01
32.000000 -22.000000 -5.805465E+01
32.000000 -24.000000 -6.415230E+01
32.000000 -26.000000 -5.766164E+01
32.000000 -28.000000 -5.182736E+01
32.000000 -30.000000 -4.465326E+01
32.000000 -32.000000 -3.633586E+01
32.000000 -34.000000 -2.571645E+01
32.000000 -36.000000 -2.221705E+01
32.000000 -38.000000 -2.219704E+01
32.000000 -40.000000 -2.869080E+01
34.000000 40.000000 3.651672E+01
34.000000 38.000000 -6.683102E-01
34.000000 36.000000 -4.406032E+01
34.000000 34.000000 -8.832625E+01
34.000000 32.000000 -1.079391E+02
34.000000 30.000000 -1.075110E+02
34.000000 28.000000 -1.010891E+02
34.000000 26.000000 -9.904009E+01
34.000000 24.000000 -1.089801E+02
34.000000 22.000000 -8.958299E+01
34.000000 20.000000 -5.952357E+01
34.000000 18.000000 -4.564021E+01
34.000000 16.000000 -6.040164E+01
34.000000 14.000000 -8.862939E+01
34.000000 12.000000 -1.137257E+02
34.000000 10.000000 -1.167358E+02
34.000000 8.000000 -8.123748E+01
34.000000 6.000000 -3.644172E+01
34.000000 4.000000 4.544849E-01
34.000000 2.000000 2.022603E+01
34.000000 0.000000 3.882605E+01
34.000000 -2.000000 6.553139E+01
34.000000 -4.000000 1.023373E+02
34.000000 -6.000000 1.386455E+02
34.000000 -8.000000 1.644631E+02
34.000000 -10.000000 1.785942E+02
34.000000 -12.000000 1.652825E+02
34.000000 -14.000000 1.334986E+02
34.000000 -16.000000 8.032435E+01
34.000000 -18.000000 2.061954E+01
34.000000 -20.000000 -2.359109E+01
34.000000 -22.000000 -4.104708E+01
34.000000 -24.000000 -3.972935E+01
34.000000 -26.000000 -3.345546E+01
34.000000 -28.000000 -2.827157E+01
34.000000 -30.000000 -1.977105E+01
34.000000 -32.000000 -1.139702E+01
34.000000 -34.000000 -5.664219E+00
34.000000 -36.000000 -1.089741E+01
34.000000 -38.000000 -2.089055E+01
34.000000 -40.000000 -3.519922E+01
36.000000 40.000000 2.343324E+01
36.000000 38.000000 -1.789589E+01
36.000000 36.000000 -6.499493E+01
36.000000 34.000000 -1.097783E+02
36.000000 32.000000 -1.234722E+02
36.000000 30.000000 -1.128261E+02
36.000000 28.000000 -9.453699E+01
36.000000 26.000000 -8.416294E+01
36.000000 24.000000 -8.907086E+01
36.000000 22.000000 -7.212344E+01
36.000000 20.000000 -4.421835E+01
36.000000 18.000000 -2.684724E+01
36.000000 16.000000 -3.435564E+01
36.000000 14.000000 -5.770652E+01
36.000000 12.000000 -8.215837E+01
36.000000 10.000000 -8.465276E+01
36.000000 8.000000 -5.300729E+01
36.000000 6.000000 -1.035711E+01
36.000000 4.000000 1.995511E+01
36.000000 2.000000 2.736005E+01
36.000000 0.000000 2.869091E+01
36.000000 -2.000000 3.837252E+01
36.000000 -4.000000 6.226620E+01
36.000000 -6.000000 9.412642E+01
36.000000 -8.000000 1.209269E+02
36.000000 -10.000000 1.337886E+02
36.000000 -12.000000 1.216932E+02
36.000000 -14.000000 9.043810E+01
36.000000 -16.000000 4.189539E+01
36.000000 -18.000000 -5.204796E+00
36.000000 -20.000000 -3.144499E+01
36.000000 -22.000000 -3.276801E+01
36.000000 -24.000000 -2.257656E+01
36.000000 -26.000000 -1.471085E+01
36.000000 -28.000000 -9.079159E+00
36.000000 -30.000000 4.595566E-02
36.000000 -32.000000 9.153519E+00
36.000000 -34.000000 1.162709E+01
36.000000 -36.000000 5.791454E-01
36.000000 -38.000000 -1.594918E+01
36.000000 -40.000000 -3.617685E+01
38.000000 40.000000 1.370150E+01
38.000000 38.000000 -3.151412E+01
38.000000 36.000000 -8.183587E+01
38.000000 34.000000 -1.224977E+02
38.000000 32.000000 -1.249184E+02
38.000000 30.000000 -1.002614E+02
38.000000 28.000000 -6.997122E+01
38.000000 26.000000 -5.446004E+01
38.000000 24.000000 -5.627424E+01
38.000000 22.000000 -4.486678E+01
38.000000 20.000000 -2.125424E+01
38.000000 18.000000 -1.369343E+00
38.000000 16.000000 -1.071135E+00
38.000000 14.000000 -1.828006E+01
38.000000 12.000000 -4.404285E+01
38.000000 10.000000 -5.174819E+01
38.000000 8.000000 -3.002284E+01
38.000000 6.000000 3.088480E+00
38.000000 4.000000 2.285526E+01
38.000000 2.000000 1.882226E+01
38.000000 0.000000 7.165227E+00
38.000000 -2.000000 4.823103E+00
38.000000 -4.000000 1.883961E+01
38.000000 -6.000000 4.519688E+01
38.000000 -8.000000 6.626874E+01
38.000000 -10.000000 7.637062E+01
38.000000 -12.000000 7.392711E+01
38.000000 -14.000000 5.273836E+01
38.000000 -16.000000 1.460187E+01
38.000000 -18.000000 -1.935481E+01
38.000000 -20.000000 -3.267348E+01
38.000000 -22.000000 -2.454349E+01
38.000000 -24.000000 -9.013445E+00
38.000000 -26.000000 -1.122705E+00
38.000000 -28.000000 3.383265E+00
38.000000 -30.000000 1.236966E+01
38.000000 -32.000000 2.193543E+01
38.000000 -34.000000 2.335751E+01
38.000000 -36.000000 9.382975E+00
38.000000 -38.000000 -1.103924E+01
38.000000 -40.000000 -3.568317E+01
40.000000 40.000000 8.801899E+00
40.000000 38.000000 -3.850571E+01
40.000000 36.000000 -8.952922E+01
40.000000 34.000000 -1.226014E+02
40.000000 32.000000 -1.127336E+02
40.000000 30.000000 -7.627052E+01
40.000000 28.000000 -3.800664E+01
40.000000 26.000000 -2.081459E+01
40.000000 24.000000 -2.044623E+01
40.000000 22.000000 -1.489659E+01
40.000000 20.000000 3.439827E+00
40.000000 18.000000 2.248119E+01
40.000000 16.000000 2.505008E+01
40.000000 14.000000 1.030014E+01
40.000000 12.000000 -1.677988E+01
40.000000 10.000000 -3.121687E+01
40.000000 8.000000 -2.148536E+01
40.000000 6.000000 -1.832680E+00
40.000000 4.000000 9.483310E+00
40.000000 2.000000 1.950478E+00
40.000000 0.000000 -1.465304E+01
40.000000 -2.000000 -2.368510E+01
40.000000 -4.000000 -1.861994E+01
40.000000 -6.000000 1.577597E-01
40.000000 -8.000000 1.630853E+01
40.000000 -10.000000 2.470412E+01
40.000000 -12.000000 3.031317E+01
40.000000 -14.000000 2.263627E+01
40.000000 -16.000000 2.498894E+00
40.000000 -18.000000 -1.557630E+01
40.000000 -20.000000 -2.082759E+01
40.000000 -22.000000 -1.141310E+01
40.000000 -24.000000 2.246758E+00
40.000000 -26.000000 7.190458E+00
40.000000 -28.000000 8.902412E+00
40.000000 -30.000000 1.692649E+01
40.000000 -32.000000 2.596673E+01
40.000000 -34.000000 2.759031E+01
40.000000 -36.000000 1.356974E+01
40.000000 -38.000000 -7.939568E+00
40.000000 -40.000000 -3.505621E+01
42.000000 40.000000 7.110294E+00
42.000000 38.000000 -3.752314E+01
42.000000 36.000000 -8.384904E+01
42.000000 34.000000 -1.086700E+02
42.000000 32.000000 -9.074395E+01
42.000000 30.000000 -4.912990E+01
42.000000 28.000000 -7.866978E+00
42.000000 26.000000 1.001125E+01
42.000000 24.000000 1.172118E+01
42.000000 22.000000 1.149861E+01
42.000000 20.000000 2.187539E+01
42.000000 18.000000 3.290414E+01
42.000000 16.000000 3.125826E+01
42.000000 14.000000 1.707607E+01
42.000000 12.000000 -6.290611E+00
42.000000 10.000000 -2.179723E+01
42.000000 8.000000 -2.056787E+01
42.000000 6.000000 -1.233192E+01
42.000000 4.000000 -5.686086E+00
42.000000 2.000000 -1.081940E+01
42.000000 0.000000 -2.615075E+01
42.000000 -2.000000 -3.783165E+01
42.000000 -4.000000 -4.031010E+01
42.000000 -6.000000 -3.046505E+01
42.000000 -8.000000 -1.920799E+01
42.000000 -10.000000 -1.201088E+01
42.000000 -12.000000 -2.033699E+00
42.000000 -14.000000 2.910868E+00
42.000000 -16.000000 1.216578E+00
42.000000 -18.000000 -4.057205E+00
42.000000 -20.000000 -6.578398E+00
42.000000 -22.000000 -1.650450E+00
42.000000 -24.000000 5.651808E+00
42.000000 -26.000000 8.372015E+00
42.000000 -28.000000 9.842713E+00
42.000000 -30.000000 1.708168E+01
42.000000 -32.000000 2.449782E+01
42.000000 -34.000000 2.580648E+01
42.000000 -36.000000 1.373346E+01
42.000000 -38.000000 -6.923193E+00
42.000000 -40.000000 -3.419309E+01
44.000000 40.000000 1.090476E+01
44.000000 38.000000 -2.919618E+01
44.000000 36.000000 -7.044053E+01
44.000000 34.000000 -8.872404E+01
44.000000 32.000000 -6.756850E+01
44.000000 30.000000 -2.619023E+01
44.000000 28.000000 1.516561E+01
44.000000 26.000000 3.398491E+01
44.000000 24.000000 3.470934E+01
44.000000 22.000000 2.786500E+01
44.000000 20.000000 2.844647E+01
44.000000 18.000000 2.849672E+01
44.000000 16.000000 2.193407E+01
44.000000 14.000000 9.819940E+00
44.000000 12.000000 -5.214242E+00
44.000000 10.000000 -1.623007E+01
44.000000 8.000000 -1.835967E+01
44.000000 6.000000 -1.734580E+01
44.000000 4.000000 -1.323516E+01
44.000000 2.000000 -1.366458E+01
44.000000 0.000000 -2.451070E+01
44.000000 -2.000000 -3.622823E+01
44.000000 -4.000000 -4.328916E+01
44.000000 -6.000000 -4.259741E+01
44.000000 -8.000000 -3.685245E+01
44.000000 -10.000000 -3.045590E+01
44.000000 -12.000000 -1.705942E+01
44.000000 -14.000000 -3.784892E+00
44.000000 -16.000000 5.186235E+00
44.000000 -18.000000 6.090636E+00
44.000000 -20.000000 2.276417E+00
44.000000 -22.000000 9.086742E-01
44.000000 -24.000000 1.372225E+00
44.000000 -26.000000 1.963343E+00
44.000000 -28.000000 5.621269E+00
44.000000 -30.000000 1.301098E+01
44.000000 -32.000000 1.898039E+01
44.000000 -34.000000 2.011772E+01
44.000000 -36.000000 1.013891E+01
44.000000 -38.000000 -7.618797E+00
44.000000 -40.000000 -3.156915E+01
46.000000 40.000000 2.058740E+01
46.000000 38.000000 -1.502540E+01
46.000000 36.000000 -5.312855E+01
46.000000 34.000000 -6.837766E+01
46.000000 32.000000 -4.943003E+01
46.000000 30.000000 -1.335474E+01
46.000000 28.000000 2.573368E+01
46.000000 26.000000 4.585891E+01
46.000000 24.000000 4.497738E+01
46.000000 22.000000 3.232890E+01
46.000000 20.000000 2.444128E+01
46.000000 18.000000 1.670475E+01
46.000000 16.000000 8.780362E+00
46.000000 14.000000 5.903645E-01
46.000000 12.000000 -6.185793E+00
46.000000 10.000000 -1.102169E+01
46.000000 8.000000 -1.294689E+01
46.000000 6.000000 -1.449254E+01
46.000000 4.000000 -1.173883E+01
46.000000 2.000000 -9.911913E+00
46.000000 0.000000 -1.667623E+01
46.000000 -2.000000 -2.706012E+01
46.000000 -4.000000 -3.526250E+01
46.000000 -6.000000 -3.884014E+01
46.000000 -8.000000 -3.562088E+01
