-26.000000 -18.000000 1.620035E+01
-26.000000 -20.000000 1.612740E+01
-26.000000 -22.000000 1.401945E+01
-26.000000 -24.000000 7.425964E+00
-26.000000 -26.000000 2.010357E+00
-26.000000 -28.000000 6.714954E-01
-26.000000 -30.000000 -3.375906E+00
-26.000000 -32.000000 -1.095013E+01
-26.000000 -34.000000 -1.597464E+01
-26.000000 -36.000000 -1.504423E+01
-26.000000 -38.000000 -8.865292E+00
-26.000000 -40.000000 -1.165826E+00
-24.000000 40.000000 -5.689361E+01
-24.000000 38.000000 -4.594123E+01
-24.000000 36.000000 -4.377240E+01
-24.000000 34.000000 -5.437787E+01
-24.000000 32.000000 -6.296466E+01
-24.000000 30.000000 -6.012510E+01
-24.000000 28.000000 -5.713208E+01
-24.000000 26.000000 -5.576821E+01
-24.000000 24.000000 -6.123603E+01
-24.000000 22.000000 -5.599353E+01
-24.000000 20.000000 -4.663685E+01
-24.000000 18.000000 -3.552923E+01
-24.000000 16.000000 -2.077174E+01
-24.000000 14.000000 -5.762905E+00
-24.000000 12.000000 2.227173E-01
-24.000000 10.000000 7.527178E+00
-24.000000 8.000000 1.579732E+01
-24.000000 6.000000 1.791258E+01
-24.000000 4.000000 1.036421E+01
-24.000000 2.000000 3.864044E+00
-24.000000 0.000000 3.166570E+00
-24.000000 -2.000000 7.752484E+00
-24.000000 -4.000000 1.723907E+01
-24.000000 -6.000000 1.845282E+01
-24.000000 -8.000000 4.141101E+00
-24.000000 -10.000000 -1.181495E+01
-24.000000 -12.000000 -1.016834E+01
-24.000000 -14.000000 -1.767534E+00
-24.000000 -16.000000 3.742352E+00
-24.000000 -18.000000 1.330595E+00
-24.000000 -20.000000 9.214268E-01
-24.000000 -22.000000 4.267071E+00
-24.000000 -24.000000 4.596516E+00
-24.000000 -26.000000 5.430842E+00
-24.000000 -28.000000 2.338007E+00
-24.000000 -30.000000 -2.462917E+00
-24.000000 -32.000000 -7.282841E+00
-24.000000 -34.000000 -1.301297E+01
-24.000000 -36.000000 -1.398467E+01
-24.000000 -38.000000 -6.549694E+00
-24.000000 -40.000000 -4.016340E-01
-22.000000 40.000000 -4.933343E+01
-22.000000 38.000000 -4.219106E+01
-22.000000 36.000000 -4.413028E+01
-22.000000 34.000000 -5.621945E+01
-22.000000 32.000000 -6.389132E+01
-22.000000 30.000000 -6.261690E+01
-22.000000 28.000000 -6.106230E+01
-22.000000 26.000000 -6.230189E+01
-22.000000 24.000000 -7.201653E+01
-22.000000 22.000000 -6.612571E+01
-22.000000 20.000000 -5.237189E+01
-22.000000 18.000000 -3.471814E+01
-22.000000 16.000000 -1.963674E+01
-22.000000 14.000000 -6.313719E+00
-22.000000 12.000000 1.550062E+00
-22.000000 10.000000 1.339033E+01
-22.000000 8.000000 2.146948E+01
-22.000000 6.000000 2.247865E+01
-22.000000 4.000000 1.283987E+01
-22.000000 2.000000 6.130894E+00
-22.000000 0.000000 5.853963E+00
-22.000000 -2.000000 1.059563E+01
-22.000000 -4.000000 1.477392E+01
-22.000000 -6.000000 1.302510E+01
-22.000000 -8.000000 -6.189909E-01
-22.000000 -10.000000 -1.276163E+01
-22.000000 -12.000000 -6.992774E+00
-22.000000 -14.000000 3.198740E+00
-22.000000 -16.000000 9.903767E+00
-22.000000 -18.000000 4.755292E+00
-22.000000 -20.000000 1.572618E+00
-22.000000 -22.000000 7.195184E+00
-22.000000 -24.000000 7.087802E+00
-22.000000 -26.000000 5.576420E+00
-22.000000 -28.000000 8.827095E-01
-22.000000 -30.000000 -2.162199E+00
-22.000000 -32.000000 -4.704296E+00
-22.000000 -34.000000 -9.792554E+00
-22.000000 -36.000000 -9.577468E+00
-22.000000 -38.000000 -3.765039E+00
-22.000000 -40.000000 5.437040E-01
-20.000000 40.000000 -4.282316E+01
-20.000000 38.000000 -4.082792E+01
-20.000000 36.000000 -4.752208E+01
-20.000000 34.000000 -5.935360E+01
-20.000000 32.000000 -6.148091E+01
-20.000000 30.000000 -5.717071E+01
-20.000000 28.000000 -5.250980E+01
-20.000000 26.000000 -5.208613E+01
-20.000000 24.000000 -6.024811E+01
-20.000000 22.000000 -5.350653E+01
-20.000000 20.000000 -3.858546E+01
-20.000000 18.000000 -2.366430E+01
-20.000000 16.000000 -1.786242E+01
-20.000000 14.000000 -1.528044E+01
-20.000000 12.000000 -1.665007E+01
-20.000000 10.000000 -1.169695E+01
-20.000000 8.000000 -5.066023E+00
-20.000000 6.000000 -2.051430E+00
-20.000000 4.000000 -6.533391E+00
-20.000000 2.000000 -7.326452E+00
-20.000000 0.000000 -8.398199E-02
-20.000000 -2.000000 1.198189E+01
-20.000000 -4.000000 2.119905E+01
-20.000000 -6.000000 2.273630E+01
-20.000000 -8.000000 1.423067E+01
-20.000000 -10.000000 3.830728E+00
-20.000000 -12.000000 4.034839E+00
-20.000000 -14.000000 1.258076E+01
-20.000000 -16.000000 1.958140E+01
-20.000000 -18.000000 1.261624E+01
-20.000000 -20.000000 4.395479E+00
-20.000000 -22.000000 5.478357E+00
-20.000000 -24.000000 5.326667E+00
-20.000000 -26.000000 2.803840E+00
-20.000000 -28.000000 -2.576562E+00
-20.000000 -30.000000 -4.350178E+00
-20.000000 -32.000000 -3.892128E+00
-20.000000 -34.000000 -5.568057E+00
-20.000000 -36.000000 -2.110443E+00
-20.000000 -38.000000 2.894596E+00
-20.000000 -40.000000 7.917008E+00
-18.000000 40.000000 -3.363799E+01
-18.000000 38.000000 -3.783893E+01
-18.000000 36.000000 -4.954284E+01
-18.000000 34.000000 -6.103947E+01
-18.000000 32.000000 -5.636274E+01
-18.000000 30.000000 -4.815893E+01
-18.000000 28.000000 -4.038353E+01
-18.000000 26.000000 -3.460258E+01
-18.000000 24.000000 -3.262020E+01
-18.000000 22.000000 -2.592166E+01
-18.000000 20.000000 -1.513821E+01
-18.000000 18.000000 -7.103638E+00
-18.000000 16.000000 -1.166723E+01
-18.000000 14.000000 -2.848632E+01
-18.000000 12.000000 -5.180181E+01
-18.000000 10.000000 -6.212987E+01
-18.000000 8.000000 -5.218057E+01
-18.000000 6.000000 -3.757964E+01
-18.000000 4.000000 -2.636519E+01
-18.000000 2.000000 -1.771470E+01
-18.000000 0.000000 -3.485396E+00
-18.000000 -2.000000 1.511826E+01
-18.000000 -4.000000 3.344726E+01
-18.000000 -6.000000 4.048036E+01
-18.000000 -8.000000 3.470263E+01
-18.000000 -10.000000 2.256293E+01
-18.000000 -12.000000 1.543761E+01
-18.000000 -14.000000 2.085925E+01
-18.000000 -16.000000 2.646878E+01
-18.000000 -18.000000 1.925477E+01
-18.000000 -20.000000 5.646413E+00
-18.000000 -22.000000 2.593670E-01
-18.000000 -24.000000 3.181110E+00
-18.000000 -26.000000 2.327664E+00
-18.000000 -28.000000 -3.275809E+00
-18.000000 -30.000000 -4.070989E+00
-18.000000 -32.000000 2.931881E-02
-18.000000 -34.000000 2.599874E+00
-18.000000 -36.000000 8.619371E+00
-18.000000 -38.000000 1.500974E+01
-18.000000 -40.000000 2.210473E+01
-16.000000 40.000000 -2.237272E+01
-16.000000 38.000000 -3.467306E+01
-16.000000 36.000000 -4.964648E+01
-16.000000 34.000000 -5.786726E+01
-16.000000 32.000000 -4.897540E+01
-16.000000 30.000000 -3.960996E+01
-16.000000 28.000000 -2.923629E+01
-16.000000 26.000000 -1.520292E+01
-16.000000 24.000000 -7.818375E-01
-16.000000 22.000000 2.970066E+00
-16.000000 20.000000 7.353367E+00
-16.000000 18.000000 1.075853E+01
-16.000000 16.000000 -6.081772E-01
-16.000000 14.000000 -3.876049E+01
-16.000000 12.000000 -8.951594E+01
-16.000000 10.000000 -1.201109E+02
-16.000000 8.000000 -1.033861E+02
-16.000000 6.000000 -6.953049E+01
-16.000000 4.000000 -3.826208E+01
-16.000000 2.000000 -2.438889E+01
-16.000000 0.000000 -1.256314E+01
-16.000000 -2.000000 6.517531E+00
-16.000000 -4.000000 3.267007E+01
-16.000000 -6.000000 4.506976E+01
-16.000000 -8.000000 3.902490E+01
-16.000000 -10.000000 2.578739E+01
-16.000000 -12.000000 2.191931E+01
-16.000000 -14.000000 3.155030E+01
-16.000000 -16.000000 3.801882E+01
-16.000000 -18.000000 3.236788E+01
-16.000000 -20.000000 1.991744E+01
-16.000000 -22.000000 1.334820E+01
-16.000000 -24.000000 1.745341E+01
-16.000000 -26.000000 1.910994E+01
-16.000000 -28.000000 1.363730E+01
-16.000000 -30.000000 1.235680E+01
-16.000000 -32.000000 1.562441E+01
-16.000000 -34.000000 1.637909E+01
-16.000000 -36.000000 1.930282E+01
-16.000000 -38.000000 2.504704E+01
-16.000000 -40.000000 2.971929E+01
-14.000000 40.000000 -1.191845E+01
-14.000000 38.000000 -2.900340E+01
-14.000000 36.000000 -4.255449E+01
-14.000000 34.000000 -4.337693E+01
-14.000000 32.000000 -3.324182E+01
-14.000000 30.000000 -2.811786E+01
-14.000000 28.000000 -2.078370E+01
-14.000000 26.000000 -2.677643E+00
-14.000000 24.000000 1.788138E+01
-14.000000 22.000000 1.619123E+01
-14.000000 20.000000 1.355465E+01
-14.000000 18.000000 1.580605E+01
-14.000000 16.000000 2.527901E+00
-14.000000 14.000000 -4.849422E+01
-14.000000 12.000000 -1.162366E+02
-14.000000 10.000000 -1.625013E+02
-14.000000 8.000000 -1.416822E+02
-14.000000 6.000000 -8.962286E+01
-14.000000 4.000000 -4.469752E+01
-14.000000 2.000000 -3.688894E+01
-14.000000 0.000000 -3.940997E+01
-14.000000 -2.000000 -1.901935E+01
-14.000000 -4.000000 1.428799E+01
-14.000000 -6.000000 3.476573E+01
-14.000000 -8.000000 3.709583E+01
-14.000000 -10.000000 3.151786E+01
-14.000000 -12.000000 3.471561E+01
-14.000000 -14.000000 4.994327E+01
-14.000000 -16.000000 5.891104E+01
-14.000000 -18.000000 5.714454E+01
-14.000000 -20.000000 5.113713E+01
-14.000000 -22.000000 4.567822E+01
-14.000000 -24.000000 4.791031E+01
-14.000000 -26.000000 5.376314E+01
-14.000000 -28.000000 4.868178E+01
-14.000000 -30.000000 4.417886E+01
-14.000000 -32.000000 4.161306E+01
-14.000000 -34.000000 3.493091E+01
-14.000000 -36.000000 2.801317E+01
-14.000000 -38.000000 2.772858E+01
-14.000000 -40.000000 2.449510E+01
-12.000000 40.000000 -3.835819E+00
-12.000000 38.000000 -1.625590E+01
-12.000000 36.000000 -2.303386E+01
-12.000000 34.000000 -1.505883E+01
-12.000000 32.000000 -4.959190E+00
-12.000000 30.000000 -9.389969E+00
-12.000000 28.000000 -1.631314E+01
-12.000000 26.000000 -8.348228E+00
-12.000000 24.000000 5.512726E+00
-12.000000 22.000000 1.551792E+00
-12.000000 20.000000 -4.394997E+00
-12.000000 18.000000 5.822144E-01
-12.000000 16.000000 -6.762140E+00
-12.000000 14.000000 -5.657862E+01
-12.000000 12.000000 -1.281000E+02
-12.000000 10.000000 -1.802704E+02
-12.000000 8.000000 -1.563070E+02
-12.000000 6.000000 -9.124191E+01
-12.000000 4.000000 -3.779419E+01
-12.000000 2.000000 -4.016238E+01
-12.000000 0.000000 -6.138986E+01
-12.000000 -2.000000 -4.216964E+01
-12.000000 -4.000000 -3.831745E+00
-12.000000 -6.000000 2.769915E+01
-12.000000 -8.000000 4.320497E+01
-12.000000 -10.000000 5.028066E+01
-12.000000 -12.000000 5.592006E+01
-12.000000 -14.000000 7.088163E+01
-12.000000 -16.000000 7.870131E+01
-12.000000 -18.000000 7.918741E+01
-12.000000 -20.000000 7.746120E+01
-12.000000 -22.000000 7.195311E+01
-12.000000 -24.000000 7.475815E+01
-12.000000 -26.000000 8.349318E+01
-12.000000 -28.000000 7.998957E+01
-12.000000 -30.000000 7.374877E+01
-12.000000 -32.000000 6.705731E+01
-12.000000 -34.000000 5.521692E+01
-12.000000 -36.000000 3.686322E+01
-12.000000 -38.000000 2.632297E+01
-12.000000 -40.000000 1.453902E+01
-10.000000 40.000000 5.830547E+00
-10.000000 38.000000 1.748055E+00
-10.000000 36.000000 2.129280E+00
-10.000000 34.000000 1.627917E+01
-10.000000 32.000000 2.373040E+01
-10.000000 30.000000 7.277542E+00
-10.000000 28.000000 -1.901171E+01
-10.000000 26.000000 -2.959290E+01
-10.000000 24.000000 -2.839093E+01
-10.000000 22.000000 -2.762497E+01
-10.000000 20.000000 -2.815241E+01
-10.000000 18.000000 -1.439650E+01
-10.000000 16.000000 -1.156704E+01
-10.000000 14.000000 -5.341783E+01
-10.000000 12.000000 -1.232083E+02
-10.000000 10.000000 -1.754994E+02
-10.000000 8.000000 -1.527854E+02
-10.000000 6.000000 -8.381857E+01
-10.000000 4.000000 -2.016135E+01
-10.000000 2.000000 -1.490409E+01
-10.000000 0.000000 -3.561993E+01
-10.000000 -2.000000 -3.622906E+01
-10.000000 -4.000000 -1.045316E+01
-10.000000 -6.000000 3.045567E+01
-10.000000 -8.000000 5.392800E+01
-10.000000 -10.000000 6.430840E+01
-10.000000 -12.000000 6.466926E+01
-10.000000 -14.000000 7.162418E+01
-10.000000 -16.000000 7.401768E+01
-10.000000 -18.000000 7.541174E+01
-10.000000 -20.000000 7.802551E+01
-10.000000 -22.000000 7.491349E+01
-10.000000 -24.000000 8.186368E+01
-10.000000 -26.000000 9.132713E+01
-10.000000 -28.000000 9.138156E+01
-10.000000 -30.000000 8.751005E+01
-10.000000 -32.000000 8.095422E+01
-10.000000 -34.000000 6.784598E+01
-10.000000 -36.000000 4.399714E+01
-10.000000 -38.000000 2.718964E+01
-10.000000 -40.000000 1.127810E+01
-8.000000 40.000000 1.847232E+01
-8.000000 38.000000 1.978266E+01
-8.000000 36.000000 2.351946E+01
-8.000000 34.000000 3.746487E+01
-8.000000 32.000000 3.830959E+01
-8.000000 30.000000 1.196765E+01
-8.000000 28.000000 -2.676328E+01
-8.000000 26.000000 -4.901010E+01
-8.000000 24.000000 -5.106051E+01
-8.000000 22.000000 -4.067837E+01
-8.000000 20.000000 -3.320571E+01
-8.000000 18.000000 -1.222119E+01
-8.000000 16.000000 -2.763184E+00
-8.000000 14.000000 -3.441303E+01
-8.000000 12.000000 -9.589873E+01
-8.000000 10.000000 -1.453848E+02
-8.000000 8.000000 -1.290265E+02
-8.000000 6.000000 -6.613165E+01
-8.000000 4.000000 2.497694E+00
-8.000000 2.000000 2.009572E+01
-8.000000 0.000000 6.521701E+00
-8.000000 -2.000000 -1.412473E+01
-8.000000 -4.000000 -1.157525E+01
-8.000000 -6.000000 2.266044E+01
-8.000000 -8.000000 4.503278E+01
-8.000000 -10.000000 5.079999E+01
-8.000000 -12.000000 4.530367E+01
-8.000000 -14.000000 4.687126E+01
-8.000000 -16.000000 4.914249E+01
-8.000000 -18.000000 5.253782E+01
-8.000000 -20.000000 5.923519E+01
-8.000000 -22.000000 6.016795E+01
-8.000000 -24.000000 6.857132E+01
-8.000000 -26.000000 7.795309E+01
-8.000000 -28.000000 8.222332E+01
-8.000000 -30.000000 8.307198E+01
-8.000000 -32.000000 7.971832E+01
-8.000000 -34.000000 6.640115E+01
-8.000000 -36.000000 4.515814E+01
-8.000000 -38.000000 3.079893E+01
-8.000000 -40.000000 1.742222E+01
-6.000000 40.000000 2.929786E+01
-6.000000 38.000000 3.105213E+01
-6.000000 36.000000 3.446484E+01
-6.000000 34.000000 4.354252E+01
-6.000000 32.000000 3.748133E+01
-6.000000 30.000000 8.129650E+00
-6.000000 28.000000 -2.961244E+01
-6.000000 26.000000 -4.634408E+01
-6.000000 24.000000 -3.912357E+01
-6.000000 22.000000 -2.367218E+01
-6.000000 20.000000 -1.492424E+01
-6.000000 18.000000 2.749287E+00
-6.000000 16.000000 9.835533E+00
-6.000000 14.000000 -1.375451E+01
-6.000000 12.000000 -6.133381E+01
-6.000000 10.000000 -1.025442E+02
-6.000000 8.000000 -9.267685E+01
-6.000000 6.000000 -4.454589E+01
-6.000000 4.000000 1.464957E+01
-6.000000 2.000000 3.436978E+01
-6.000000 0.000000 2.353157E+01
-6.000000 -2.000000 1.400604E+00
-6.000000 -4.000000 -1.016319E+01
-6.000000 -6.000000 4.195291E+00
-6.000000 -8.000000 1.627139E+01
-6.000000 -10.000000 1.574039E+01
-6.000000 -12.000000 1.166143E+01
-6.000000 -14.000000 1.470497E+01
-6.000000 -16.000000 2.348278E+01
-6.000000 -18.000000 2.971279E+01
-6.000000 -20.000000 3.664830E+01
-6.000000 -22.000000 3.899516E+01
-6.000000 -24.000000 4.309037E+01
-6.000000 -26.000000 4.886809E+01
-6.000000 -28.000000 5.751158E+01
-6.000000 -30.000000 6.644106E+01
-6.000000 -32.000000 6.747001E+01
-6.000000 -34.000000 5.511741E+01
-6.000000 -36.000000 4.081240E+01
-6.000000 -38.000000 3.518438E+01
-6.000000 -40.000000 2.722358E+01
-4.000000 40.000000 3.746801E+01
-4.000000 38.000000 3.592802E+01
-4.000000 36.000000 3.530789E+01
-4.000000 34.000000 3.642632E+01
-4.000000 32.000000 2.627531E+01
-4.000000 30.000000 1.268448E+00
-4.000000 28.000000 -2.445156E+01
-4.000000 26.000000 -2.443720E+01
-4.000000 24.000000 -7.313965E+00
-4.000000 22.000000 4.433048E+00
-4.000000 20.000000 6.973148E+00
-4.000000 18.000000 9.813854E+00
-4.000000 16.000000 8.161032E+00
-4.000000 14.000000 -1.222788E+01
-4.000000 12.000000 -4.536138E+01
-4.000000 10.000000 -7.075174E+01
-4.000000 8.000000 -5.839390E+01
-4.000000 6.000000 -1.982470E+01
-4.000000 4.000000 2.034611E+01
-4.000000 2.000000 3.079768E+01
-4.000000 0.000000 2.212228E+01
-4.000000 -2.000000 9.386366E+00
-4.000000 -4.000000 -1.145321E+00
-4.000000 -6.000000 -1.933289E-01
-4.000000 -8.000000 -1.795673E+00
-4.000000 -10.000000 -1.327856E+01
-4.000000 -12.000000 -1.483058E+01
-4.000000 -14.000000 -6.175464E+00
-4.000000 -16.000000 9.715377E+00
-4.000000 -18.000000 1.749357E+01
-4.000000 -20.000000 1.982526E+01
-4.000000 -22.000000 1.785511E+01
-4.000000 -24.000000 1.477279E+01
-4.000000 -26.000000 1.615397E+01
-4.000000 -28.000000 2.868154E+01
-4.000000 -30.000000 4.378848E+01
-4.000000 -32.000000 4.824766E+01
-4.000000 -34.000000 3.942715E+01
-4.000000 -36.000000 3.388735E+01
-4.000000 -38.000000 3.873790E+01
-4.000000 -40.000000 3.581260E+01
-2.000000 40.000000 4.490598E+01
-2.000000 38.000000 4.032041E+01
-2.000000 36.000000 3.236859E+01
-2.000000 34.000000 2.086632E+01
-2.000000 32.000000 7.039288E+00
-2.000000 30.000000 -8.997316E+00
-2.000000 28.000000 -1.912269E+01
-2.000000 26.000000 -7.611626E+00
-2.000000 24.000000 9.335434E+00
-2.000000 22.000000 1.248195E+01
-2.000000 20.000000 7.563570E+00
-2.000000 18.000000 -1.955650E+00
-2.000000 16.000000 -8.863665E+00
-2.000000 14.000000 -2.561499E+01
-2.000000 12.000000 -4.439025E+01
-2.000000 10.000000 -4.975097E+01
-2.000000 8.000000 -2.632726E+01
-2.000000 6.000000 8.871325E+00
-2.000000 4.000000 2.838160E+01
-2.000000 2.000000 2.346505E+01
-2.000000 0.000000 1.632843E+01
-2.000000 -2.000000 1.545496E+01
-2.000000 -4.000000 1.429192E+01
-2.000000 -6.000000 1.336094E+01
-2.000000 -8.000000 3.721608E+00
-2.000000 -10.000000 -1.729143E+01
-2.000000 -12.000000 -1.893363E+01
-2.000000 -14.000000 -6.618571E+00
-2.000000 -16.000000 1.270849E+01
-2.000000 -18.000000 2.017312E+01
-2.000000 -20.000000 1.652198E+01
-2.000000 -22.000000 7.211085E+00
-2.000000 -24.000000 -2.012334E+00
-2.000000 -26.000000 -1.491585E+00
-2.000000 -28.000000 8.582547E+00
-2.000000 -30.000000 2.007976E+01
-2.000000 -32.000000 2.562785E+01
-2.000000 -34.000000 2.389120E+01
-2.000000 -36.000000 2.679963E+01
-2.000000 -38.000000 3.706872E+01
-2.000000 -40.000000 3.840552E+01
0.000000 40.000000 5.544475E+01
0.000000 38.000000 4.521981E+01
0.000000 36.000000 2.769181E+01
0.000000 34.000000 1.328426E+00
0.000000 32.000000 -1.664634E+01
0.000000 30.000000 -2.413133E+01
0.000000 28.000000 -2.401269E+01
0.000000 26.000000 -1.343850E+01
0.000000 24.000000 -8.137459E+00
0.000000 22.000000 -1.261784E+01
0.000000 20.000000 -1.983061E+01
0.000000 18.000000 -2.720884E+01
0.000000 16.000000 -2.847459E+01
0.000000 14.000000 -3.490923E+01
0.000000 12.000000 -3.581017E+01
0.000000 10.000000 -2.129122E+01
0.000000 8.000000 9.001469E+00
0.000000 6.000000 3.464578E+01
0.000000 4.000000 3.768155E+01
0.000000 2.000000 2.467894E+01
0.000000 0.000000 1.836720E+01
0.000000 -2.000000 2.453417E+01
0.000000 -4.000000 3.126677E+01
0.000000 -6.000000 3.528887E+01
0.000000 -8.000000 2.696829E+01
0.000000 -10.000000 6.129678E+00
0.000000 -12.000000 2.850497E+00
0.000000 -14.000000 1.074971E+01
0.000000 -16.000000 2.484433E+01
0.000000 -18.000000 2.914712E+01
0.000000 -20.000000 2.355572E+01
0.000000 -22.000000 1.351651E+01
0.000000 -24.000000 2.669683E+00
0.000000 -26.000000 -6.109829E-01
0.000000 -28.000000 4.311867E-01
0.000000 -30.000000 4.895953E+00
0.000000 -32.000000 8.820111E+00
0.000000 -34.000000 1.256281E+01
0.000000 -36.000000 2.056762E+01
0.000000 -38.000000 3.074102E+01
0.000000 -40.000000 3.358629E+01
2.000000 40.000000 7.081966E+01
2.000000 38.000000 4.821021E+01
2.000000 36.000000 1.954600E+01
2.000000 34.000000 -1.834749E+01
2.000000 32.000000 -3.933036E+01
2.000000 30.000000 -4.319142E+01
2.000000 28.000000 -4.031152E+01
2.000000 26.000000 -3.582810E+01
2.000000 24.000000 -4.297775E+01
2.000000 22.000000 -5.025793E+01
2.000000 20.000000 -5.371586E+01
2.000000 18.000000 -4.714504E+01
2.000000 16.000000 -3.701478E+01
2.000000 14.000000 -2.849016E+01
2.000000 12.000000 -1.226290E+01
2.000000 10.000000 1.553478E+01
2.000000 8.000000 4.147182E+01
2.000000 6.000000 5.260793E+01
2.000000 4.000000 4.224284E+01
2.000000 2.000000 2.845159E+01
2.000000 0.000000 2.448597E+01
2.000000 -2.000000 3.415800E+01
2.000000 -4.000000 4.783439E+01
2.000000 -6.000000 6.071604E+01
2.000000 -8.000000 5.884151E+01
2.000000 -10.000000 4.440027E+01
2.000000 -12.000000 3.740248E+01
2.000000 -14.000000 3.730151E+01
2.000000 -16.000000 4.041157E+01
2.000000 -18.000000 3.733208E+01
2.000000 -20.000000 3.180556E+01
2.000000 -22.000000 2.688931E+01
2.000000 -24.000000 1.908657E+01
2.000000 -26.000000 1.039169E+01
2.000000 -28.000000 3.251606E+00
2.000000 -30.000000 3.154773E+00
2.000000 -32.000000 4.258597E+00
2.000000 -34.000000 8.953753E+00
2.000000 -36.000000 1.826481E+01
2.000000 -38.000000 2.567873E+01
2.000000 -40.000000 2.477537E+01
4.000000 40.000000 8.352083E+01
4.000000 38.000000 4.858335E+01
4.000000 36.000000 1.179352E+01
4.000000 34.000000 -2.951650E+01
4.000000 32.000000 -4.983967E+01
4.000000 30.000000 -5.419746E+01
4.000000 28.000000 -5.253210E+01
4.000000 26.000000 -5.023942E+01
4.000000 24.000000 -6.115331E+01
4.000000 22.000000 -6.663465E+01
4.000000 20.000000 -6.634598E+01
4.000000 18.000000 -4.871573E+01
4.000000 16.000000 -3.185300E+01
4.000000 14.000000 -1.466232E+01
4.000000 12.000000 7.485763E+00
4.000000 10.000000 3.593041E+01
4.000000 8.000000 4.976150E+01
4.000000 6.000000 4.945333E+01
4.000000 4.000000 3.282034E+01
4.000000 2.000000 2.570661E+01
4.000000 0.000000 2.778414E+01
4.000000 -2.000000 3.814349E+01
4.000000 -4.000000 5.817517E+01
4.000000 -6.000000 8.166106E+01
4.000000 -8.000000 8.572224E+01
4.000000 -10.000000 7.894526E+01
4.000000 -12.000000 7.003334E+01
4.000000 -14.000000 6.615553E+01
4.000000 -16.000000 5.930021E+01
4.000000 -18.000000 4.687118E+01
4.000000 -20.000000 3.883919E+01
4.000000 -22.000000 3.803394E+01
4.000000 -24.000000 3.566904E+01
4.000000 -26.000000 2.481710E+01
4.000000 -28.000000 1.144044E+01
4.000000 -30.000000 8.020278E+00
4.000000 -32.000000 1.002802E+01
4.000000 -34.000000 1.645033E+01
4.000000 -36.000000 2.313141E+01
4.000000 -38.000000 2.397072E+01
4.000000 -40.000000 1.576919E+01
6.000000 40.000000 8.434456E+01
6.000000 38.000000 4.714141E+01
6.000000 36.000000 1.074869E+01
6.000000 34.000000 -2.399265E+01
6.000000 32.000000 -3.759244E+01
6.000000 30.000000 -4.256852E+01
6.000000 28.000000 -4.452459E+01
6.000000 26.000000 -3.918862E+01
6.000000 24.000000 -3.944375E+01
6.000000 22.000000 -3.951889E+01
6.000000 20.000000 -3.963784E+01
6.000000 18.000000 -2.490881E+01
6.000000 16.000000 -1.382431E+01
6.000000 14.000000 -8.094273E+00
6.000000 12.000000 -5.767775E-01
6.000000 10.000000 1.063002E+01
6.000000 8.000000 7.055824E+00
6.000000 6.000000 3.062539E-01
6.000000 4.000000 -4.387341E+00
6.000000 2.000000 9.510798E+00
6.000000 0.000000 2.585205E+01
6.000000 -2.000000 3.899364E+01
6.000000 -4.000000 6.059947E+01
6.000000 -6.000000 8.723667E+01
6.000000 -8.000000 9.076793E+01
6.000000 -10.000000 9.147508E+01
6.000000 -12.000000 8.981718E+01
6.000000 -14.000000 9.144193E+01
6.000000 -16.000000 8.099446E+01
6.000000 -18.000000 6.097218E+01
6.000000 -20.000000 4.844173E+01
6.000000 -22.000000 4.850567E+01
6.000000 -24.000000 4.984975E+01
6.000000 -26.000000 3.940935E+01
6.000000 -28.000000 2.134148E+01
6.000000 -30.000000 1.621573E+01
6.000000 -32.000000 2.248404E+01
6.000000 -34.000000 3.196462E+01
6.000000 -36.000000 3.287094E+01
6.000000 -38.000000 2.430575E+01
6.000000 -40.000000 8.244253E+00
8.000000 40.000000 7.068552E+01
8.000000 38.000000 4.586805E+01
8.000000 36.000000 1.883157E+01
8.000000 34.000000 -3.995380E+00
8.000000 32.000000 -5.792062E+00
8.000000 30.000000 -5.940833E+00
8.000000 28.000000 -1.014178E+01
8.000000 26.000000 -2.045878E+00
8.000000 24.000000 1.418857E+01
8.000000 22.000000 1.900715E+01
8.000000 20.000000 1.716103E+01
8.000000 18.000000 1.734831E+01
8.000000 16.000000 9.755047E+00
8.000000 14.000000 -9.011535E+00
8.000000 12.000000 -3.011348E+01
8.000000 10.000000 -5.190957E+01
8.000000 8.000000 -7.743347E+01
8.000000 6.000000 -8.903873E+01
8.000000 4.000000 -6.817701E+01
8.000000 2.000000 -2.201081E+01
8.000000 0.000000 1.682437E+01
8.000000 -2.000000 3.705732E+01
8.000000 -4.000000 5.590929E+01
8.000000 -6.000000 7.218383E+01
8.000000 -8.000000 6.048302E+01
8.000000 -10.000000 6.535085E+01
8.000000 -12.000000 8.513290E+01
8.000000 -14.000000 1.051707E+02
8.000000 -16.000000 1.012437E+02
8.000000 -18.000000 7.928911E+01
8.000000 -20.000000 6.271336E+01
8.000000 -22.000000 6.045201E+01
8.000000 -24.000000 6.059674E+01
8.000000 -26.000000 5.183405E+01
8.000000 -28.000000 3.484341E+01
8.000000 -30.000000 3.166220E+01
8.000000 -32.000000 3.924938E+01
8.000000 -34.000000 4.809538E+01
8.000000 -36.000000 4.224323E+01
8.000000 -38.000000 2.537409E+01
8.000000 -40.000000 2.032453E+00
10.000000 40.000000 5.245863E+01
10.000000 38.000000 4.161647E+01
10.000000 36.000000 2.576263E+01
10.000000 34.000000 1.735610E+01
10.000000 32.000000 2.941619E+01
10.000000 30.000000 3.803094E+01
10.000000 28.000000 3.471811E+01
10.000000 26.000000 4.268053E+01
10.000000 24.000000 7.077123E+01
10.000000 22.000000 7.797327E+01
10.000000 20.000000 7.332266E+01
10.000000 18.000000 5.786545E+01
10.000000 16.000000 3.023477E+01
10.000000 14.000000 -9.066862E+00
10.000000 12.000000 -5.738328E+01
10.000000 10.000000 -1.106727E+02
10.000000 8.000000 -1.533633E+02
10.000000 6.000000 -1.730248E+02
10.000000 4.000000 -1.371056E+02
10.000000 2.000000 -6.736382E+01
10.000000 0.000000 -5.376324E+00
10.000000 -2.000000 3.241907E+01
10.000000 -4.000000 4.933760E+01
10.000000 -6.000000 3.605950E+01
10.000000 -8.000000 4.744148E-02
10.000000 -10.000000 2.790005E+00
10.000000 -12.000000 5.389592E+01
10.000000 -14.000000 1.061430E+02
10.000000 -16.000000 1.229586E+02
10.000000 -18.000000 1.007273E+02
10.000000 -20.000000 7.623342E+01
10.000000 -22.000000 6.803909E+01
10.000000 -24.000000 6.569306E+01
10.000000 -26.000000 6.001936E+01
10.000000 -28.000000 4.856853E+01
10.000000 -30.000000 5.023855E+01
10.000000 -32.000000 5.631679E+01
10.000000 -34.000000 6.142434E+01
10.000000 -36.000000 4.903995E+01
10.000000 -38.000000 2.541646E+01
10.000000 -40.000000 -4.878759E+00
12.000000 40.000000 4.046356E+01
12.000000 38.000000 3.225096E+01
12.000000 36.000000 2.335295E+01
12.000000 34.000000 2.812140E+01
12.000000 32.000000 4.941221E+01
12.000000 30.000000 6.296131E+01
12.000000 28.000000 6.394206E+01
12.000000 26.000000 6.988540E+01
12.000000 24.000000 9.691182E+01
12.000000 22.000000 1.053388E+02
12.000000 20.000000 1.033281E+02
12.000000 18.000000 8.258272E+01
12.000000 16.000000 4.338541E+01
12.000000 14.000000 -1.060149E+01
12.000000 12.000000 -7.675820E+01
12.000000 10.000000 -1.454952E+02
12.000000 8.000000 -1.953478E+02
12.000000 6.000000 -2.185748E+02
12.000000 4.000000 -1.821079E+02
12.000000 2.000000 -1.054339E+02
12.000000 0.000000 -2.531172E+01
12.000000 -2.000000 3.662150E+01
12.000000 -4.000000 5.984297E+01
12.000000 -6.000000 1.610596E+01
12.000000 -8.000000 -5.502703E+01
12.000000 -10.000000 -7.325667E+01
12.000000 -12.000000 3.687706E+00
12.000000 -14.000000 9.611193E+01
12.000000 -16.000000 1.435593E+02
12.000000 -18.000000 1.209460E+02
12.000000 -20.000000 8.143427E+01
12.000000 -22.000000 6.375597E+01
12.000000 -24.000000 6.157005E+01
12.000000 -26.000000 6.129623E+01
12.000000 -28.000000 5.510311E+01
12.000000 -30.000000 6.171628E+01
12.000000 -32.000000 6.627523E+01
12.000000 -34.000000 6.886940E+01
12.000000 -36.000000 5.135928E+01
12.000000 -38.000000 2.211220E+01
12.000000 -40.000000 -1.436035E+01
14.000000 40.000000 3.407086E+01
14.000000 38.000000 2.004394E+01
14.000000 36.000000 1.514474E+01
14.000000 34.000000 2.494342E+01
14.000000 32.000000 4.618451E+01
14.000000 30.000000 5.919686E+01
14.000000 28.000000 6.175393E+01
14.000000 26.000000 6.262695E+01
14.000000 24.000000 7.971341E+01
14.000000 22.000000 9.060006E+01
14.000000 20.000000 9.683568E+01
14.000000 18.000000 8.142938E+01
14.000000 16.000000 3.972907E+01
14.000000 14.000000 -2.288552E+01
14.000000 12.000000 -9.615411E+01
14.000000 10.000000 -1.636870E+02
14.000000 8.000000 -2.061965E+02
14.000000 6.000000 -2.232133E+02
14.000000 4.000000 -1.924618E+02
14.000000 2.000000 -1.204949E+02
14.000000 0.000000 -2.862198E+01
14.000000 -2.000000 5.851968E+01
14.000000 -4.000000 1.004638E+02
14.000000 -6.000000 5.181391E+01
14.000000 -8.000000 -4.906060E+01
14.000000 -10.000000 -1.197326E+02
14.000000 -12.000000 -5.020419E+01
14.000000 -14.000000 7.982613E+01
14.000000 -16.000000 1.575871E+02
14.000000 -18.000000 1.337632E+02
14.000000 -20.000000 7.393987E+01
14.000000 -22.000000 4.166216E+01
14.000000 -24.000000 4.147231E+01
14.000000 -26.000000 5.178778E+01
14.000000 -28.000000 5.062862E+01
14.000000 -30.000000 5.854355E+01
14.000000 -32.000000 6.130330E+01
14.000000 -34.000000 6.361981E+01
14.000000 -36.000000 4.463327E+01
14.000000 -38.000000 1.327165E+01
14.000000 -40.000000 -2.638099E+01
16.000000 40.000000 3.354914E+01
16.000000 38.000000 8.301825E+00
16.000000 36.000000 2.733401E+00
16.000000 34.000000 7.179421E+00
16.000000 32.000000 2.074790E+01
16.000000 30.000000 2.991247E+01
16.000000 28.000000 2.857417E+01
16.000000 26.000000 2.487443E+01
16.000000 24.000000 3.326770E+01
16.000000 22.000000 4.506817E+01
16.000000 20.000000 5.481252E+01
16.000000 18.000000 4.732285E+01
16.000000 16.000000 1.381208E+01
16.000000 14.000000 -4.414479E+01
16.000000 12.000000 -1.112802E+02
16.000000 10.000000 -1.694486E+02
16.000000 8.000000 -1.979471E+02
16.000000 6.000000 -2.031532E+02
16.000000 4.000000 -1.724208E+02
16.000000 2.000000 -1.030870E+02
16.000000 0.000000 -9.399837E+00
16.000000 -2.000000 8.829018E+01
16.000000 -4.000000 1.491726E+02
16.000000 -6.000000 1.198385E+02
16.000000 -8.000000 1.514282E+01
16.000000 -10.000000 -9.329338E+01
16.000000 -12.000000 -5.583977E+01
16.000000 -14.000000 8.380367E+01
16.000000 -16.000000 1.717654E+02
16.000000 -18.000000 1.346101E+02
16.000000 -20.000000 4.913453E+01
16.000000 -22.000000 1.448118E+00
16.000000 -24.000000 4.282446E+00
16.000000 -26.000000 2.678212E+01
16.000000 -28.000000 3.049244E+01
16.000000 -30.000000 3.569568E+01
16.000000 -32.000000 3.695158E+01
16.000000 -34.000000 4.119978E+01
16.000000 -36.000000 2.729203E+01
16.000000 -38.000000 -1.880436E-01
16.000000 -40.000000 -3.871511E+01
18.000000 40.000000 4.014745E+01
18.000000 38.000000 2.244072E-01
18.000000 36.000000 -1.681803E+01
18.000000 34.000000 -2.491230E+01
18.000000 32.000000 -1.942796E+01
18.000000 30.000000 -1.478382E+01
18.000000 28.000000 -1.856205E+01
18.000000 26.000000 -2.336108E+01
18.000000 24.000000 -1.939006E+01
18.000000 22.000000 -9.921846E+00
18.000000 20.000000 -4.798822E+00
18.000000 18.000000 -7.004662E+00
18.000000 16.000000 -2.366553E+01
18.000000 14.000000 -5.980369E+01
18.000000 12.000000 -1.072361E+02
18.000000 10.000000 -1.570409E+02
18.000000 8.000000 -1.806732E+02
18.000000 6.000000 -1.778876E+02
18.000000 4.000000 -1.406942E+02
18.000000 2.000000 -7.054895E+01
18.000000 0.000000 1.276595E+01
18.000000 -2.000000 1.006707E+02
18.000000 -4.000000 1.687084E+02
18.000000 -6.000000 1.738151E+02
18.000000 -8.000000 1.049562E+02
18.000000 -10.000000 1.519660E+01
18.000000 -12.000000 2.215939E+01
18.000000 -14.000000 1.368163E+02
18.000000 -16.000000 2.046547E+02
18.000000 -18.000000 1.318299E+02
18.000000 -20.000000 1.192295E+01
18.000000 -22.000000 -5.157527E+01
18.000000 -24.000000 -4.563039E+01
18.000000 -26.000000 -1.292854E+01
18.000000 -28.000000 -7.743404E+00
18.000000 -30.000000 -9.140291E+00
18.000000 -32.000000 -8.898132E+00
18.000000 -34.000000 2.702156E+00
18.000000 -36.000000 1.836466E+00
18.000000 -38.000000 -1.372592E+01
18.000000 -40.000000 -4.593616E+01
20.000000 40.000000 4.936848E+01
20.000000 38.000000 -6.927100E+00
20.000000 36.000000 -4.164591E+01
20.000000 34.000000 -6.280921E+01
20.000000 32.000000 -6.227187E+01
20.000000 30.000000 -5.930953E+01
20.000000 28.000000 -6.007540E+01
20.000000 26.000000 -6.140671E+01
20.000000 24.000000 -5.762724E+01
20.000000 22.000000 -5.062327E+01
20.000000 20.000000 -5.108195E+01
20.000000 18.000000 -5.073182E+01
20.000000 16.000000 -4.962671E+01
20.000000 14.000000 -5.588596E+01
20.000000 12.000000 -7.632082E+01
20.000000 10.000000 -1.218650E+02
20.000000 8.000000 -1.627555E+02
20.000000 6.000000 -1.654052E+02
20.000000 4.000000 -1.212658E+02
20.000000 2.000000 -5.226393E+01
20.000000 0.000000 1.676810E+01
20.000000 -2.000000 8.478449E+01
20.000000 -4.000000 1.461674E+02
20.000000 -6.000000 1.823230E+02
20.000000 -8.000000 1.703929E+02
20.000000 -10.000000 1.414377E+02
20.000000 -12.000000 1.607641E+02
20.000000 -14.000000 2.437288E+02
20.000000 -16.000000 2.615381E+02
20.000000 -18.000000 1.378924E+02
20.000000 -20.000000 -1.884506E+01
20.000000 -22.000000 -9.805748E+01
20.000000 -24.000000 -9.268116E+01
20.000000 -26.000000 -5.582589E+01
20.000000 -28.000000 -5.217190E+01
20.000000 -30.000000 -6.115611E+01
20.000000 -32.000000 -6.252731E+01
20.000000 -34.000000 -4.165823E+01
20.000000 -36.000000 -2.718109E+01
20.000000 -38.000000 -2.648305E+01
20.000000 -40.000000 -4.818322E+01
22.000000 40.000000 5.643954E+01
22.000000 38.000000 -1.257795E+01
22.000000 36.000000 -6.101265E+01
22.000000 34.000000 -9.081124E+01
22.000000 32.000000 -9.250363E+01
22.000000 30.000000 -8.937368E+01
22.000000 28.000000 -8.703456E+01
22.000000 26.000000 -8.117698E+01
22.000000 24.000000 -7.255623E+01
22.000000 22.000000 -6.713624E+01
22.000000 20.000000 -7.019850E+01
22.000000 18.000000 -6.645920E+01
22.000000 16.000000 -4.903988E+01
22.000000 14.000000 -3.250756E+01
22.000000 12.000000 -3.404475E+01
22.000000 10.000000 -8.377676E+01
22.000000 8.000000 -1.560623E+02
22.000000 6.000000 -1.751130E+02
22.000000 4.000000 -1.316540E+02
22.000000 2.000000 -6.428488E+01
22.000000 0.000000 -3.590364E+00
22.000000 -2.000000 5.051633E+01
22.000000 -4.000000 1.025345E+02
22.000000 -6.000000 1.568977E+02
22.000000 -8.000000 1.961122E+02
22.000000 -10.000000 2.343880E+02
22.000000 -12.000000 2.952016E+02
22.000000 -14.000000 3.558280E+02
22.000000 -16.000000 3.205115E+02
22.000000 -18.000000 1.563307E+02
22.000000 -20.000000 -2.525048E+01
22.000000 -22.000000 -1.162125E+02
22.000000 -24.000000 -1.155209E+02
22.000000 -26.000000 -8.139226E+01
22.000000 -28.000000 -8.221807E+01
22.000000 -30.000000 -9.647994E+01
22.000000 -32.000000 -9.959917E+01
22.000000 -34.000000 -7.449571E+01
22.000000 -36.000000 -5.232203E+01
22.000000 -38.000000 -4.089863E+01
22.000000 -40.000000 -5.252562E+01
24.000000 40.000000 5.874448E+01
24.000000 38.000000 -1.270028E+01
24.000000 36.000000 -6.491097E+01
24.000000 34.000000 -9.751169E+01
24.000000 32.000000 -9.690163E+01
24.000000 30.000000 -9.086834E+01
24.000000 28.000000 -8.802952E+01
24.000000 26.000000 -8.062428E+01
24.000000 24.000000 -7.169214E+01
24.000000 22.000000 -6.806628E+01
24.000000 20.000000 -6.742793E+01
24.000000 18.000000 -5.235490E+01
24.000000 16.000000 -2.317518E+01
24.000000 14.000000 -5.679425E+00
24.000000 12.000000 -2.336379E+01
24.000000 10.000000 -9.157448E+01
24.000000 8.000000 -1.759772E+02
24.000000 6.000000 -2.064176E+02
24.000000 4.000000 -1.711548E+02
24.000000 2.000000 -1.036635E+02
24.000000 0.000000 -3.759387E+01
24.000000 -2.000000 2.340502E+01
24.000000 -4.000000 8.062080E+01
24.000000 -6.000000 1.432879E+02
24.000000 -8.000000 2.055847E+02
24.000000 -10.000000 2.789844E+02
24.000000 -12.000000 3.655115E+02
24.000000 -14.000000 4.200260E+02
24.000000 -16.000000 3.590345E+02
24.000000 -18.000000 1.791883E+02
24.000000 -20.000000 -6.330029E+00
24.000000 -22.000000 -9.843028E+01
24.000000 -24.000000 -1.022997E+02
24.000000 -26.000000 -7.612808E+01
24.000000 -28.000000 -8.462775E+01
24.000000 -30.000000 -1.026162E+02
24.000000 -32.000000 -1.073069E+02
24.000000 -34.000000 -8.316912E+01
24.000000 -36.000000 -6.275866E+01
24.000000 -38.000000 -5.211010E+01
24.000000 -40.000000 -6.258111E+01
26.000000 40.000000 5.883280E+01
26.000000 38.000000 -5.923611E+00
26.000000 36.000000 -5.395162E+01
26.000000 34.000000 -8.481865E+01
26.000000 32.000000 -7.883840E+01
26.000000 30.000000 -6.760412E+01
26.000000 28.000000 -6.583683E+01
26.000000 26.000000 -6.594074E+01
26.000000 24.000000 -6.763622E+01
26.000000 22.000000 -6.541567E+01
26.000000 20.000000 -5.459506E+01
26.000000 18.000000 -2.062630E+01
26.000000 16.000000 1.791120E+01
26.000000 14.000000 1.918129E+01
26.000000 12.000000 -4.113728E+01
26.000000 10.000000 -1.395625E+02
26.000000 8.000000 -2.231225E+02
26.000000 6.000000 -2.563855E+02
26.000000 4.000000 -2.241228E+02
26.000000 2.000000 -1.512415E+02
26.000000 0.000000 -7.147531E+01
26.000000 -2.000000 7.826811E+00
26.000000 -4.000000 7.859282E+01
26.000000 -6.000000 1.446324E+02
26.000000 -8.000000 2.081613E+02
26.000000 -10.000000 2.851988E+02
26.000000 -12.000000 3.757913E+02
26.000000 -14.000000 4.294087E+02
26.000000 -16.000000 3.673916E+02
26.000000 -18.000000 1.986339E+02
26.000000 -20.000000 3.131001E+01
26.000000 -22.000000 -5.032397E+01
26.000000 -24.000000 -5.808704E+01
26.000000 -26.000000 -4.417662E+01
26.000000 -28.000000 -6.109177E+01
26.000000 -30.000000 -8.232121E+01
26.000000 -32.000000 -8.889077E+01
26.000000 -34.000000 -6.791586E+01
26.000000 -36.000000 -5.421846E+01
26.000000 -38.000000 -5.389850E+01
26.000000 -40.000000 -7.485524E+01
28.000000 40.000000 6.502744E+01
28.000000 38.000000 6.340081E+00
28.000000 36.000000 -3.798161E+01
28.000000 34.000000 -6.440106E+01
28.000000 32.000000 -5.468669E+01
28.000000 30.000000 -4.236580E+01
28.000000 28.000000 -4.301709E+01
28.000000 26.000000 -5.032662E+01
28.000000 24.000000 -6.141434E+01
28.000000 22.000000 -6.074347E+01
28.000000 20.000000 -4.185179E+01
28.000000 18.000000 8.365739E+00
28.000000 16.000000 5.666859E+01
28.000000 14.000000 3.675617E+01
28.000000 12.000000 -7.063223E+01
28.000000 10.000000 -1.972860E+02
28.000000 8.000000 -2.754211E+02
28.000000 6.000000 -3.014199E+02
28.000000 4.000000 -2.615313E+02
28.000000 2.000000 -1.806155E+02
28.000000 0.000000 -8.812453E+01
28.000000 -2.000000 7.215513E+00
28.000000 -4.000000 8.867012E+01
28.000000 -6.000000 1.537669E+02
28.000000 -8.000000 2.074454E+02
28.000000 -10.000000 2.708215E+02
28.000000 -12.000000 3.479653E+02
28.000000 -14.000000 3.949495E+02
28.000000 -16.000000 3.450894E+02
28.000000 -18.000000 2.091394E+02
28.000000 -20.000000 7.475708E+01
28.000000 -22.000000 1.017120E+01
28.000000 -24.000000 1.257069E+00
28.000000 -26.000000 2.924698E+00
28.000000 -28.000000 -2.438832E+01
28.000000 -30.000000 -4.985796E+01
28.000000 -32.000000 -5.678942E+01
28.000000 -34.000000 -3.787026E+01
28.000000 -36.000000 -3.275323E+01
28.000000 -38.000000 -4.605592E+01
28.000000 -40.000000 -8.287223E+01
30.000000 40.000000 7.698173E+01
30.000000 38.000000 2.050751E+01
30.000000 36.000000 -2.294162E+01
30.000000 34.000000 -4.580235E+01
30.000000 32.000000 -3.563565E+01
30.000000 30.000000 -2.617923E+01
30.000000 28.000000 -2.909291E+01
30.000000 26.000000 -3.783679E+01
30.000000 24.000000 -5.122767E+01
30.000000 22.000000 -5.270015E+01
30.000000 20.000000 -3.296249E+01
30.000000 18.000000 1.406897E+01
30.000000 16.000000 5.064216E+01
30.000000 14.000000 9.199329E+00
30.000000 12.000000 -1.133122E+02
30.000000 10.000000 -2.387165E+02
30.000000 8.000000 -2.940735E+02
30.000000 6.000000 -2.956635E+02
30.000000 4.000000 -2.385707E+02
30.000000 2.000000 -1.551247E+02
30.000000 0.000000 -6.282084E+01
30.000000 -2.000000 3.003393E+01
30.000000 -4.000000 1.075308E+02
30.000000 -6.000000 1.644872E+02
30.000000 -8.000000 2.032302E+02
30.000000 -10.000000 2.455149E+02
30.000000 -12.000000 2.966543E+02
30.000000 -14.000000 3.257542E+02
30.000000 -16.000000 2.866662E+02
30.000000 -18.000000 1.903499E+02
30.000000 -20.000000 9.690325E+01
30.000000 -22.000000 5.574158E+01
30.000000 -24.000000 5.219971E+01
30.000000 -26.000000 4.620546E+01
30.000000 -28.000000 1.225381E+01
30.000000 -30.000000 -1.356663E+01
30.000000 -32.000000 -1.752547E+01
30.000000 -34.000000 -1.467209E-01
30.000000 -36.000000 -4.768627E+00
30.000000 -38.000000 -3.103832E+01
30.000000 -40.000000 -8.294387E+01
32.000000 40.000000 8.813965E+01
32.000000 38.000000 3.143102E+01
32.000000 36.000000 -1.272173E+01
32.000000 34.000000 -3.707026E+01
32.000000 32.000000 -2.902091E+01
32.000000 30.000000 -2.056803E+01
32.000000 28.000000 -2.304159E+01
32.000000 26.000000 -3.054248E+01
32.000000 24.000000 -3.944386E+01
32.000000 22.000000 -4.184015E+01
32.000000 20.000000 -2.913362E+01
32.000000 18.000000 -3.380146E+00
32.000000 16.000000 3.310488E+00
32.000000 14.000000 -4.746731E+01
32.000000 12.000000 -1.415637E+02
32.000000 10.000000 -2.281436E+02
32.000000 8.000000 -2.444097E+02
32.000000 6.000000 -2.135134E+02
32.000000 4.000000 -1.460108E+02
32.000000 2.000000 -7.751548E+01
32.000000 0.000000 -6.011332E+00
32.000000 -2.000000 6.247052E+01
32.000000 -4.000000 1.194534E+02
32.000000 -6.000000 1.604101E+02
32.000000 -8.000000 1.834147E+02
32.000000 -10.000000 2.050095E+02
32.000000 -12.000000 2.262136E+02
32.000000 -14.000000 2.256851E+02
32.000000 -16.000000 1.834882E+02
32.000000 -18.000000 1.212458E+02
32.000000 -20.000000 7.430578E+01
32.000000 -22.000000 6.341306E+01
32.000000 -24.000000 7.382148E+01
32.000000 -26.000000 7.134982E+01
32.000000 -28.000000 4.392221E+01
32.000000 -30.000000 2.793371E+01
32.000000 -32.000000 3.031751E+01
32.000000 -34.000000 4.281383E+01
32.000000 -36.000000 2.558075E+01
32.000000 -38.000000 -1.280678E+01
32.000000 -40.000000 -7.596486E+01
34.000000 40.000000 9.837741E+01
34.000000 38.000000 3.553151E+01
34.000000 36.000000 -1.651935E+01
34.000000 34.000000 -4.899654E+01
34.000000 32.000000 -4.211239E+01
34.000000 30.000000 -2.966131E+01
34.000000 28.000000 -2.650618E+01
34.000000 26.000000 -2.900063E+01
34.000000 24.000000 -2.717805E+01
34.000000 22.000000 -2.622424E+01
34.000000 20.000000 -2.304388E+01
34.000000 18.000000 -1.564785E+01
34.000000 16.000000 -2.367549E+01
34.000000 14.000000 -6.508561E+01
34.000000 12.000000 -1.207639E+02
34.000000 10.000000 -1.586630E+02
34.000000 8.000000 -1.383628E+02
34.000000 6.000000 -8.378814E+01
34.000000 4.000000 -2.658234E+01
34.000000 2.000000 1.085170E+01
34.000000 0.000000 4.690715E+01
34.000000 -2.000000 7.991370E+01
34.000000 -4.000000 1.077468E+02
34.000000 -6.000000 1.279574E+02
34.000000 -8.000000 1.368803E+02
34.000000 -10.000000 1.456461E+02
34.000000 -12.000000 1.447205E+02
34.000000 -14.000000 1.100519E+02
34.000000 -16.000000 4.616799E+01
34.000000 -18.000000 7.954758E+00
34.000000 -20.000000 9.005627E+00
34.000000 -22.000000 3.253107E+01
34.000000 -24.000000 6.413622E+01
34.000000 -26.000000 7.833770E+01
34.000000 -28.000000 7.037921E+01
34.000000 -30.000000 7.205323E+01
34.000000 -32.000000 8.281530E+01
34.000000 -34.000000 8.899500E+01
34.000000 -36.000000 5.821250E+01
34.000000 -38.000000 5.474911E+00
34.000000 -40.000000 -6.937287E+01
36.000000 40.000000 1.082334E+02
36.000000 38.000000 3.136603E+01
36.000000 36.000000 -3.730858E+01
36.000000 34.000000 -8.066748E+01
36.000000 32.000000 -7.025788E+01
36.000000 30.000000 -4.925940E+01
36.000000 28.000000 -3.483453E+01
36.000000 26.000000 -2.599948E+01
36.000000 24.000000 -9.548252E+00
36.000000 22.000000 4.741917E-01
36.000000 20.000000 2.332586E+00
36.000000 18.000000 2.218763E+00
36.000000 16.000000 -1.134754E+01
36.000000 14.000000 -4.050299E+01
36.000000 12.000000 -6.861302E+01
36.000000 10.000000 -7.047514E+01
36.000000 8.000000 -3.194718E+01
36.000000 6.000000 2.739083E+01
36.000000 4.000000 6.541317E+01
36.000000 2.000000 7.300384E+01
36.000000 0.000000 7.677686E+01
36.000000 -2.000000 7.943796E+01
36.000000 -4.000000 8.137425E+01
36.000000 -6.000000 8.293492E+01
36.000000 -8.000000 8.343208E+01
36.000000 -10.000000 8.631189E+01
36.000000 -12.000000 7.742991E+01
36.000000 -14.000000 1.953434E+01
36.000000 -16.000000 -6.983360E+01
36.000000 -18.000000 -1.002897E+02
36.000000 -20.000000 -6.755367E+01
36.000000 -22.000000 -1.801664E+01
36.000000 -24.000000 3.485192E+01
36.000000 -26.000000 7.041447E+01
36.000000 -28.000000 8.395359E+01
36.000000 -30.000000 1.038392E+02
36.000000 -32.000000 1.227346E+02
36.000000 -34.000000 1.251080E+02
36.000000 -36.000000 8.614854E+01
36.000000 -38.000000 2.071681E+01
36.000000 -40.000000 -6.565921E+01
38.000000 40.000000 1.123191E+02
38.000000 38.000000 2.052222E+01
38.000000 36.000000 -6.283473E+01
38.000000 34.000000 -1.117167E+02
38.000000 32.000000 -9.477479E+01
38.000000 30.000000 -6.478324E+01
38.000000 28.000000 -4.169640E+01
38.000000 26.000000 -2.241444E+01
38.000000 24.000000 7.668805E+00
38.000000 22.000000 2.648844E+01
38.000000 20.000000 3.260633E+01
38.000000 18.000000 3.093635E+01
38.000000 16.000000 1.570368E+01
38.000000 14.000000 -5.293879E+00
38.000000 12.000000 -1.900700E+01
38.000000 10.000000 -4.105053E+00
38.000000 8.000000 3.260709E+01
38.000000 6.000000 7.748584E+01
38.000000 4.000000 9.569065E+01
38.000000 2.000000 8.484314E+01
38.000000 0.000000 7.019893E+01
38.000000 -2.000000 6.004135E+01
38.000000 -4.000000 5.128194E+01
38.000000 -6.000000 4.408700E+01
38.000000 -8.000000 4.587834E+01
38.000000 -10.000000 5.167031E+01
38.000000 -12.000000 5.007116E+01
38.000000 -14.000000 3.091835E+00
38.000000 -16.000000 -8.075491E+01
38.000000 -18.000000 -1.299856E+02
38.000000 -20.000000 -1.129606E+02
38.000000 -22.000000 -5.815409E+01
38.000000 -24.000000 6.314346E+00
38.000000 -26.000000 5.176723E+01
38.000000 -28.000000 7.357535E+01
38.000000 -30.000000 1.026001E+02
38.000000 -32.000000 1.249170E+02
38.000000 -34.000000 1.272493E+02
38.000000 -36.000000 8.963328E+01
38.000000 -38.000000 2.633402E+01
38.000000 -40.000000 -5.838766E+01
40.000000 40.000000 1.108091E+02
40.000000 38.000000 1.224363E+01
40.000000 36.000000 -7.530657E+01
40.000000 34.000000 -1.230198E+02
40.000000 32.000000 -1.009411E+02
40.000000 30.000000 -6.651867E+01
40.000000 28.000000 -4.370581E+01
40.000000 26.000000 -2.488188E+01
40.000000 24.000000 8.113497E+00
40.000000 22.000000 2.824042E+01
40.000000 20.000000 3.315708E+01
40.000000 18.000000 2.820397E+01
40.000000 16.000000 1.639211E+01
40.000000 14.000000 7.060173E+00
40.000000 12.000000 6.338222E+00
40.000000 10.000000 2.280952E+01
40.000000 8.000000 4.907424E+01
40.000000 6.000000 7.547566E+01
40.000000 4.000000 7.910619E+01
40.000000 2.000000 6.351085E+01
40.000000 0.000000 4.662977E+01
40.000000 -2.000000 3.718712E+01
40.000000 -4.000000 3.206245E+01
40.000000 -6.000000 3.105945E+01
40.000000 -8.000000 3.926863E+01
40.000000 -10.000000 5.385462E+01
40.000000 -12.000000 6.647400E+01
40.000000 -14.000000 4.990819E+01
40.000000 -16.000000 -7.456978E+00
40.000000 -18.000000 -7.485279E+01
40.000000 -20.000000 -9.932026E+01
40.000000 -22.000000 -6.644661E+01
40.000000 -24.000000 -1.044961E+01
40.000000 -26.000000 2.870327E+01
40.000000 -28.000000 4.630350E+01
40.000000 -30.000000 7.199238E+01
40.000000 -32.000000 8.988958E+01
40.000000 -34.000000 9.459227E+01
40.000000 -36.000000 6.707730E+01
40.000000 -38.000000 2.041788E+01
40.000000 -40.000000 -4.905860E+01
42.000000 40.000000 1.086854E+02
42.000000 38.000000 1.434645E+01
42.000000 36.000000 -6.648076E+01
42.000000 34.000000 -1.101598E+02
42.000000 32.000000 -8.870990E+01
42.000000 30.000000 -5.766909E+01
42.000000 28.000000 -4.307095E+01
42.000000 26.000000 -3.583343E+01
42.000000 24.000000 -1.687497E+01
42.000000 22.000000 -2.060755E+00
42.000000 20.000000 -6.331778E-01
42.000000 18.000000 -6.301399E+00
42.000000 16.000000 -9.650410E+00
42.000000 14.000000 -7.425982E+00
42.000000 12.000000 2.797766E+00
42.000000 10.000000 1.869305E+01
42.000000 8.000000 3.537729E+01
42.000000 6.000000 4.897237E+01
42.000000 4.000000 4.831739E+01
42.000000 2.000000 3.742463E+01
42.000000 0.000000 2.849422E+01
42.000000 -2.000000 2.739827E+01
42.000000 -4.000000 3.380808E+01
42.000000 -6.000000 4.411437E+01
42.000000 -8.000000 5.522997E+01
42.000000 -10.000000 7.420673E+01
42.000000 -12.000000 9.740956E+01
42.000000 -14.000000 1.117222E+02
42.000000 -16.000000 8.513178E+01
42.000000 -18.000000 1.655114E+01
42.000000 -20.000000 -4.489011E+01
42.000000 -22.000000 -5.148721E+01
42.000000 -24.000000 -2.097032E+01
42.000000 -26.000000 5.117069E+00
42.000000 -28.000000 1.735112E+01
42.000000 -30.000000 3.435140E+01
42.000000 -32.000000 4.345343E+01
42.000000 -34.000000 5.004493E+01
42.000000 -36.000000 3.774048E+01
42.000000 -38.000000 1.038464E+01
42.000000 -40.000000 -4.310616E+01
44.000000 40.000000 1.039976E+02
44.000000 38.000000 2.177154E+01
44.000000 36.000000 -4.451792E+01
44.000000 34.000000 -7.943798E+01
44.000000 32.000000 -6.105175E+01
44.000000 30.000000 -3.965456E+01
44.000000 28.000000 -3.939100E+01
44.000000 26.000000 -5.083512E+01
44.000000 24.000000 -5.246385E+01
44.000000 22.000000 -4.183152E+01
44.000000 20.000000 -3.944236E+01
44.000000 18.000000 -4.089232E+01
44.000000 16.000000 -3.599768E+01
