-22.000000 18.000000 1.897678E+01
-22.000000 16.000000 2.515705E+01
-22.000000 14.000000 2.667703E+01
-22.000000 12.000000 2.018090E+01
-22.000000 10.000000 1.074275E+01
-22.000000 8.000000 7.082213E+00
-22.000000 6.000000 9.767934E+00
-22.000000 4.000000 1.740758E+01
-22.000000 2.000000 2.345405E+01
-22.000000 0.000000 2.272052E+01
-22.000000 -2.000000 1.858604E+01
-22.000000 -4.000000 1.705885E+01
-22.000000 -6.000000 2.129704E+01
-22.000000 -8.000000 2.476471E+01
-22.000000 -10.000000 2.336530E+01
-22.000000 -12.000000 1.865415E+01
-22.000000 -14.000000 1.829739E+01
-22.000000 -16.000000 1.954987E+01
-22.000000 -18.000000 1.833026E+01
-22.000000 -20.000000 1.880956E+01
-22.000000 -22.000000 2.383917E+01
-22.000000 -24.000000 2.898583E+01
-22.000000 -26.000000 2.781185E+01
-22.000000 -28.000000 2.210792E+01
-22.000000 -30.000000 1.780194E+01
-22.000000 -32.000000 1.781768E+01
-22.000000 -34.000000 1.983442E+01
-22.000000 -36.000000 2.189959E+01
-22.000000 -38.000000 2.413089E+01
-22.000000 -40.000000 2.979769E+01
-20.000000 40.000000 -4.562781E+01
-20.000000 38.000000 -3.577018E+01
-20.000000 36.000000 -2.761364E+01
-20.000000 34.000000 -1.825756E+01
-20.000000 32.000000 -9.161014E+00
-20.000000 30.000000 -1.401800E+00
-20.000000 28.000000 2.321364E+00
-20.000000 26.000000 4.554316E+00
-20.000000 24.000000 6.116793E+00
-20.000000 22.000000 5.197923E+00
-20.000000 20.000000 6.094769E+00
-20.000000 18.000000 1.248986E+01
-20.000000 16.000000 2.179336E+01
-20.000000 14.000000 2.604388E+01
-20.000000 12.000000 2.073832E+01
-20.000000 10.000000 1.114016E+01
-20.000000 8.000000 7.001034E+00
-20.000000 6.000000 8.617432E+00
-20.000000 4.000000 1.545401E+01
-20.000000 2.000000 2.075136E+01
-20.000000 0.000000 2.035214E+01
-20.000000 -2.000000 1.650917E+01
-20.000000 -4.000000 1.537311E+01
-20.000000 -6.000000 1.869481E+01
-20.000000 -8.000000 2.265207E+01
-20.000000 -10.000000 2.319974E+01
-20.000000 -12.000000 2.092791E+01
-20.000000 -14.000000 2.352389E+01
-20.000000 -16.000000 2.731648E+01
-20.000000 -18.000000 2.564191E+01
-20.000000 -20.000000 2.470300E+01
-20.000000 -22.000000 2.890324E+01
-20.000000 -24.000000 3.468926E+01
-20.000000 -26.000000 3.547185E+01
-20.000000 -28.000000 3.065997E+01
-20.000000 -30.000000 2.557776E+01
-20.000000 -32.000000 2.483493E+01
-20.000000 -34.000000 2.634600E+01
-20.000000 -36.000000 2.817452E+01
-20.000000 -38.000000 2.874108E+01
-20.000000 -40.000000 3.205398E+01
-18.000000 40.000000 -4.372679E+01
-18.000000 38.000000 -3.460277E+01
-18.000000 36.000000 -2.794466E+01
-18.000000 34.000000 -1.943573E+01
-18.000000 32.000000 -9.577364E+00
-18.000000 30.000000 1.915655E-01
-18.000000 28.000000 4.705409E+00
-18.000000 26.000000 3.862304E+00
-18.000000 24.000000 1.362269E-01
-18.000000 22.000000 -4.462895E+00
-18.000000 20.000000 -5.361930E+00
-18.000000 18.000000 3.690203E+00
-18.000000 16.000000 1.747608E+01
-18.000000 14.000000 2.543670E+01
-18.000000 12.000000 2.317111E+01
-18.000000 10.000000 1.556220E+01
-18.000000 8.000000 1.089156E+01
-18.000000 6.000000 1.044502E+01
-18.000000 4.000000 1.418729E+01
-18.000000 2.000000 1.677608E+01
-18.000000 0.000000 1.596793E+01
-18.000000 -2.000000 1.280267E+01
-18.000000 -4.000000 1.226023E+01
-18.000000 -6.000000 1.293429E+01
-18.000000 -8.000000 1.644960E+01
-18.000000 -10.000000 1.957258E+01
-18.000000 -12.000000 2.284259E+01
-18.000000 -14.000000 2.882395E+01
-18.000000 -16.000000 3.538069E+01
-18.000000 -18.000000 3.640239E+01
-18.000000 -20.000000 3.419001E+01
-18.000000 -22.000000 3.585758E+01
-18.000000 -24.000000 4.045186E+01
-18.000000 -26.000000 4.232623E+01
-18.000000 -28.000000 3.892395E+01
-18.000000 -30.000000 3.343317E+01
-18.000000 -32.000000 3.076519E+01
-18.000000 -34.000000 3.085734E+01
-18.000000 -36.000000 3.277233E+01
-18.000000 -38.000000 3.326594E+01
-18.000000 -40.000000 3.517744E+01
-16.000000 40.000000 -4.161538E+01
-16.000000 38.000000 -3.263801E+01
-16.000000 36.000000 -2.611636E+01
-16.000000 34.000000 -1.734262E+01
-16.000000 32.000000 -7.240487E+00
-16.000000 30.000000 3.225362E+00
-16.000000 28.000000 7.983231E+00
-16.000000 26.000000 5.017247E+00
-16.000000 24.000000 -2.490829E+00
-16.000000 22.000000 -1.005884E+01
-16.000000 20.000000 -1.156523E+01
-16.000000 18.000000 3.323841E-01
-16.000000 16.000000 1.695539E+01
-16.000000 14.000000 2.577984E+01
-16.000000 12.000000 2.476526E+01
-16.000000 10.000000 1.888813E+01
-16.000000 8.000000 1.425455E+01
-16.000000 6.000000 1.166182E+01
-16.000000 4.000000 1.162398E+01
-16.000000 2.000000 1.091288E+01
-16.000000 0.000000 9.117635E+00
-16.000000 -2.000000 8.226565E+00
-16.000000 -4.000000 9.420525E+00
-16.000000 -6.000000 8.950130E+00
-16.000000 -8.000000 1.260347E+01
-16.000000 -10.000000 1.744109E+01
-16.000000 -12.000000 2.440016E+01
-16.000000 -14.000000 3.296117E+01
-16.000000 -16.000000 4.082604E+01
-16.000000 -18.000000 4.486197E+01
-16.000000 -20.000000 4.349075E+01
-16.000000 -22.000000 4.309721E+01
-16.000000 -24.000000 4.541396E+01
-16.000000 -26.000000 4.692807E+01
-16.000000 -28.000000 4.473130E+01
-16.000000 -30.000000 3.990235E+01
-16.000000 -32.000000 3.551789E+01
-16.000000 -34.000000 3.382326E+01
-16.000000 -36.000000 3.542297E+01
-16.000000 -38.000000 3.657612E+01
-16.000000 -40.000000 3.808166E+01
-14.000000 40.000000 -3.752930E+01
-14.000000 38.000000 -2.890156E+01
-14.000000 36.000000 -2.232871E+01
-14.000000 34.000000 -1.285481E+01
-14.000000 32.000000 -3.442615E+00
-14.000000 30.000000 6.101828E+00
-14.000000 28.000000 9.802718E+00
-14.000000 26.000000 5.469930E+00
-14.000000 24.000000 -2.866981E+00
-14.000000 22.000000 -9.772206E+00
-14.000000 20.000000 -9.252154E+00
-14.000000 18.000000 4.161290E+00
-14.000000 16.000000 2.055072E+01
-14.000000 14.000000 2.743507E+01
-14.000000 12.000000 2.535347E+01
-14.000000 10.000000 2.061943E+01
-14.000000 8.000000 1.845913E+01
-14.000000 6.000000 1.559123E+01
-14.000000 4.000000 1.212202E+01
-14.000000 2.000000 7.989552E+00
-14.000000 0.000000 4.130182E+00
-14.000000 -2.000000 4.654600E+00
-14.000000 -4.000000 7.918818E+00
-14.000000 -6.000000 9.023430E+00
-14.000000 -8.000000 1.370886E+01
-14.000000 -10.000000 1.880313E+01
-14.000000 -12.000000 2.565034E+01
-14.000000 -14.000000 3.487373E+01
-14.000000 -16.000000 4.330082E+01
-14.000000 -18.000000 4.767619E+01
-14.000000 -20.000000 4.655302E+01
-14.000000 -22.000000 4.567094E+01
-14.000000 -24.000000 4.750872E+01
-14.000000 -26.000000 4.885053E+01
-14.000000 -28.000000 4.717213E+01
-14.000000 -30.000000 4.336539E+01
-14.000000 -32.000000 3.872939E+01
-14.000000 -34.000000 3.586481E+01
-14.000000 -36.000000 3.669495E+01
-14.000000 -38.000000 3.832157E+01
-14.000000 -40.000000 3.982202E+01
-12.000000 40.000000 -3.085941E+01
-12.000000 38.000000 -2.183521E+01
-12.000000 36.000000 -1.515090E+01
-12.000000 34.000000 -6.149189E+00
-12.000000 32.000000 1.335347E+00
-12.000000 30.000000 7.655396E+00
-12.000000 28.000000 8.054849E+00
-12.000000 26.000000 2.893629E+00
-12.000000 24.000000 -3.360239E+00
-12.000000 22.000000 -6.508708E+00
-12.000000 20.000000 -2.712999E+00
-12.000000 18.000000 1.059872E+01
-12.000000 16.000000 2.491223E+01
-12.000000 14.000000 3.030452E+01
-12.000000 12.000000 2.820115E+01
-12.000000 10.000000 2.586923E+01
-12.000000 8.000000 2.779908E+01
-12.000000 6.000000 2.691762E+01
-12.000000 4.000000 2.055912E+01
-12.000000 2.000000 1.229492E+01
-12.000000 0.000000 4.912312E+00
-12.000000 -2.000000 4.364605E+00
-12.000000 -4.000000 8.448910E+00
-12.000000 -6.000000 1.347056E+01
-12.000000 -8.000000 1.971161E+01
-12.000000 -10.000000 2.371150E+01
-12.000000 -12.000000 2.732741E+01
-12.000000 -14.000000 3.501062E+01
-12.000000 -16.000000 4.330074E+01
-12.000000 -18.000000 4.540028E+01
-12.000000 -20.000000 4.242133E+01
-12.000000 -22.000000 4.125305E+01
-12.000000 -24.000000 4.428392E+01
-12.000000 -26.000000 4.679284E+01
-12.000000 -28.000000 4.544570E+01
-12.000000 -30.000000 4.147713E+01
-12.000000 -32.000000 3.750578E+01
-12.000000 -34.000000 3.509555E+01
-12.000000 -36.000000 3.597884E+01
-12.000000 -38.000000 3.875574E+01
-12.000000 -40.000000 4.181918E+01
-10.000000 40.000000 -2.347857E+01
-10.000000 38.000000 -1.234234E+01
-10.000000 36.000000 -4.223411E+00
-10.000000 34.000000 3.874117E+00
-10.000000 32.000000 8.084702E+00
-10.000000 30.000000 8.851742E+00
-10.000000 28.000000 3.672601E+00
-10.000000 26.000000 -2.415101E+00
-10.000000 24.000000 -5.396633E+00
-10.000000 22.000000 -3.694986E+00
-10.000000 20.000000 3.106324E+00
-10.000000 18.000000 1.545403E+01
-10.000000 16.000000 2.839452E+01
-10.000000 14.000000 3.480102E+01
-10.000000 12.000000 3.522971E+01
-10.000000 10.000000 3.729098E+01
-10.000000 8.000000 4.341345E+01
-10.000000 6.000000 4.629448E+01
-10.000000 4.000000 3.837910E+01
-10.000000 2.000000 2.398588E+01
-10.000000 0.000000 1.201181E+01
-10.000000 -2.000000 8.247040E+00
-10.000000 -4.000000 1.166916E+01
-10.000000 -6.000000 1.958183E+01
-10.000000 -8.000000 2.590157E+01
-10.000000 -10.000000 2.772400E+01
-10.000000 -12.000000 2.743686E+01
-10.000000 -14.000000 3.202868E+01
-10.000000 -16.000000 3.878755E+01
-10.000000 -18.000000 3.930082E+01
-10.000000 -20.000000 3.514086E+01
-10.000000 -22.000000 3.357050E+01
-10.000000 -24.000000 3.754151E+01
-10.000000 -26.000000 4.144640E+01
-10.000000 -28.000000 4.044441E+01
-10.000000 -30.000000 3.537816E+01
-10.000000 -32.000000 3.195601E+01
-10.000000 -34.000000 3.102405E+01
-10.000000 -36.000000 3.342898E+01
-10.000000 -38.000000 3.852647E+01
-10.000000 -40.000000 4.453114E+01
-8.000000 40.000000 -1.732844E+01
-8.000000 38.000000 -2.947126E+00
-8.000000 36.000000 8.508724E+00
-8.000000 34.000000 1.693279E+01
-8.000000 32.000000 1.742315E+01
-8.000000 30.000000 1.201070E+01
-8.000000 28.000000 7.680709E-01
-8.000000 26.000000 -7.413527E+00
-8.000000 24.000000 -7.588933E+00
-8.000000 22.000000 -1.634917E+00
-8.000000 20.000000 5.876234E+00
-8.000000 18.000000 1.652831E+01
-8.000000 16.000000 2.920615E+01
-8.000000 14.000000 3.760870E+01
-8.000000 12.000000 4.180729E+01
-8.000000 10.000000 4.896523E+01
-8.000000 8.000000 6.029740E+01
-8.000000 6.000000 6.741030E+01
-8.000000 4.000000 5.794186E+01
-8.000000 2.000000 3.744680E+01
-8.000000 0.000000 2.163348E+01
-8.000000 -2.000000 1.549485E+01
-8.000000 -4.000000 1.832185E+01
-8.000000 -6.000000 2.687858E+01
-8.000000 -8.000000 3.139950E+01
-8.000000 -10.000000 2.985246E+01
-8.000000 -12.000000 2.633350E+01
-8.000000 -14.000000 2.781839E+01
-8.000000 -16.000000 3.230760E+01
-8.000000 -18.000000 3.288671E+01
-8.000000 -20.000000 2.922947E+01
-8.000000 -22.000000 2.764383E+01
-8.000000 -24.000000 3.106255E+01
-8.000000 -26.000000 3.466745E+01
-8.000000 -28.000000 3.395965E+01
-8.000000 -30.000000 2.866664E+01
-8.000000 -32.000000 2.551630E+01
-8.000000 -34.000000 2.565734E+01
-8.000000 -36.000000 3.046181E+01
-8.000000 -38.000000 3.815368E+01
-8.000000 -40.000000 4.687173E+01
-6.000000 40.000000 -1.214170E+01
-6.000000 38.000000 5.476973E+00
-6.000000 36.000000 2.039503E+01
-6.000000 34.000000 2.961930E+01
-6.000000 32.000000 2.716783E+01
-6.000000 30.000000 1.706904E+01
-6.000000 28.000000 1.220816E+00
-6.000000 26.000000 -9.743741E+00
-6.000000 24.000000 -9.496689E+00
-6.000000 22.000000 -1.233263E+00
-6.000000 20.000000 5.201846E+00
-6.000000 18.000000 1.335063E+01
-6.000000 16.000000 2.526200E+01
-6.000000 14.000000 3.535425E+01
-6.000000 12.000000 4.375585E+01
-6.000000 10.000000 5.587667E+01
-6.000000 8.000000 7.366653E+01
-6.000000 6.000000 8.364499E+01
-6.000000 4.000000 6.999913E+01
-6.000000 2.000000 4.516462E+01
-6.000000 0.000000 2.711882E+01
-6.000000 -2.000000 2.121924E+01
-6.000000 -4.000000 2.478648E+01
-6.000000 -6.000000 3.266707E+01
-6.000000 -8.000000 3.553692E+01
-6.000000 -10.000000 3.145755E+01
-6.000000 -12.000000 2.626723E+01
-6.000000 -14.000000 2.620179E+01
-6.000000 -16.000000 2.975797E+01
-6.000000 -18.000000 3.215239E+01
-6.000000 -20.000000 2.988764E+01
-6.000000 -22.000000 2.785145E+01
-6.000000 -24.000000 2.862894E+01
-6.000000 -26.000000 3.004057E+01
-6.000000 -28.000000 2.978313E+01
-6.000000 -30.000000 2.528326E+01
-6.000000 -32.000000 2.180111E+01
-6.000000 -34.000000 2.157107E+01
-6.000000 -36.000000 2.754822E+01
-6.000000 -38.000000 3.689545E+01
-6.000000 -40.000000 4.738940E+01
-4.000000 40.000000 -7.875260E+00
-4.000000 38.000000 1.203210E+01
-4.000000 36.000000 2.864639E+01
-4.000000 34.000000 3.788233E+01
-4.000000 32.000000 3.414661E+01
-4.000000 30.000000 2.250144E+01
-4.000000 28.000000 5.141157E+00
-4.000000 26.000000 -8.256444E+00
-4.000000 24.000000 -9.697287E+00
-4.000000 22.000000 -1.952417E+00
-4.000000 20.000000 2.308255E+00
-4.000000 18.000000 7.514469E+00
-4.000000 16.000000 1.760037E+01
-4.000000 14.000000 2.883650E+01
-4.000000 12.000000 4.142429E+01
-4.000000 10.000000 5.931159E+01
-4.000000 8.000000 8.107300E+01
-4.000000 6.000000 9.012994E+01
-4.000000 4.000000 7.091732E+01
-4.000000 2.000000 4.218136E+01
-4.000000 0.000000 2.300230E+01
-4.000000 -2.000000 1.930999E+01
-4.000000 -4.000000 2.588608E+01
-4.000000 -6.000000 3.496800E+01
-4.000000 -8.000000 3.811922E+01
-4.000000 -10.000000 3.419739E+01
-4.000000 -12.000000 2.818984E+01
-4.000000 -14.000000 2.790829E+01
-4.000000 -16.000000 3.299677E+01
-4.000000 -18.000000 3.897723E+01
-4.000000 -20.000000 3.821815E+01
-4.000000 -22.000000 3.464932E+01
-4.000000 -24.000000 3.173066E+01
-4.000000 -26.000000 3.048675E+01
-4.000000 -28.000000 3.069831E+01
-4.000000 -30.000000 2.709023E+01
-4.000000 -32.000000 2.209613E+01
-4.000000 -34.000000 2.000074E+01
-4.000000 -36.000000 2.551322E+01
-4.000000 -38.000000 3.469498E+01
-4.000000 -40.000000 4.543628E+01
-2.000000 40.000000 -6.023050E+00
-2.000000 38.000000 1.449315E+01
-2.000000 36.000000 3.108751E+01
-2.000000 34.000000 4.012227E+01
-2.000000 32.000000 3.756248E+01
-2.000000 30.000000 2.753055E+01
-2.000000 28.000000 1.167385E+01
-2.000000 26.000000 -1.361967E+00
-2.000000 24.000000 -5.302668E+00
-2.000000 22.000000 -2.149159E+00
-2.000000 20.000000 -8.575716E-01
-2.000000 18.000000 2.750947E+00
-2.000000 16.000000 1.177636E+01
-2.000000 14.000000 2.322727E+01
-2.000000 12.000000 3.762271E+01
-2.000000 10.000000 5.879628E+01
-2.000000 8.000000 8.033665E+01
-2.000000 6.000000 8.506092E+01
-2.000000 4.000000 6.073761E+01
-2.000000 2.000000 3.008714E+01
-2.000000 0.000000 1.222420E+01
-2.000000 -2.000000 1.229948E+01
-2.000000 -4.000000 2.312819E+01
-2.000000 -6.000000 3.491774E+01
-2.000000 -8.000000 3.970999E+01
-2.000000 -10.000000 3.794889E+01
-2.000000 -12.000000 3.151214E+01
-2.000000 -14.000000 3.139735E+01
-2.000000 -16.000000 3.839535E+01
-2.000000 -18.000000 4.708818E+01
-2.000000 -20.000000 4.802184E+01
-2.000000 -22.000000 4.256107E+01
-2.000000 -24.000000 3.729693E+01
-2.000000 -26.000000 3.504353E+01
-2.000000 -28.000000 3.507699E+01
-2.000000 -30.000000 3.125191E+01
-2.000000 -32.000000 2.447407E+01
-2.000000 -34.000000 2.122073E+01
-2.000000 -36.000000 2.619701E+01
-2.000000 -38.000000 3.330860E+01
-2.000000 -40.000000 4.214799E+01
0.000000 40.000000 -7.215791E+00
0.000000 38.000000 1.156189E+01
0.000000 36.000000 2.637298E+01
0.000000 34.000000 3.558179E+01
0.000000 32.000000 3.645569E+01
0.000000 30.000000 3.071442E+01
0.000000 28.000000 1.889446E+01
0.000000 26.000000 9.102291E+00
0.000000 24.000000 3.511787E+00
0.000000 22.000000 8.208122E-01
0.000000 20.000000 -5.162201E-01
0.000000 18.000000 3.962235E+00
0.000000 16.000000 1.402656E+01
0.000000 14.000000 2.467310E+01
0.000000 12.000000 3.713093E+01
0.000000 10.000000 5.602267E+01
0.000000 8.000000 7.291648E+01
0.000000 6.000000 7.219954E+01
0.000000 4.000000 4.636728E+01
0.000000 2.000000 1.769349E+01
0.000000 0.000000 2.665518E+00
0.000000 -2.000000 5.909447E+00
0.000000 -4.000000 1.875723E+01
0.000000 -6.000000 3.232538E+01
0.000000 -8.000000 3.850607E+01
0.000000 -10.000000 3.784743E+01
0.000000 -12.000000 3.190061E+01
0.000000 -14.000000 3.230861E+01
0.000000 -16.000000 3.916044E+01
0.000000 -18.000000 4.841986E+01
0.000000 -20.000000 5.124885E+01
0.000000 -22.000000 4.590682E+01
0.000000 -24.000000 4.120065E+01
0.000000 -26.000000 3.965144E+01
0.000000 -28.000000 3.962089E+01
0.000000 -30.000000 3.551394E+01
0.000000 -32.000000 2.787788E+01
0.000000 -34.000000 2.441350E+01
0.000000 -36.000000 2.878000E+01
0.000000 -38.000000 3.327473E+01
0.000000 -40.000000 3.929188E+01
2.000000 40.000000 -1.085192E+01
2.000000 38.000000 3.979980E+00
2.000000 36.000000 1.517448E+01
2.000000 34.000000 2.443910E+01
2.000000 32.000000 2.949883E+01
2.000000 30.000000 2.968558E+01
2.000000 28.000000 2.432697E+01
2.000000 26.000000 1.970378E+01
2.000000 24.000000 1.525458E+01
2.000000 22.000000 8.718234E+00
2.000000 20.000000 5.448232E+00
2.000000 18.000000 1.139882E+01
2.000000 16.000000 2.299873E+01
2.000000 14.000000 3.290125E+01
2.000000 12.000000 4.278106E+01
2.000000 10.000000 5.686591E+01
2.000000 8.000000 6.673257E+01
2.000000 6.000000 6.105471E+01
2.000000 4.000000 3.729618E+01
2.000000 2.000000 1.234038E+01
2.000000 0.000000 -1.246119E+00
2.000000 -2.000000 1.488167E+00
2.000000 -4.000000 1.259438E+01
2.000000 -6.000000 2.590171E+01
2.000000 -8.000000 3.245297E+01
2.000000 -10.000000 3.143320E+01
2.000000 -12.000000 2.596474E+01
2.000000 -14.000000 2.618833E+01
2.000000 -16.000000 3.167008E+01
2.000000 -18.000000 3.933434E+01
2.000000 -20.000000 4.285832E+01
2.000000 -22.000000 4.145876E+01
2.000000 -24.000000 4.115953E+01
2.000000 -26.000000 4.174466E+01
2.000000 -28.000000 4.253731E+01
2.000000 -30.000000 3.988526E+01
2.000000 -32.000000 3.254992E+01
2.000000 -34.000000 2.790960E+01
2.000000 -36.000000 3.044988E+01
2.000000 -38.000000 3.333819E+01
2.000000 -40.000000 3.746343E+01
4.000000 40.000000 -1.567470E+01
4.000000 38.000000 -5.938961E+00
4.000000 36.000000 2.677107E-01
4.000000 34.000000 8.268190E+00
4.000000 32.000000 1.696423E+01
4.000000 30.000000 2.409284E+01
4.000000 28.000000 2.710399E+01
4.000000 26.000000 2.900570E+01
4.000000 24.000000 2.729725E+01
4.000000 22.000000 1.802634E+01
4.000000 20.000000 1.277987E+01
4.000000 18.000000 1.957783E+01
4.000000 16.000000 3.200387E+01
4.000000 14.000000 4.168690E+01
4.000000 12.000000 5.183889E+01
4.000000 10.000000 6.349231E+01
4.000000 8.000000 6.841076E+01
4.000000 6.000000 5.985505E+01
4.000000 4.000000 3.788093E+01
4.000000 2.000000 1.469252E+01
4.000000 0.000000 -2.034550E-01
4.000000 -2.000000 -2.394100E+00
4.000000 -4.000000 4.873220E+00
4.000000 -6.000000 1.631530E+01
4.000000 -8.000000 2.281102E+01
4.000000 -10.000000 2.100005E+01
4.000000 -12.000000 1.495673E+01
4.000000 -14.000000 1.384265E+01
4.000000 -16.000000 1.770198E+01
4.000000 -18.000000 2.131477E+01
4.000000 -20.000000 2.540476E+01
4.000000 -22.000000 3.057992E+01
4.000000 -24.000000 3.690252E+01
4.000000 -26.000000 4.179356E+01
4.000000 -28.000000 4.426394E+01
4.000000 -30.000000 4.303158E+01
4.000000 -32.000000 3.670223E+01
4.000000 -34.000000 3.112840E+01
4.000000 -36.000000 3.150505E+01
4.000000 -38.000000 3.269479E+01
4.000000 -40.000000 3.504968E+01
6.000000 40.000000 -1.977860E+01
6.000000 38.000000 -1.528209E+01
6.000000 36.000000 -1.483112E+01
6.000000 34.000000 -9.667868E+00
6.000000 32.000000 1.427261E+00
6.000000 30.000000 1.553031E+01
6.000000 28.000000 2.739058E+01
6.000000 26.000000 3.462132E+01
6.000000 24.000000 3.495308E+01
6.000000 22.000000 2.366680E+01
6.000000 20.000000 1.670953E+01
6.000000 18.000000 2.317629E+01
6.000000 16.000000 3.595126E+01
6.000000 14.000000 4.607809E+01
6.000000 12.000000 5.836133E+01
6.000000 10.000000 7.217520E+01
6.000000 8.000000 7.592048E+01
6.000000 6.000000 6.719159E+01
6.000000 4.000000 4.427897E+01
6.000000 2.000000 1.785028E+01
6.000000 0.000000 -2.400734E+00
6.000000 -2.000000 -1.018149E+01
6.000000 -4.000000 -4.562128E+00
6.000000 -6.000000 7.497744E+00
6.000000 -8.000000 1.398891E+01
6.000000 -10.000000 1.090686E+01
6.000000 -12.000000 3.524778E+00
6.000000 -14.000000 1.315432E+00
6.000000 -16.000000 4.429804E+00
6.000000 -18.000000 5.438730E+00
6.000000 -20.000000 1.071503E+01
6.000000 -22.000000 2.016980E+01
6.000000 -24.000000 3.051252E+01
6.000000 -26.000000 3.983507E+01
6.000000 -28.000000 4.443872E+01
6.000000 -30.000000 4.326525E+01
6.000000 -32.000000 3.786680E+01
6.000000 -34.000000 3.262998E+01
6.000000 -36.000000 3.172311E+01
6.000000 -38.000000 3.036023E+01
6.000000 -40.000000 3.035874E+01
8.000000 40.000000 -2.199588E+01
8.000000 38.000000 -2.128453E+01
8.000000 36.000000 -2.567704E+01
8.000000 34.000000 -2.425175E+01
8.000000 32.000000 -1.287467E+01
8.000000 30.000000 5.846059E+00
8.000000 28.000000 2.326184E+01
8.000000 26.000000 3.284487E+01
8.000000 24.000000 3.443985E+01
8.000000 22.000000 2.344682E+01
8.000000 20.000000 1.606090E+01
8.000000 18.000000 2.144716E+01
8.000000 16.000000 3.329744E+01
8.000000 14.000000 4.318316E+01
8.000000 12.000000 5.614498E+01
8.000000 10.000000 7.310479E+01
8.000000 8.000000 7.886849E+01
8.000000 6.000000 7.280190E+01
8.000000 4.000000 4.898505E+01
8.000000 2.000000 1.677614E+01
8.000000 0.000000 -1.037985E+01
8.000000 -2.000000 -1.998155E+01
8.000000 -4.000000 -1.130915E+01
8.000000 -6.000000 4.428717E+00
8.000000 -8.000000 9.906319E+00
8.000000 -10.000000 3.993443E+00
8.000000 -12.000000 -4.570887E+00
8.000000 -14.000000 -4.788633E+00
8.000000 -16.000000 1.374365E+00
8.000000 -18.000000 4.750105E+00
8.000000 -20.000000 9.047514E+00
8.000000 -22.000000 1.605834E+01
8.000000 -24.000000 2.538083E+01
8.000000 -26.000000 3.525382E+01
8.000000 -28.000000 4.091873E+01
8.000000 -30.000000 4.046408E+01
8.000000 -32.000000 3.518893E+01
8.000000 -34.000000 2.912665E+01
8.000000 -36.000000 2.695473E+01
8.000000 -38.000000 2.475521E+01
8.000000 -40.000000 2.391226E+01
10.000000 40.000000 -2.265761E+01
10.000000 38.000000 -2.309538E+01
10.000000 36.000000 -2.986688E+01
10.000000 34.000000 -3.245095E+01
10.000000 32.000000 -2.300924E+01
10.000000 30.000000 -3.745565E+00
10.000000 28.000000 1.453795E+01
10.000000 26.000000 2.477334E+01
10.000000 24.000000 2.730703E+01
10.000000 22.000000 1.880300E+01
10.000000 20.000000 1.280504E+01
10.000000 18.000000 1.704586E+01
10.000000 16.000000 2.494389E+01
10.000000 14.000000 3.039526E+01
10.000000 12.000000 4.043642E+01
10.000000 10.000000 5.765722E+01
10.000000 8.000000 6.779897E+01
10.000000 6.000000 6.756659E+01
10.000000 4.000000 4.723953E+01
10.000000 2.000000 1.317561E+01
10.000000 0.000000 -1.598974E+01
10.000000 -2.000000 -2.313934E+01
10.000000 -4.000000 -9.448664E+00
10.000000 -6.000000 7.527414E+00
10.000000 -8.000000 8.799290E+00
10.000000 -10.000000 -6.313457E-01
10.000000 -12.000000 -5.896948E+00
10.000000 -14.000000 2.025009E+00
10.000000 -16.000000 1.589496E+01
10.000000 -18.000000 2.235017E+01
10.000000 -20.000000 2.091869E+01
10.000000 -22.000000 1.899728E+01
10.000000 -24.000000 2.214510E+01
10.000000 -26.000000 2.824801E+01
10.000000 -28.000000 3.327833E+01
10.000000 -30.000000 3.418497E+01
10.000000 -32.000000 2.811722E+01
10.000000 -34.000000 1.943692E+01
10.000000 -36.000000 1.581338E+01
10.000000 -38.000000 1.545766E+01
10.000000 -40.000000 1.618707E+01
12.000000 40.000000 -2.290499E+01
12.000000 38.000000 -2.271427E+01
12.000000 36.000000 -2.926174E+01
12.000000 34.000000 -3.455705E+01
12.000000 32.000000 -2.798769E+01
12.000000 30.000000 -1.133449E+01
12.000000 28.000000 4.975694E+00
12.000000 26.000000 1.495739E+01
12.000000 24.000000 1.780079E+01
12.000000 22.000000 1.310444E+01
12.000000 20.000000 1.070203E+01
12.000000 18.000000 1.412205E+01
12.000000 16.000000 1.597126E+01
12.000000 14.000000 1.325034E+01
12.000000 12.000000 1.604879E+01
12.000000 10.000000 2.817723E+01
12.000000 8.000000 4.128611E+01
12.000000 6.000000 4.825815E+01
12.000000 4.000000 3.728578E+01
12.000000 2.000000 9.435276E+00
12.000000 0.000000 -1.507091E+01
12.000000 -2.000000 -1.755052E+01
12.000000 -4.000000 -5.052834E-01
12.000000 -6.000000 1.310298E+01
12.000000 -8.000000 7.499855E+00
12.000000 -10.000000 -3.916136E+00
12.000000 -12.000000 1.658045E+00
12.000000 -14.000000 2.418435E+01
12.000000 -16.000000 4.746013E+01
12.000000 -18.000000 5.294564E+01
12.000000 -20.000000 4.010276E+01
12.000000 -22.000000 2.500778E+01
12.000000 -24.000000 1.848830E+01
12.000000 -26.000000 1.909550E+01
12.000000 -28.000000 2.254455E+01
12.000000 -30.000000 2.356212E+01
12.000000 -32.000000 1.627227E+01
12.000000 -34.000000 5.715857E+00
12.000000 -36.000000 2.024117E+00
12.000000 -38.000000 3.898284E+00
12.000000 -40.000000 6.712411E+00
14.000000 40.000000 -2.326558E+01
14.000000 38.000000 -2.182775E+01
14.000000 36.000000 -2.640126E+01
14.000000 34.000000 -3.232424E+01
14.000000 32.000000 -2.839220E+01
14.000000 30.000000 -1.497413E+01
14.000000 28.000000 -2.382568E+00
14.000000 26.000000 5.014716E+00
14.000000 24.000000 7.966597E+00
14.000000 22.000000 8.915939E+00
14.000000 20.000000 1.164964E+01
14.000000 18.000000 1.614228E+01
14.000000 16.000000 1.391092E+01
14.000000 14.000000 3.078806E+00
14.000000 12.000000 -5.048941E+00
14.000000 10.000000 -3.945383E+00
14.000000 8.000000 6.747665E+00
14.000000 6.000000 1.833040E+01
14.000000 4.000000 2.089570E+01
14.000000 2.000000 6.877708E+00
14.000000 0.000000 -9.221060E+00
14.000000 -2.000000 -8.405655E+00
14.000000 -4.000000 7.585545E+00
14.000000 -6.000000 1.553878E+01
14.000000 -8.000000 5.576410E+00
14.000000 -10.000000 -2.362801E+00
14.000000 -12.000000 1.849520E+01
14.000000 -14.000000 5.842483E+01
14.000000 -16.000000 8.893177E+01
14.000000 -18.000000 8.591354E+01
14.000000 -20.000000 5.735217E+01
14.000000 -22.000000 2.787389E+01
14.000000 -24.000000 1.086712E+01
14.000000 -26.000000 6.602030E+00
14.000000 -28.000000 9.042845E+00
14.000000 -30.000000 9.250790E+00
14.000000 -32.000000 1.166859E+00
14.000000 -34.000000 -8.830257E+00
14.000000 -36.000000 -1.102932E+01
14.000000 -38.000000 -7.522615E+00
14.000000 -40.000000 -3.310979E+00
16.000000 40.000000 -2.398932E+01
16.000000 38.000000 -2.163063E+01
16.000000 36.000000 -2.372555E+01
16.000000 34.000000 -2.805347E+01
16.000000 32.000000 -2.499028E+01
16.000000 30.000000 -1.358808E+01
16.000000 28.000000 -5.164659E+00
16.000000 26.000000 -2.668648E+00
16.000000 24.000000 4.007244E-01
16.000000 22.000000 8.211911E+00
16.000000 20.000000 1.613715E+01
16.000000 18.000000 2.415778E+01
16.000000 16.000000 2.177175E+01
16.000000 14.000000 4.910776E+00
16.000000 12.000000 -1.581780E+01
16.000000 10.000000 -2.958372E+01
16.000000 8.000000 -2.622484E+01
16.000000 6.000000 -1.260180E+01
16.000000 4.000000 3.915716E+00
16.000000 2.000000 5.905289E+00
16.000000 0.000000 -2.022871E+00
16.000000 -2.000000 -2.236410E+00
16.000000 -4.000000 8.025225E+00
16.000000 -6.000000 1.066284E+01
16.000000 -8.000000 2.050909E+00
16.000000 -10.000000 3.939920E+00
16.000000 -12.000000 4.195981E+01
16.000000 -14.000000 9.785178E+01
16.000000 -16.000000 1.303956E+02
16.000000 -18.000000 1.133944E+02
16.000000 -20.000000 6.700881E+01
16.000000 -22.000000 2.401259E+01
16.000000 -24.000000 -1.276665E+00
16.000000 -26.000000 -8.659817E+00
16.000000 -28.000000 -6.687542E+00
16.000000 -30.000000 -7.642471E+00
16.000000 -32.000000 -1.501554E+01
16.000000 -34.000000 -2.213291E+01
16.000000 -36.000000 -2.226776E+01
16.000000 -38.000000 -1.691372E+01
16.000000 -40.000000 -1.195023E+01
18.000000 40.000000 -2.547681E+01
18.000000 38.000000 -2.365024E+01
18.000000 36.000000 -2.384849E+01
18.000000 34.000000 -2.413549E+01
18.000000 32.000000 -1.804928E+01
18.000000 30.000000 -7.247002E+00
18.000000 28.000000 -2.299227E+00
18.000000 26.000000 -3.745453E+00
18.000000 24.000000 -9.954472E-01
18.000000 22.000000 1.256742E+01
18.000000 20.000000 2.509234E+01
18.000000 18.000000 3.665796E+01
18.000000 16.000000 3.695686E+01
18.000000 14.000000 1.794373E+01
18.000000 12.000000 -1.349892E+01
18.000000 10.000000 -4.329137E+01
18.000000 8.000000 -5.037586E+01
18.000000 6.000000 -3.643615E+01
18.000000 4.000000 -8.593210E+00
18.000000 2.000000 6.535278E+00
18.000000 0.000000 3.016605E+00
18.000000 -2.000000 -4.275301E+00
18.000000 -4.000000 -4.284145E+00
18.000000 -6.000000 -5.507435E+00
18.000000 -8.000000 -7.568781E+00
18.000000 -10.000000 8.081289E+00
18.000000 -12.000000 6.352249E+01
18.000000 -14.000000 1.323687E+02
18.000000 -16.000000 1.629045E+02
18.000000 -18.000000 1.312600E+02
18.000000 -20.000000 6.823772E+01
18.000000 -22.000000 1.520515E+01
18.000000 -24.000000 -1.401516E+01
18.000000 -26.000000 -2.227298E+01
18.000000 -28.000000 -2.222659E+01
18.000000 -30.000000 -2.428918E+01
18.000000 -32.000000 -2.917916E+01
18.000000 -34.000000 -3.266865E+01
18.000000 -36.000000 -3.070690E+01
18.000000 -38.000000 -2.367630E+01
18.000000 -40.000000 -1.895151E+01
20.000000 40.000000 -2.885287E+01
20.000000 38.000000 -2.849803E+01
20.000000 36.000000 -2.698116E+01
20.000000 34.000000 -2.136584E+01
20.000000 32.000000 -8.824477E+00
20.000000 30.000000 3.574286E+00
20.000000 28.000000 7.149511E+00
20.000000 26.000000 4.315365E+00
20.000000 24.000000 8.008470E+00
20.000000 22.000000 2.309135E+01
20.000000 20.000000 3.708922E+01
20.000000 18.000000 4.944377E+01
20.000000 16.000000 5.247174E+01
20.000000 14.000000 3.486066E+01
20.000000 12.000000 -2.686035E+00
20.000000 10.000000 -4.452979E+01
20.000000 8.000000 -6.166219E+01
20.000000 6.000000 -4.884906E+01
20.000000 4.000000 -1.396914E+01
20.000000 2.000000 7.057777E+00
20.000000 0.000000 2.018644E+00
20.000000 -2.000000 -1.583638E+01
20.000000 -4.000000 -2.857162E+01
20.000000 -6.000000 -3.233640E+01
20.000000 -8.000000 -2.477601E+01
20.000000 -10.000000 5.510602E+00
20.000000 -12.000000 7.588337E+01
20.000000 -14.000000 1.523970E+02
20.000000 -16.000000 1.787899E+02
20.000000 -18.000000 1.359178E+02
20.000000 -20.000000 6.220003E+01
20.000000 -22.000000 4.925499E+00
20.000000 -24.000000 -2.409727E+01
20.000000 -26.000000 -3.141773E+01
20.000000 -28.000000 -3.377127E+01
20.000000 -30.000000 -3.660318E+01
20.000000 -32.000000 -3.871583E+01
20.000000 -34.000000 -3.863712E+01
20.000000 -36.000000 -3.478058E+01
20.000000 -38.000000 -2.798704E+01
20.000000 -40.000000 -2.521948E+01
22.000000 40.000000 -3.477945E+01
22.000000 38.000000 -3.536926E+01
22.000000 36.000000 -3.133228E+01
22.000000 34.000000 -1.936557E+01
22.000000 32.000000 5.968952E-01
22.000000 30.000000 1.723633E+01
22.000000 28.000000 2.247259E+01
22.000000 26.000000 2.067853E+01
22.000000 24.000000 2.528327E+01
22.000000 22.000000 3.505576E+01
22.000000 20.000000 4.582272E+01
22.000000 18.000000 5.620695E+01
22.000000 16.000000 6.002236E+01
22.000000 14.000000 4.548724E+01
22.000000 12.000000 7.505499E+00
22.000000 10.000000 -3.992347E+01
22.000000 8.000000 -6.319746E+01
22.000000 6.000000 -5.192668E+01
22.000000 4.000000 -1.530680E+01
22.000000 2.000000 5.837664E+00
22.000000 0.000000 -3.277386E+00
22.000000 -2.000000 -3.024036E+01
22.000000 -4.000000 -5.401499E+01
22.000000 -6.000000 -6.015895E+01
22.000000 -8.000000 -4.384195E+01
22.000000 -10.000000 -1.612883E+00
22.000000 -12.000000 7.823696E+01
22.000000 -14.000000 1.556105E+02
22.000000 -16.000000 1.760939E+02
22.000000 -18.000000 1.266222E+02
22.000000 -20.000000 4.969136E+01
22.000000 -22.000000 -6.241633E+00
22.000000 -24.000000 -3.124528E+01
22.000000 -26.000000 -3.605864E+01
22.000000 -28.000000 -3.899890E+01
22.000000 -30.000000 -4.257313E+01
22.000000 -32.000000 -4.363220E+01
22.000000 -34.000000 -4.008875E+01
22.000000 -36.000000 -3.451392E+01
22.000000 -38.000000 -3.048888E+01
22.000000 -40.000000 -3.109496E+01
24.000000 40.000000 -4.044127E+01
24.000000 38.000000 -4.167906E+01
24.000000 36.000000 -3.575617E+01
24.000000 34.000000 -1.900452E+01
24.000000 32.000000 7.063508E+00
24.000000 30.000000 2.837053E+01
24.000000 28.000000 3.637597E+01
24.000000 26.000000 3.488507E+01
24.000000 24.000000 3.790088E+01
24.000000 22.000000 4.020432E+01
24.000000 20.000000 4.597652E+01
24.000000 18.000000 5.325022E+01
24.000000 16.000000 5.627084E+01
24.000000 14.000000 4.449395E+01
24.000000 12.000000 1.005293E+01
24.000000 10.000000 -3.636380E+01
24.000000 8.000000 -5.916466E+01
24.000000 6.000000 -4.876540E+01
24.000000 4.000000 -1.507981E+01
24.000000 2.000000 3.280565E+00
24.000000 0.000000 -7.597841E+00
24.000000 -2.000000 -3.603600E+01
24.000000 -4.000000 -6.323365E+01
24.000000 -6.000000 -7.308886E+01
24.000000 -8.000000 -5.594810E+01
24.000000 -10.000000 -1.036167E+01
24.000000 -12.000000 7.123416E+01
24.000000 -14.000000 1.445353E+02
24.000000 -16.000000 1.589179E+02
24.000000 -18.000000 1.052434E+02
24.000000 -20.000000 2.902679E+01
24.000000 -22.000000 -2.122020E+01
24.000000 -24.000000 -3.693670E+01
24.000000 -26.000000 -3.599247E+01
24.000000 -28.000000 -3.833814E+01
24.000000 -30.000000 -4.276331E+01
24.000000 -32.000000 -4.469092E+01
24.000000 -34.000000 -3.932170E+01
24.000000 -36.000000 -3.257642E+01
24.000000 -38.000000 -3.129383E+01
24.000000 -40.000000 -3.517564E+01
26.000000 40.000000 -4.215566E+01
26.000000 38.000000 -4.442310E+01
26.000000 36.000000 -3.955891E+01
26.000000 34.000000 -2.220350E+01
26.000000 32.000000 6.186386E+00
26.000000 30.000000 2.976973E+01
26.000000 28.000000 3.897466E+01
26.000000 26.000000 3.525498E+01
26.000000 24.000000 3.320970E+01
26.000000 22.000000 2.961391E+01
26.000000 20.000000 3.430066E+01
26.000000 18.000000 4.277520E+01
26.000000 16.000000 4.629256E+01
26.000000 14.000000 3.588311E+01
26.000000 12.000000 5.454809E+00
26.000000 10.000000 -3.497469E+01
26.000000 8.000000 -5.135987E+01
26.000000 6.000000 -3.949733E+01
26.000000 4.000000 -1.017955E+01
26.000000 2.000000 4.746005E+00
26.000000 0.000000 -4.719770E+00
26.000000 -2.000000 -2.815900E+01
26.000000 -4.000000 -5.185336E+01
26.000000 -6.000000 -6.487080E+01
26.000000 -8.000000 -5.438977E+01
26.000000 -10.000000 -1.508491E+01
26.000000 -12.000000 5.843119E+01
26.000000 -14.000000 1.222871E+02
26.000000 -16.000000 1.295960E+02
26.000000 -18.000000 7.325486E+01
26.000000 -20.000000 3.020878E-01
26.000000 -22.000000 -4.070770E+01
26.000000 -24.000000 -4.322900E+01
26.000000 -26.000000 -3.363018E+01
26.000000 -28.000000 -3.394869E+01
26.000000 -30.000000 -3.795896E+01
26.000000 -32.000000 -4.132539E+01
26.000000 -34.000000 -3.675004E+01
26.000000 -36.000000 -3.049326E+01
26.000000 -38.000000 -3.063193E+01
26.000000 -40.000000 -3.702119E+01
28.000000 40.000000 -3.947640E+01
28.000000 38.000000 -4.484524E+01
28.000000 36.000000 -4.479693E+01
28.000000 34.000000 -3.139740E+01
28.000000 32.000000 -3.825993E+00
28.000000 30.000000 1.998279E+01
28.000000 28.000000 2.753279E+01
28.000000 26.000000 1.933380E+01
28.000000 24.000000 9.056206E+00
28.000000 22.000000 3.117039E+00
28.000000 20.000000 1.248105E+01
28.000000 18.000000 2.923292E+01
28.000000 16.000000 3.762868E+01
28.000000 14.000000 2.913459E+01
28.000000 12.000000 2.627684E+00
28.000000 10.000000 -2.994200E+01
28.000000 8.000000 -3.777169E+01
28.000000 6.000000 -2.278973E+01
28.000000 4.000000 1.300716E+00
28.000000 2.000000 1.197186E+01
28.000000 0.000000 5.660160E+00
28.000000 -2.000000 -1.031038E+01
28.000000 -4.000000 -2.801480E+01
28.000000 -6.000000 -4.348552E+01
28.000000 -8.000000 -4.165026E+01
28.000000 -10.000000 -1.387666E+01
28.000000 -12.000000 4.180575E+01
28.000000 -14.000000 8.947736E+01
28.000000 -16.000000 8.923942E+01
28.000000 -18.000000 3.539710E+01
28.000000 -20.000000 -2.976771E+01
28.000000 -22.000000 -6.072694E+01
28.000000 -24.000000 -5.156592E+01
28.000000 -26.000000 -3.253592E+01
28.000000 -28.000000 -2.822476E+01
28.000000 -30.000000 -2.934307E+01
28.000000 -32.000000 -3.197475E+01
28.000000 -34.000000 -2.919198E+01
28.000000 -36.000000 -2.704243E+01
28.000000 -38.000000 -3.015393E+01
28.000000 -40.000000 -3.921549E+01
30.000000 40.000000 -3.415698E+01
30.000000 38.000000 -4.550592E+01
30.000000 36.000000 -5.327726E+01
30.000000 34.000000 -4.684127E+01
30.000000 32.000000 -2.179673E+01
30.000000 30.000000 1.219155E+00
30.000000 28.000000 5.031428E+00
30.000000 26.000000 -8.487547E+00
30.000000 24.000000 -2.730126E+01
30.000000 22.000000 -3.099265E+01
30.000000 20.000000 -1.250392E+01
30.000000 18.000000 1.720063E+01
30.000000 16.000000 3.521948E+01
30.000000 14.000000 3.290615E+01
30.000000 12.000000 1.287341E+01
30.000000 10.000000 -1.109903E+01
30.000000 8.000000 -1.317114E+01
30.000000 6.000000 1.296263E+00
30.000000 4.000000 1.816080E+01
30.000000 2.000000 2.454640E+01
30.000000 0.000000 2.092942E+01
30.000000 -2.000000 1.104360E+01
30.000000 -4.000000 -3.374911E+00
30.000000 -6.000000 -2.190808E+01
30.000000 -8.000000 -2.885370E+01
30.000000 -10.000000 -1.569036E+01
30.000000 -12.000000 1.879040E+01
30.000000 -14.000000 4.819970E+01
30.000000 -16.000000 4.300352E+01
30.000000 -18.000000 -1.350398E+00
30.000000 -20.000000 -5.345052E+01
30.000000 -22.000000 -7.572420E+01
30.000000 -24.000000 -6.016929E+01
30.000000 -26.000000 -3.405416E+01
30.000000 -28.000000 -2.285219E+01
30.000000 -30.000000 -1.869337E+01
30.000000 -32.000000 -1.840577E+01
30.000000 -34.000000 -1.737667E+01
30.000000 -36.000000 -2.181622E+01
30.000000 -38.000000 -2.987682E+01
30.000000 -40.000000 -4.212511E+01
32.000000 40.000000 -2.853701E+01
32.000000 38.000000 -4.643316E+01
32.000000 36.000000 -6.173188E+01
32.000000 34.000000 -6.389725E+01
32.000000 32.000000 -4.399530E+01
32.000000 30.000000 -2.379467E+01
32.000000 28.000000 -2.311832E+01
32.000000 26.000000 -4.023288E+01
32.000000 24.000000 -6.298399E+01
32.000000 22.000000 -6.068170E+01
32.000000 20.000000 -3.352335E+01
32.000000 18.000000 7.335695E+00
32.000000 16.000000 3.673151E+01
32.000000 14.000000 4.537610E+01
32.000000 12.000000 3.524290E+01
32.000000 10.000000 2.134621E+01
32.000000 8.000000 2.018768E+01
32.000000 6.000000 2.851500E+01
32.000000 4.000000 3.544278E+01
32.000000 2.000000 3.685896E+01
32.000000 0.000000 3.472370E+01
32.000000 -2.000000 2.878846E+01
32.000000 -4.000000 1.494569E+01
32.000000 -6.000000 -6.411282E+00
32.000000 -8.000000 -2.139500E+01
32.000000 -10.000000 -2.299309E+01
32.000000 -12.000000 -6.681502E+00
32.000000 -14.000000 7.642913E+00
32.000000 -16.000000 1.249389E+00
32.000000 -18.000000 -2.991630E+01
32.000000 -20.000000 -6.685031E+01
32.000000 -22.000000 -8.199489E+01
32.000000 -24.000000 -6.421946E+01
32.000000 -26.000000 -3.531159E+01
32.000000 -28.000000 -1.815330E+01
32.000000 -30.000000 -9.176979E+00
32.000000 -32.000000 -6.903787E+00
32.000000 -34.000000 -7.639484E+00
32.000000 -36.000000 -1.685871E+01
32.000000 -38.000000 -2.845627E+01
32.000000 -40.000000 -4.326820E+01
34.000000 40.000000 -2.390972E+01
34.000000 38.000000 -4.715371E+01
34.000000 36.000000 -6.777798E+01
34.000000 34.000000 -7.805395E+01
34.000000 32.000000 -6.452558E+01
34.000000 30.000000 -4.775462E+01
34.000000 28.000000 -4.790608E+01
34.000000 26.000000 -6.427022E+01
34.000000 24.000000 -8.431869E+01
34.000000 22.000000 -7.621630E+01
34.000000 20.000000 -4.668945E+01
34.000000 18.000000 -2.472815E+00
34.000000 16.000000 3.417338E+01
34.000000 14.000000 5.408332E+01
34.000000 12.000000 5.639222E+01
34.000000 10.000000 5.370786E+01
34.000000 8.000000 5.148328E+01
34.000000 6.000000 5.111983E+01
34.000000 4.000000 4.700138E+01
34.000000 2.000000 4.246286E+01
34.000000 0.000000 4.021322E+01
34.000000 -2.000000 3.601915E+01
34.000000 -4.000000 2.407029E+01
34.000000 -6.000000 2.688454E+00
34.000000 -8.000000 -1.807211E+01
34.000000 -10.000000 -3.121214E+01
34.000000 -12.000000 -2.872373E+01
34.000000 -14.000000 -2.361214E+01
34.000000 -16.000000 -2.718812E+01
34.000000 -18.000000 -4.508648E+01
34.000000 -20.000000 -6.737259E+01
34.000000 -22.000000 -7.560363E+01
34.000000 -24.000000 -5.797448E+01
34.000000 -26.000000 -3.079785E+01
34.000000 -28.000000 -1.254157E+01
34.000000 -30.000000 -2.244498E+00
34.000000 -32.000000 3.891139E-01
34.000000 -34.000000 -1.832225E+00
34.000000 -36.000000 -1.385024E+01
34.000000 -38.000000 -2.751392E+01
34.000000 -40.000000 -4.396067E+01
36.000000 40.000000 -2.035024E+01
36.000000 38.000000 -4.747622E+01
36.000000 36.000000 -7.189168E+01
36.000000 34.000000 -8.708722E+01
36.000000 32.000000 -7.733717E+01
36.000000 30.000000 -6.165888E+01
36.000000 28.000000 -5.970054E+01
36.000000 26.000000 -7.093308E+01
36.000000 24.000000 -8.386246E+01
36.000000 22.000000 -7.433702E+01
36.000000 20.000000 -5.101408E+01
36.000000 18.000000 -1.380061E+01
36.000000 16.000000 2.308643E+01
36.000000 14.000000 5.065364E+01
36.000000 12.000000 6.531006E+01
36.000000 10.000000 7.306230E+01
36.000000 8.000000 7.048570E+01
36.000000 6.000000 6.207506E+01
36.000000 4.000000 4.710459E+01
36.000000 2.000000 3.680641E+01
36.000000 0.000000 3.420822E+01
36.000000 -2.000000 3.200718E+01
36.000000 -4.000000 2.379229E+01
36.000000 -6.000000 5.492065E+00
36.000000 -8.000000 -1.684453E+01
36.000000 -10.000000 -3.620122E+01
36.000000 -12.000000 -4.289639E+01
36.000000 -14.000000 -4.176432E+01
36.000000 -16.000000 -4.086661E+01
36.000000 -18.000000 -4.738995E+01
36.000000 -20.000000 -5.637333E+01
36.000000 -22.000000 -5.715923E+01
36.000000 -24.000000 -4.108843E+01
36.000000 -26.000000 -1.895655E+01
36.000000 -28.000000 -4.987861E+00
36.000000 -30.000000 3.134423E+00
36.000000 -32.000000 5.116239E+00
36.000000 -34.000000 1.938752E+00
36.000000 -36.000000 -1.256556E+01
36.000000 -38.000000 -2.883996E+01
36.000000 -40.000000 -4.672505E+01
38.000000 40.000000 -1.798126E+01
38.000000 38.000000 -4.689852E+01
38.000000 36.000000 -7.349646E+01
38.000000 34.000000 -8.892460E+01
38.000000 32.000000 -7.775583E+01
38.000000 30.000000 -5.982002E+01
38.000000 28.000000 -5.284054E+01
38.000000 26.000000 -5.652329E+01
38.000000 24.000000 -6.346793E+01
38.000000 22.000000 -6.058545E+01
38.000000 20.000000 -5.051472E+01
38.000000 18.000000 -2.730552E+01
38.000000 16.000000 4.526750E+00
38.000000 14.000000 3.602273E+01
38.000000 12.000000 6.060632E+01
38.000000 10.000000 7.640421E+01
38.000000 8.000000 7.444926E+01
38.000000 6.000000 6.045330E+01
38.000000 4.000000 3.618149E+01
38.000000 2.000000 2.083307E+01
38.000000 0.000000 1.820659E+01
38.000000 -2.000000 2.031376E+01
38.000000 -4.000000 1.764583E+01
38.000000 -6.000000 5.150120E+00
38.000000 -8.000000 -1.411424E+01
38.000000 -10.000000 -3.359854E+01
38.000000 -12.000000 -4.439101E+01
38.000000 -14.000000 -4.543678E+01
38.000000 -16.000000 -4.216539E+01
38.000000 -18.000000 -4.206936E+01
38.000000 -20.000000 -4.296197E+01
38.000000 -22.000000 -3.827413E+01
38.000000 -24.000000 -2.326790E+01
38.000000 -26.000000 -6.353895E+00
38.000000 -28.000000 2.018710E+00
38.000000 -30.000000 6.887731E+00
38.000000 -32.000000 7.548111E+00
38.000000 -34.000000 3.603720E+00
38.000000 -36.000000 -1.246357E+01
38.000000 -38.000000 -3.055958E+01
38.000000 -40.000000 -4.973822E+01
40.000000 40.000000 -1.710880E+01
40.000000 38.000000 -4.538377E+01
40.000000 36.000000 -7.185586E+01
40.000000 34.000000 -8.294063E+01
40.000000 32.000000 -6.502581E+01
40.000000 30.000000 -4.139128E+01
40.000000 28.000000 -2.845768E+01
40.000000 26.000000 -2.711225E+01
40.000000 24.000000 -3.273653E+01
40.000000 22.000000 -4.119063E+01
40.000000 20.000000 -4.594242E+01
40.000000 18.000000 -3.746095E+01
40.000000 16.000000 -1.276147E+01
40.000000 14.000000 1.780759E+01
40.000000 12.000000 4.613924E+01
40.000000 10.000000 6.587430E+01
40.000000 8.000000 6.457130E+01
40.000000 6.000000 4.727088E+01
40.000000 4.000000 1.916560E+01
40.000000 2.000000 2.215881E+00
40.000000 0.000000 6.079340E-01
40.000000 -2.000000 6.667314E+00
40.000000 -4.000000 9.147431E+00
40.000000 -6.000000 3.575489E+00
40.000000 -8.000000 -8.793789E+00
40.000000 -10.000000 -2.272563E+01
40.000000 -12.000000 -3.456469E+01
40.000000 -14.000000 -3.875987E+01
40.000000 -16.000000 -3.835614E+01
40.000000 -18.000000 -3.896849E+01
40.000000 -20.000000 -3.775801E+01
40.000000 -22.000000 -2.997092E+01
40.000000 -24.000000 -1.382792E+01
40.000000 -26.000000 7.700799E-01
40.000000 -28.000000 6.019478E+00
40.000000 -30.000000 8.420647E+00
40.000000 -32.000000 7.630959E+00
40.000000 -34.000000 3.018340E+00
40.000000 -36.000000 -1.308025E+01
40.000000 -38.000000 -3.092884E+01
40.000000 -40.000000 -5.073320E+01
42.000000 40.000000 -1.726132E+01
42.000000 38.000000 -4.267159E+01
42.000000 36.000000 -6.630030E+01
42.000000 34.000000 -7.085069E+01
42.000000 32.000000 -4.392092E+01
42.000000 30.000000 -1.190943E+01
42.000000 28.000000 6.449313E+00
42.000000 26.000000 7.195547E+00
42.000000 24.000000 -2.342045E+00
42.000000 22.000000 -2.015557E+01
42.000000 20.000000 -3.416816E+01
42.000000 18.000000 -3.620571E+01
42.000000 16.000000 -2.013954E+01
42.000000 14.000000 4.128578E+00
42.000000 12.000000 2.871033E+01
42.000000 10.000000 4.594591E+01
42.000000 8.000000 4.436792E+01
42.000000 6.000000 2.722291E+01
42.000000 4.000000 2.570520E+00
42.000000 2.000000 -1.150317E+01
42.000000 0.000000 -1.117285E+01
42.000000 -2.000000 -3.550124E+00
42.000000 -4.000000 1.508508E+00
42.000000 -6.000000 9.992530E-01
42.000000 -8.000000 -4.444175E+00
42.000000 -10.000000 -1.101859E+01
42.000000 -12.000000 -2.215912E+01
42.000000 -14.000000 -3.086027E+01
42.000000 -16.000000 -3.750137E+01
42.000000 -18.000000 -4.366050E+01
42.000000 -20.000000 -4.365967E+01
42.000000 -22.000000 -3.403640E+01
42.000000 -24.000000 -1.465604E+01
42.000000 -26.000000 1.834873E+00
42.000000 -28.000000 6.944061E+00
42.000000 -30.000000 7.367806E+00
42.000000 -32.000000 5.852621E+00
42.000000 -34.000000 1.132064E+00
42.000000 -36.000000 -1.394297E+01
42.000000 -38.000000 -3.015916E+01
42.000000 -40.000000 -4.968156E+01
44.000000 40.000000 -1.635510E+01
44.000000 38.000000 -3.782752E+01
44.000000 36.000000 -5.784199E+01
44.000000 34.000000 -5.696451E+01
44.000000 32.000000 -2.246961E+01
44.000000 30.000000 1.821648E+01
44.000000 28.000000 4.118058E+01
44.000000 26.000000 3.912198E+01
44.000000 24.000000 2.406052E+01
44.000000 22.000000 -4.034233E-02
44.000000 20.000000 -1.749290E+01
44.000000 18.000000 -2.335166E+01
44.000000 16.000000 -1.508629E+01
44.000000 14.000000 -3.196526E-01
44.000000 12.000000 1.549085E+01
44.000000 10.000000 2.545041E+01
44.000000 8.000000 2.272449E+01
44.000000 6.000000 8.901510E+00
44.000000 4.000000 -8.353282E+00
44.000000 2.000000 -1.716642E+01
44.000000 0.000000 -1.637048E+01
44.000000 -2.000000 -1.084621E+01
44.000000 -4.000000 -6.477134E+00
44.000000 -6.000000 -5.092922E+00
44.000000 -8.000000 -5.541244E+00
44.000000 -10.000000 -7.606734E+00
44.000000 -12.000000 -1.822336E+01
44.000000 -14.000000 -2.946931E+01
44.000000 -16.000000 -4.113800E+01
44.000000 -18.000000 -5.209103E+01
44.000000 -20.000000 -5.401596E+01
44.000000 -22.000000 -4.311110E+01
44.000000 -24.000000 -2.039374E+01
44.000000 -26.000000 -6.897678E-01
44.000000 -28.000000 5.030763E+00
44.000000 -30.000000 3.632999E+00
44.000000 -32.000000 1.759570E+00
44.000000 -34.000000 -2.213322E+00
44.000000 -36.000000 -1.501076E+01
44.000000 -38.000000 -2.909716E+01
44.000000 -40.000000 -4.752765E+01
46.000000 40.000000 -1.261453E+01
46.000000 38.000000 -3.071640E+01
46.000000 36.000000 -4.847654E+01
46.000000 34.000000 -4.529077E+01
46.000000 32.000000 -8.009971E+00
46.000000 30.000000 3.820333E+01
46.000000 28.000000 6.541884E+01
46.000000 26.000000 6.311766E+01
46.000000 24.000000 4.580743E+01
46.000000 22.000000 1.802208E+01
46.000000 20.000000 -7.871304E-01
46.000000 18.000000 -5.374010E+00
46.000000 16.000000 -3.837376E-01
46.000000 14.000000 6.560924E+00
46.000000 12.000000 1.316470E+01
46.000000 10.000000 1.443104E+01
46.000000 8.000000 8.310088E+00
46.000000 6.000000 -2.977595E+00
46.000000 4.000000 -1.315848E+01
46.000000 2.000000 -1.782402E+01
46.000000 0.000000 -1.913362E+01
46.000000 -2.000000 -1.858219E+01
46.000000 -4.000000 -1.716053E+01
46.000000 -6.000000 -1.592282E+01
46.000000 -8.000000 -1.385696E+01
46.000000 -10.000000 -1.458768E+01
46.000000 -12.000000 -2.412318E+01
46.000000 -14.000000 -3.478956E+01
46.000000 -16.000000 -4.657487E+01
46.000000 -18.000000 -5.719955E+01
46.000000 -20.000000 -5.898314E+01
46.000000 -22.000000 -4.774967E+01
46.000000 -24.000000 -2.512974E+01
46.000000 -26.000000 -5.718906E+00
46.000000 -28.000000 -3.313842E-01
46.000000 -30.000000 -2.841923E+00
46.000000 -32.000000 -5.978245E+00
46.000000 -34.000000 -8.456418E+00
46.000000 -36.000000 -1.697525E+01
46.000000 -38.000000 -2.866037E+01
46.000000 -40.000000 -4.463890E+01
