-14.000000 -4.000000 -1.022599E+01
-14.000000 -6.000000 -4.881556E+00
-14.000000 -8.000000 -6.236916E+00
-14.000000 -10.000000 -1.037582E+01
-14.000000 -12.000000 -9.903291E+00
-14.000000 -14.000000 -1.439323E+01
-14.000000 -16.000000 -2.478696E+01
-14.000000 -18.000000 -3.132300E+01
-14.000000 -20.000000 -3.067977E+01
-14.000000 -22.000000 -2.264179E+01
-14.000000 -24.000000 -9.503309E+00
-14.000000 -26.000000 9.142430E-01
-14.000000 -28.000000 2.769859E+00
-14.000000 -30.000000 3.246128E+00
-14.000000 -32.000000 6.813806E+00
-14.000000 -34.000000 1.695682E+01
-14.000000 -36.000000 2.815250E+01
-14.000000 -38.000000 3.222953E+01
-14.000000 -40.000000 3.699240E+01
-12.000000 40.000000 3.018342E+01
-12.000000 38.000000 4.015249E+01
-12.000000 36.000000 4.948207E+01
-12.000000 34.000000 5.836324E+01
-12.000000 32.000000 5.753574E+01
-12.000000 30.000000 4.213574E+01
-12.000000 28.000000 1.981360E+01
-12.000000 26.000000 8.743467E+00
-12.000000 24.000000 1.848003E+01
-12.000000 22.000000 2.637104E+01
-12.000000 20.000000 2.487733E+01
-12.000000 18.000000 1.144003E+01
-12.000000 16.000000 -9.069745E+00
-12.000000 14.000000 -2.962190E+01
-12.000000 12.000000 -4.108230E+01
-12.000000 10.000000 -4.248884E+01
-12.000000 8.000000 -3.482458E+01
-12.000000 6.000000 -2.113679E+01
-12.000000 4.000000 -1.036419E+01
-12.000000 2.000000 -1.112653E+01
-12.000000 0.000000 -1.287992E+01
-12.000000 -2.000000 -1.228301E+01
-12.000000 -4.000000 -8.654350E+00
-12.000000 -6.000000 -2.495117E+00
-12.000000 -8.000000 -2.662205E+00
-12.000000 -10.000000 -6.271215E+00
-12.000000 -12.000000 -5.781782E+00
-12.000000 -14.000000 -1.077202E+01
-12.000000 -16.000000 -2.032063E+01
-12.000000 -18.000000 -2.542015E+01
-12.000000 -20.000000 -2.345708E+01
-12.000000 -22.000000 -1.441717E+01
-12.000000 -24.000000 -9.852090E-01
-12.000000 -26.000000 7.091820E+00
-12.000000 -28.000000 6.496156E+00
-12.000000 -30.000000 4.173059E+00
-12.000000 -32.000000 4.850926E+00
-12.000000 -34.000000 1.421817E+01
-12.000000 -36.000000 2.420978E+01
-12.000000 -38.000000 2.898835E+01
-12.000000 -40.000000 3.546546E+01
-10.000000 40.000000 2.750952E+01
-10.000000 38.000000 3.598097E+01
-10.000000 36.000000 4.320336E+01
-10.000000 34.000000 4.690307E+01
-10.000000 32.000000 4.233486E+01
-10.000000 30.000000 2.474083E+01
-10.000000 28.000000 -6.259918E-03
-10.000000 26.000000 -1.032302E+01
-10.000000 24.000000 3.887116E+00
-10.000000 22.000000 2.280205E+01
-10.000000 20.000000 3.236406E+01
-10.000000 18.000000 2.725159E+01
-10.000000 16.000000 7.638167E+00
-10.000000 14.000000 -1.614336E+01
-10.000000 12.000000 -3.450279E+01
-10.000000 10.000000 -4.370152E+01
-10.000000 8.000000 -4.069909E+01
-10.000000 6.000000 -2.897901E+01
-10.000000 4.000000 -1.663249E+01
-10.000000 2.000000 -1.327004E+01
-10.000000 0.000000 -1.306557E+01
-10.000000 -2.000000 -1.102002E+01
-10.000000 -4.000000 -5.955551E+00
-10.000000 -6.000000 1.468239E+00
-10.000000 -8.000000 2.832268E+00
-10.000000 -10.000000 -6.041851E-01
-10.000000 -12.000000 -2.381439E+00
-10.000000 -14.000000 -6.428827E+00
-10.000000 -16.000000 -1.349972E+01
-10.000000 -18.000000 -1.521619E+01
-10.000000 -20.000000 -9.383390E+00
-10.000000 -22.000000 2.128130E+00
-10.000000 -24.000000 1.474549E+01
-10.000000 -26.000000 1.885291E+01
-10.000000 -28.000000 1.455971E+01
-10.000000 -30.000000 9.216465E+00
-10.000000 -32.000000 7.133929E+00
-10.000000 -34.000000 1.367407E+01
-10.000000 -36.000000 2.055230E+01
-10.000000 -38.000000 2.547673E+01
-10.000000 -40.000000 3.161650E+01
-8.000000 40.000000 2.668871E+01
-8.000000 38.000000 2.971777E+01
-8.000000 36.000000 3.158326E+01
-8.000000 34.000000 2.745857E+01
-8.000000 32.000000 1.846519E+01
-8.000000 30.000000 -3.101459E-01
-8.000000 28.000000 -2.550256E+01
-8.000000 26.000000 -3.439336E+01
-8.000000 24.000000 -1.799854E+01
-8.000000 22.000000 1.093099E+01
-8.000000 20.000000 3.046540E+01
-8.000000 18.000000 3.738368E+01
-8.000000 16.000000 2.792737E+01
-8.000000 14.000000 7.204293E+00
-8.000000 12.000000 -1.828353E+01
-8.000000 10.000000 -3.916325E+01
-8.000000 8.000000 -4.684943E+01
-8.000000 6.000000 -4.102816E+01
-8.000000 4.000000 -2.839297E+01
-8.000000 2.000000 -2.005588E+01
-8.000000 0.000000 -1.488845E+01
-8.000000 -2.000000 -1.016089E+01
-8.000000 -4.000000 -4.286770E+00
-8.000000 -6.000000 1.895437E+00
-8.000000 -8.000000 3.727541E+00
-8.000000 -10.000000 9.657745E-01
-8.000000 -12.000000 5.112219E-01
-8.000000 -14.000000 -5.241470E-01
-8.000000 -16.000000 -2.921349E+00
-8.000000 -18.000000 -8.481941E-01
-8.000000 -20.000000 8.263598E+00
-8.000000 -22.000000 2.222739E+01
-8.000000 -24.000000 3.328444E+01
-8.000000 -26.000000 3.355701E+01
-8.000000 -28.000000 2.362395E+01
-8.000000 -30.000000 1.476582E+01
-8.000000 -32.000000 1.159225E+01
-8.000000 -34.000000 1.629521E+01
-8.000000 -36.000000 1.964436E+01
-8.000000 -38.000000 2.246425E+01
-8.000000 -40.000000 2.651170E+01
-6.000000 40.000000 2.665200E+01
-6.000000 38.000000 2.114908E+01
-6.000000 36.000000 1.583234E+01
-6.000000 34.000000 5.001827E+00
-6.000000 32.000000 -7.517006E+00
-6.000000 30.000000 -2.432637E+01
-6.000000 28.000000 -4.390948E+01
-6.000000 26.000000 -4.930870E+01
-6.000000 24.000000 -3.437506E+01
-6.000000 22.000000 -3.924783E+00
-6.000000 20.000000 1.842953E+01
-6.000000 18.000000 3.462193E+01
-6.000000 16.000000 3.827667E+01
-6.000000 14.000000 2.663383E+01
-6.000000 12.000000 -1.536575E+00
-6.000000 10.000000 -3.314758E+01
-6.000000 8.000000 -5.062821E+01
-6.000000 6.000000 -4.985867E+01
-6.000000 4.000000 -3.688133E+01
-6.000000 2.000000 -2.527650E+01
-6.000000 0.000000 -1.493628E+01
-6.000000 -2.000000 -6.640420E+00
-6.000000 -4.000000 -8.184481E-01
-6.000000 -6.000000 3.524318E+00
-6.000000 -8.000000 3.779599E+00
-6.000000 -10.000000 1.003510E+00
-6.000000 -12.000000 3.443249E+00
-6.000000 -14.000000 5.433530E+00
-6.000000 -16.000000 5.741822E+00
-6.000000 -18.000000 9.142018E+00
-6.000000 -20.000000 2.016714E+01
-6.000000 -22.000000 3.612922E+01
-6.000000 -24.000000 4.614519E+01
-6.000000 -26.000000 4.365491E+01
-6.000000 -28.000000 2.897135E+01
-6.000000 -30.000000 1.712859E+01
-6.000000 -32.000000 1.425447E+01
-6.000000 -34.000000 2.032606E+01
-6.000000 -36.000000 2.262204E+01
-6.000000 -38.000000 2.260215E+01
-6.000000 -40.000000 2.384320E+01
-4.000000 40.000000 2.466833E+01
-4.000000 38.000000 1.194560E+01
-4.000000 36.000000 1.380167E+00
-4.000000 34.000000 -1.196821E+01
-4.000000 32.000000 -2.457099E+01
-4.000000 30.000000 -3.782225E+01
-4.000000 28.000000 -5.127863E+01
-4.000000 26.000000 -5.324939E+01
-4.000000 24.000000 -4.000179E+01
-4.000000 22.000000 -1.426359E+01
-4.000000 20.000000 4.847162E+00
-4.000000 18.000000 2.319890E+01
-4.000000 16.000000 3.472755E+01
-4.000000 14.000000 3.134385E+01
-4.000000 12.000000 5.992851E+00
-4.000000 10.000000 -2.898981E+01
-4.000000 8.000000 -4.901561E+01
-4.000000 6.000000 -4.976790E+01
-4.000000 4.000000 -3.775105E+01
-4.000000 2.000000 -2.772909E+01
-4.000000 0.000000 -1.665059E+01
-4.000000 -2.000000 -4.697165E+00
-4.000000 -4.000000 2.512655E+00
-4.000000 -6.000000 6.128673E+00
-4.000000 -8.000000 5.422679E+00
-4.000000 -10.000000 3.336508E+00
-4.000000 -12.000000 6.274641E+00
-4.000000 -14.000000 7.775941E+00
-4.000000 -16.000000 6.223251E+00
-4.000000 -18.000000 8.535318E+00
-4.000000 -20.000000 2.000070E+01
-4.000000 -22.000000 3.707396E+01
-4.000000 -24.000000 4.726758E+01
-4.000000 -26.000000 4.462758E+01
-4.000000 -28.000000 3.005632E+01
-4.000000 -30.000000 1.786777E+01
-4.000000 -32.000000 1.543029E+01
-4.000000 -34.000000 2.318577E+01
-4.000000 -36.000000 2.700961E+01
-4.000000 -38.000000 2.646438E+01
-4.000000 -40.000000 2.539913E+01
-2.000000 40.000000 1.839732E+01
-2.000000 38.000000 3.180504E+00
-2.000000 36.000000 -6.876021E+00
-2.000000 34.000000 -1.631214E+01
-2.000000 32.000000 -2.457314E+01
-2.000000 30.000000 -3.483340E+01
-2.000000 28.000000 -4.583700E+01
-2.000000 26.000000 -4.752575E+01
-2.000000 24.000000 -3.646821E+01
-2.000000 22.000000 -1.719257E+01
-2.000000 20.000000 -4.246822E+00
-2.000000 18.000000 8.990726E+00
-2.000000 16.000000 1.937756E+01
-2.000000 14.000000 1.757964E+01
-2.000000 12.000000 -4.772301E-01
-2.000000 10.000000 -2.687564E+01
-2.000000 8.000000 -4.046922E+01
-2.000000 6.000000 -3.918609E+01
-2.000000 4.000000 -2.938374E+01
-2.000000 2.000000 -2.326094E+01
-2.000000 0.000000 -1.557711E+01
-2.000000 -2.000000 -4.741548E+00
-2.000000 -4.000000 2.984090E+00
-2.000000 -6.000000 5.680892E+00
-2.000000 -8.000000 2.818820E+00
-2.000000 -10.000000 6.411371E-01
-2.000000 -12.000000 1.430051E+00
-2.000000 -14.000000 -9.253597E-02
-2.000000 -16.000000 -4.609605E+00
-2.000000 -18.000000 -3.465490E+00
-2.000000 -20.000000 8.901571E+00
-2.000000 -22.000000 2.747298E+01
-2.000000 -24.000000 3.889495E+01
-2.000000 -26.000000 3.796851E+01
-2.000000 -28.000000 2.727927E+01
-2.000000 -30.000000 1.834454E+01
-2.000000 -32.000000 1.729700E+01
-2.000000 -34.000000 2.583018E+01
-2.000000 -36.000000 3.177116E+01
-2.000000 -38.000000 3.201236E+01
-2.000000 -40.000000 2.961458E+01
0.000000 40.000000 1.016497E+01
0.000000 38.000000 -2.340388E+00
0.000000 36.000000 -7.489864E+00
0.000000 34.000000 -9.345570E+00
0.000000 32.000000 -1.272220E+01
0.000000 30.000000 -2.182377E+01
0.000000 28.000000 -3.275904E+01
0.000000 26.000000 -3.593703E+01
0.000000 24.000000 -2.654351E+01
0.000000 22.000000 -1.323073E+01
0.000000 20.000000 -6.868488E+00
0.000000 18.000000 -9.471998E-01
0.000000 16.000000 3.376559E+00
0.000000 14.000000 -1.146985E+00
0.000000 12.000000 -1.276389E+01
0.000000 10.000000 -2.561817E+01
0.000000 8.000000 -2.908374E+01
0.000000 6.000000 -2.370019E+01
0.000000 4.000000 -1.464949E+01
0.000000 2.000000 -1.162407E+01
0.000000 0.000000 -8.608930E+00
0.000000 -2.000000 -3.205780E+00
0.000000 -4.000000 7.381601E-01
0.000000 -6.000000 -7.374802E-01
0.000000 -8.000000 -7.410616E+00
0.000000 -10.000000 -1.280458E+01
0.000000 -12.000000 -1.409616E+01
0.000000 -14.000000 -1.766257E+01
0.000000 -16.000000 -2.388407E+01
0.000000 -18.000000 -2.221425E+01
0.000000 -20.000000 -7.368514E+00
0.000000 -22.000000 1.340597E+01
0.000000 -24.000000 2.556653E+01
0.000000 -26.000000 2.527405E+01
0.000000 -28.000000 1.910199E+01
0.000000 -30.000000 1.649387E+01
0.000000 -32.000000 1.949058E+01
0.000000 -34.000000 2.974671E+01
0.000000 -36.000000 3.806691E+01
0.000000 -38.000000 3.850501E+01
0.000000 -40.000000 3.503714E+01
2.000000 40.000000 4.545329E+00
2.000000 38.000000 -3.391725E+00
2.000000 36.000000 -4.463719E+00
2.000000 34.000000 4.132099E-01
2.000000 32.000000 1.255364E+00
2.000000 30.000000 -8.640761E+00
2.000000 28.000000 -2.050187E+01
2.000000 26.000000 -2.482714E+01
2.000000 24.000000 -1.462299E+01
2.000000 22.000000 -4.357234E+00
2.000000 20.000000 -2.556583E+00
2.000000 18.000000 -3.146008E+00
2.000000 16.000000 -5.224910E+00
2.000000 14.000000 -1.247899E+01
2.000000 12.000000 -1.979344E+01
2.000000 10.000000 -2.158154E+01
2.000000 8.000000 -1.758750E+01
2.000000 6.000000 -8.841230E+00
2.000000 4.000000 3.025665E-01
2.000000 2.000000 1.307230E+00
2.000000 0.000000 -1.241417E-01
2.000000 -2.000000 -1.734413E+00
2.000000 -4.000000 -4.902087E+00
2.000000 -6.000000 -1.172013E+01
2.000000 -8.000000 -2.079847E+01
2.000000 -10.000000 -2.976345E+01
2.000000 -12.000000 -3.217004E+01
2.000000 -14.000000 -3.713091E+01
2.000000 -16.000000 -4.386066E+01
2.000000 -18.000000 -4.108474E+01
2.000000 -20.000000 -2.390117E+01
2.000000 -22.000000 -1.733090E+00
2.000000 -24.000000 1.046750E+01
2.000000 -26.000000 1.103321E+01
2.000000 -28.000000 8.555225E+00
2.000000 -30.000000 1.249672E+01
2.000000 -32.000000 2.149782E+01
2.000000 -34.000000 3.505729E+01
2.000000 -36.000000 4.515408E+01
2.000000 -38.000000 4.469920E+01
2.000000 -40.000000 3.991954E+01
4.000000 40.000000 2.329697E+00
4.000000 38.000000 -2.708790E+00
4.000000 36.000000 -1.985981E+00
4.000000 34.000000 7.010576E+00
4.000000 32.000000 1.095824E+01
4.000000 30.000000 2.818670E-01
4.000000 28.000000 -1.276223E+01
4.000000 26.000000 -1.674689E+01
4.000000 24.000000 -4.217649E+00
4.000000 22.000000 5.035311E+00
4.000000 20.000000 3.869855E+00
4.000000 18.000000 -1.301872E+00
4.000000 16.000000 -6.552115E+00
4.000000 14.000000 -1.436315E+01
4.000000 12.000000 -1.920213E+01
4.000000 10.000000 -1.534567E+01
4.000000 8.000000 -9.349386E+00
4.000000 6.000000 -1.114048E+00
4.000000 4.000000 6.678007E+00
4.000000 2.000000 6.828291E+00
4.000000 0.000000 3.602598E+00
4.000000 -2.000000 -2.330105E+00
4.000000 -4.000000 -1.090149E+01
4.000000 -6.000000 -1.985370E+01
4.000000 -8.000000 -2.894419E+01
4.000000 -10.000000 -3.878127E+01
4.000000 -12.000000 -4.095221E+01
4.000000 -14.000000 -4.725868E+01
4.000000 -16.000000 -5.536528E+01
4.000000 -18.000000 -5.278612E+01
4.000000 -20.000000 -3.570218E+01
4.000000 -22.000000 -1.495361E+01
4.000000 -24.000000 -3.545656E+00
4.000000 -26.000000 -1.881818E+00
4.000000 -28.000000 -1.268938E+00
4.000000 -30.000000 7.843974E+00
4.000000 -32.000000 2.327616E+01
4.000000 -34.000000 4.090135E+01
4.000000 -36.000000 5.120313E+01
4.000000 -38.000000 4.912968E+01
4.000000 -40.000000 4.270353E+01
6.000000 40.000000 1.402026E+00
6.000000 38.000000 -2.366978E+00
6.000000 36.000000 -4.991379E-01
6.000000 34.000000 8.986705E+00
6.000000 32.000000 1.260270E+01
6.000000 30.000000 2.103927E+00
6.000000 28.000000 -1.038094E+01
6.000000 26.000000 -1.185996E+01
6.000000 24.000000 3.417418E+00
6.000000 22.000000 1.191459E+01
6.000000 20.000000 8.058412E+00
6.000000 18.000000 -3.954172E-01
6.000000 16.000000 -7.434897E+00
6.000000 14.000000 -1.526025E+01
6.000000 12.000000 -1.810562E+01
6.000000 10.000000 -1.227974E+01
6.000000 8.000000 -7.572666E+00
6.000000 6.000000 -3.049003E+00
6.000000 4.000000 -3.262939E-01
6.000000 2.000000 1.669712E-01
6.000000 0.000000 -5.310411E-01
6.000000 -2.000000 -5.639004E+00
6.000000 -4.000000 -1.401176E+01
6.000000 -6.000000 -2.054947E+01
6.000000 -8.000000 -2.634254E+01
6.000000 -10.000000 -3.217860E+01
6.000000 -12.000000 -3.308036E+01
6.000000 -14.000000 -4.018011E+01
6.000000 -16.000000 -5.114575E+01
6.000000 -18.000000 -5.104195E+01
6.000000 -20.000000 -3.756553E+01
6.000000 -22.000000 -2.158786E+01
6.000000 -24.000000 -1.294655E+01
6.000000 -26.000000 -1.180852E+01
6.000000 -28.000000 -7.955149E+00
6.000000 -30.000000 4.936578E+00
6.000000 -32.000000 2.412955E+01
6.000000 -34.000000 4.425691E+01
6.000000 -36.000000 5.463767E+01
6.000000 -38.000000 5.063327E+01
6.000000 -40.000000 4.219468E+01
8.000000 40.000000 4.400644E-01
8.000000 38.000000 -3.010780E+00
8.000000 36.000000 -5.441771E-01
8.000000 34.000000 6.242624E+00
8.000000 32.000000 7.152937E+00
8.000000 30.000000 -3.502507E+00
8.000000 28.000000 -1.454368E+01
8.000000 26.000000 -1.400721E+01
8.000000 24.000000 2.910164E+00
8.000000 22.000000 1.237372E+01
8.000000 20.000000 8.520695E+00
8.000000 18.000000 -2.798995E+00
8.000000 16.000000 -1.256424E+01
8.000000 14.000000 -2.073348E+01
8.000000 12.000000 -2.270905E+01
8.000000 10.000000 -1.741471E+01
8.000000 8.000000 -1.333349E+01
8.000000 6.000000 -1.210389E+01
8.000000 4.000000 -1.467633E+01
8.000000 2.000000 -1.415983E+01
8.000000 0.000000 -9.259864E+00
8.000000 -2.000000 -6.973731E+00
8.000000 -4.000000 -9.460990E+00
8.000000 -6.000000 -1.171769E+01
8.000000 -8.000000 -1.342690E+01
8.000000 -10.000000 -1.354357E+01
8.000000 -12.000000 -1.258336E+01
8.000000 -14.000000 -1.949210E+01
8.000000 -16.000000 -3.251332E+01
8.000000 -18.000000 -3.635635E+01
8.000000 -20.000000 -2.851649E+01
8.000000 -22.000000 -1.837821E+01
8.000000 -24.000000 -1.397294E+01
8.000000 -26.000000 -1.441373E+01
8.000000 -28.000000 -9.363108E+00
8.000000 -30.000000 4.198048E+00
8.000000 -32.000000 2.308699E+01
8.000000 -34.000000 4.320246E+01
8.000000 -36.000000 5.336844E+01
8.000000 -38.000000 4.753949E+01
8.000000 -40.000000 3.751428E+01
10.000000 40.000000 -1.070299E-01
10.000000 38.000000 -5.076687E+00
10.000000 36.000000 -3.941411E+00
10.000000 34.000000 -7.943690E-01
10.000000 32.000000 -1.692689E+00
10.000000 30.000000 -1.262376E+01
10.000000 28.000000 -2.402077E+01
10.000000 26.000000 -2.509373E+01
10.000000 24.000000 -1.011428E+01
10.000000 22.000000 1.223577E+00
10.000000 20.000000 8.531151E-01
10.000000 18.000000 -9.355723E+00
10.000000 16.000000 -2.118416E+01
10.000000 14.000000 -2.963816E+01
10.000000 12.000000 -3.251649E+01
10.000000 10.000000 -2.890782E+01
10.000000 8.000000 -2.386938E+01
10.000000 6.000000 -2.397752E+01
10.000000 4.000000 -2.817791E+01
10.000000 2.000000 -2.503219E+01
10.000000 0.000000 -1.178515E+01
10.000000 -2.000000 2.746199E+00
10.000000 -4.000000 9.351663E+00
10.000000 -6.000000 1.057993E+01
10.000000 -8.000000 8.828214E+00
10.000000 -10.000000 8.370617E+00
10.000000 -12.000000 8.308917E+00
10.000000 -14.000000 1.458406E+00
10.000000 -16.000000 -1.173386E+01
10.000000 -18.000000 -1.830320E+01
10.000000 -20.000000 -1.442405E+01
10.000000 -22.000000 -7.687793E+00
10.000000 -24.000000 -6.625733E+00
10.000000 -26.000000 -9.655673E+00
10.000000 -28.000000 -8.035987E+00
10.000000 -30.000000 2.286403E+00
10.000000 -32.000000 1.879718E+01
10.000000 -34.000000 3.832233E+01
10.000000 -36.000000 4.711084E+01
10.000000 -38.000000 4.006758E+01
10.000000 -40.000000 2.989904E+01
12.000000 40.000000 -1.385994E-01
12.000000 38.000000 -7.816826E+00
12.000000 36.000000 -9.481600E+00
12.000000 34.000000 -9.256808E+00
12.000000 32.000000 -1.085452E+01
12.000000 30.000000 -2.240844E+01
12.000000 28.000000 -3.655107E+01
12.000000 26.000000 -4.186203E+01
12.000000 24.000000 -3.187332E+01
12.000000 22.000000 -1.933720E+01
12.000000 20.000000 -1.649608E+01
12.000000 18.000000 -2.200118E+01
12.000000 16.000000 -3.108078E+01
12.000000 14.000000 -3.765623E+01
12.000000 12.000000 -4.040500E+01
12.000000 10.000000 -3.825622E+01
12.000000 8.000000 -3.239532E+01
12.000000 6.000000 -3.054612E+01
12.000000 4.000000 -3.275030E+01
12.000000 2.000000 -2.465091E+01
12.000000 0.000000 -3.621118E+00
12.000000 -2.000000 2.157222E+01
12.000000 -4.000000 3.680520E+01
12.000000 -6.000000 4.014912E+01
12.000000 -8.000000 3.388389E+01
12.000000 -10.000000 2.630232E+01
12.000000 -12.000000 2.050818E+01
12.000000 -14.000000 1.247202E+01
12.000000 -16.000000 9.556880E-01
12.000000 -18.000000 -4.847320E+00
12.000000 -20.000000 -1.076891E+00
12.000000 -22.000000 4.659296E+00
12.000000 -24.000000 3.142494E+00
12.000000 -26.000000 -3.655726E+00
12.000000 -28.000000 -7.766605E+00
12.000000 -30.000000 -2.509830E+00
12.000000 -32.000000 1.085883E+01
12.000000 -34.000000 2.941760E+01
12.000000 -36.000000 3.714627E+01
12.000000 -38.000000 3.034157E+01
12.000000 -40.000000 2.113154E+01
14.000000 40.000000 -1.767472E+00
14.000000 38.000000 -1.078831E+01
14.000000 36.000000 -1.387209E+01
14.000000 34.000000 -1.443139E+01
14.000000 32.000000 -1.614546E+01
14.000000 30.000000 -2.927075E+01
14.000000 28.000000 -4.752387E+01
14.000000 26.000000 -5.637532E+01
14.000000 24.000000 -5.099653E+01
14.000000 22.000000 -3.844650E+01
14.000000 20.000000 -3.564209E+01
14.000000 18.000000 -3.890003E+01
14.000000 16.000000 -4.336145E+01
14.000000 14.000000 -4.601998E+01
14.000000 12.000000 -4.770016E+01
14.000000 10.000000 -4.507323E+01
14.000000 8.000000 -3.612008E+01
14.000000 6.000000 -2.695787E+01
14.000000 4.000000 -2.127895E+01
14.000000 2.000000 -8.938166E+00
14.000000 0.000000 1.304251E+01
14.000000 -2.000000 3.991041E+01
14.000000 -4.000000 5.792064E+01
14.000000 -6.000000 6.174776E+01
14.000000 -8.000000 5.043903E+01
14.000000 -10.000000 3.498585E+01
14.000000 -12.000000 2.301192E+01
14.000000 -14.000000 1.309789E+01
14.000000 -16.000000 3.915598E+00
14.000000 -18.000000 1.326934E+00
14.000000 -20.000000 7.047027E+00
14.000000 -22.000000 1.243135E+01
14.000000 -24.000000 9.030078E+00
14.000000 -26.000000 -1.235544E+00
14.000000 -28.000000 -1.009546E+01
14.000000 -30.000000 -9.157900E+00
14.000000 -32.000000 9.754219E-01
14.000000 -34.000000 1.679483E+01
14.000000 -36.000000 2.369802E+01
14.000000 -38.000000 1.895736E+01
14.000000 -40.000000 1.205963E+01
16.000000 40.000000 -7.319907E+00
16.000000 38.000000 -1.482225E+01
16.000000 36.000000 -1.624979E+01
16.000000 34.000000 -1.482301E+01
16.000000 32.000000 -1.538830E+01
16.000000 30.000000 -2.896963E+01
16.000000 28.000000 -4.888546E+01
16.000000 26.000000 -5.817466E+01
16.000000 24.000000 -5.394571E+01
16.000000 22.000000 -4.274881E+01
16.000000 20.000000 -4.270245E+01
16.000000 18.000000 -5.080534E+01
16.000000 16.000000 -5.675628E+01
16.000000 14.000000 -5.798146E+01
16.000000 12.000000 -5.915871E+01
16.000000 10.000000 -5.583331E+01
16.000000 8.000000 -4.179790E+01
16.000000 6.000000 -2.091330E+01
16.000000 4.000000 -1.497397E+00
16.000000 2.000000 1.473556E+01
16.000000 0.000000 3.382885E+01
16.000000 -2.000000 5.508930E+01
16.000000 -4.000000 6.802610E+01
16.000000 -6.000000 6.819515E+01
16.000000 -8.000000 5.301042E+01
16.000000 -10.000000 3.215780E+01
16.000000 -12.000000 1.483464E+01
16.000000 -14.000000 2.203247E+00
16.000000 -16.000000 -4.567123E+00
16.000000 -18.000000 -3.017113E+00
16.000000 -20.000000 4.884217E+00
16.000000 -22.000000 1.199871E+01
16.000000 -24.000000 8.969382E+00
16.000000 -26.000000 -3.785614E+00
16.000000 -28.000000 -1.563623E+01
16.000000 -30.000000 -1.647217E+01
16.000000 -32.000000 -8.544647E+00
16.000000 -34.000000 3.165357E+00
16.000000 -36.000000 7.879099E+00
16.000000 -38.000000 6.028106E+00
16.000000 -40.000000 3.987616E+00
18.000000 40.000000 -1.611433E+01
18.000000 38.000000 -1.970298E+01
18.000000 36.000000 -1.726013E+01
18.000000 34.000000 -1.209044E+01
18.000000 32.000000 -1.109094E+01
18.000000 30.000000 -2.278241E+01
18.000000 28.000000 -3.899722E+01
18.000000 26.000000 -4.549755E+01
18.000000 24.000000 -3.797070E+01
18.000000 22.000000 -2.756758E+01
18.000000 20.000000 -2.925421E+01
18.000000 18.000000 -4.389602E+01
18.000000 16.000000 -5.946387E+01
18.000000 14.000000 -7.044215E+01
18.000000 12.000000 -7.652261E+01
18.000000 10.000000 -7.455246E+01
18.000000 8.000000 -5.460941E+01
18.000000 6.000000 -2.286017E+01
18.000000 4.000000 1.036186E+01
18.000000 2.000000 3.278441E+01
18.000000 0.000000 5.127486E+01
18.000000 -2.000000 6.559787E+01
18.000000 -4.000000 6.990349E+01
18.000000 -6.000000 6.229110E+01
18.000000 -8.000000 4.272272E+01
18.000000 -10.000000 1.761984E+01
18.000000 -12.000000 -5.059785E+00
18.000000 -14.000000 -2.026275E+01
18.000000 -16.000000 -2.478886E+01
18.000000 -18.000000 -1.829357E+01
18.000000 -20.000000 -7.845566E+00
18.000000 -22.000000 1.684582E+00
18.000000 -24.000000 9.941392E-01
18.000000 -26.000000 -1.122972E+01
18.000000 -28.000000 -2.269061E+01
18.000000 -30.000000 -2.246690E+01
18.000000 -32.000000 -1.532866E+01
18.000000 -34.000000 -7.715146E+00
18.000000 -36.000000 -5.943975E+00
18.000000 -38.000000 -5.458427E+00
18.000000 -40.000000 -2.745802E+00
20.000000 40.000000 -2.575438E+01
20.000000 38.000000 -2.436304E+01
20.000000 36.000000 -1.745552E+01
20.000000 34.000000 -8.389819E+00
20.000000 32.000000 -6.241737E+00
20.000000 30.000000 -1.527163E+01
20.000000 28.000000 -2.669119E+01
20.000000 26.000000 -2.876388E+01
20.000000 24.000000 -1.430498E+01
20.000000 22.000000 -1.723260E+00
20.000000 20.000000 -2.389687E+00
20.000000 18.000000 -2.146826E+01
20.000000 16.000000 -4.860525E+01
20.000000 14.000000 -7.415970E+01
20.000000 12.000000 -8.910493E+01
20.000000 10.000000 -9.087802E+01
20.000000 8.000000 -6.822317E+01
20.000000 6.000000 -3.245477E+01
20.000000 4.000000 7.824379E+00
20.000000 2.000000 3.590155E+01
20.000000 0.000000 5.463887E+01
20.000000 -2.000000 6.399083E+01
20.000000 -4.000000 6.210940E+01
20.000000 -6.000000 4.774255E+01
20.000000 -8.000000 2.390773E+01
20.000000 -10.000000 -5.276143E+00
20.000000 -12.000000 -3.154470E+01
20.000000 -14.000000 -4.770216E+01
20.000000 -16.000000 -5.032498E+01
20.000000 -18.000000 -4.018491E+01
20.000000 -20.000000 -2.673668E+01
20.000000 -22.000000 -1.569136E+01
20.000000 -24.000000 -1.310101E+01
20.000000 -26.000000 -1.914200E+01
20.000000 -28.000000 -2.476529E+01
20.000000 -30.000000 -2.326972E+01
20.000000 -32.000000 -1.801202E+01
20.000000 -34.000000 -1.462423E+01
20.000000 -36.000000 -1.518160E+01
20.000000 -38.000000 -1.404951E+01
20.000000 -40.000000 -1.010295E+01
22.000000 40.000000 -3.472580E+01
22.000000 38.000000 -2.890444E+01
22.000000 36.000000 -1.832361E+01
22.000000 34.000000 -6.173207E+00
22.000000 32.000000 -3.047856E+00
22.000000 30.000000 -1.057484E+01
22.000000 28.000000 -1.914418E+01
22.000000 26.000000 -1.826803E+01
22.000000 24.000000 1.760388E+00
22.000000 22.000000 1.827199E+01
22.000000 20.000000 2.098920E+01
22.000000 18.000000 1.747622E+00
22.000000 16.000000 -3.158691E+01
22.000000 14.000000 -6.660058E+01
22.000000 12.000000 -8.816236E+01
22.000000 10.000000 -9.280678E+01
22.000000 8.000000 -7.227381E+01
22.000000 6.000000 -3.949467E+01
22.000000 4.000000 -1.082868E+00
22.000000 2.000000 2.588807E+01
22.000000 0.000000 4.284825E+01
22.000000 -2.000000 5.103955E+01
22.000000 -4.000000 4.776290E+01
22.000000 -6.000000 3.070934E+01
22.000000 -8.000000 3.138323E+00
22.000000 -10.000000 -3.054350E+01
22.000000 -12.000000 -5.973698E+01
22.000000 -14.000000 -7.763181E+01
22.000000 -16.000000 -7.880740E+01
22.000000 -18.000000 -6.507742E+01
22.000000 -20.000000 -4.670734E+01
22.000000 -22.000000 -3.144667E+01
22.000000 -24.000000 -2.332768E+01
22.000000 -26.000000 -2.109416E+01
22.000000 -28.000000 -2.006970E+01
22.000000 -30.000000 -1.832436E+01
22.000000 -32.000000 -1.655418E+01
22.000000 -34.000000 -1.795391E+01
22.000000 -36.000000 -2.080767E+01
22.000000 -38.000000 -2.141393E+01
22.000000 -40.000000 -1.884436E+01
24.000000 40.000000 -4.202953E+01
24.000000 38.000000 -3.382651E+01
24.000000 36.000000 -2.152045E+01
24.000000 34.000000 -8.412999E+00
24.000000 32.000000 -5.106639E+00
24.000000 30.000000 -1.224888E+01
24.000000 28.000000 -2.004627E+01
24.000000 26.000000 -1.942075E+01
24.000000 24.000000 8.575649E-01
24.000000 22.000000 2.067252E+01
24.000000 20.000000 2.748737E+01
24.000000 18.000000 1.398761E+01
24.000000 16.000000 -1.528653E+01
24.000000 14.000000 -4.938177E+01
24.000000 12.000000 -7.195493E+01
24.000000 10.000000 -7.795218E+01
24.000000 8.000000 -6.356501E+01
24.000000 6.000000 -3.968438E+01
24.000000 4.000000 -1.063971E+01
24.000000 2.000000 1.091287E+01
24.000000 0.000000 2.722089E+01
24.000000 -2.000000 3.860847E+01
24.000000 -4.000000 3.803591E+01
24.000000 -6.000000 1.925331E+01
24.000000 -8.000000 -1.382150E+01
24.000000 -10.000000 -5.402843E+01
24.000000 -12.000000 -8.848640E+01
24.000000 -14.000000 -1.086673E+02
24.000000 -16.000000 -1.074922E+02
24.000000 -18.000000 -8.788583E+01
24.000000 -20.000000 -6.170825E+01
24.000000 -22.000000 -3.864744E+01
24.000000 -24.000000 -2.326933E+01
24.000000 -26.000000 -1.534645E+01
24.000000 -28.000000 -1.186984E+01
24.000000 -30.000000 -1.068810E+01
24.000000 -32.000000 -1.255197E+01
24.000000 -34.000000 -1.921988E+01
24.000000 -36.000000 -2.512391E+01
24.000000 -38.000000 -2.845198E+01
24.000000 -40.000000 -2.733329E+01
26.000000 40.000000 -4.769630E+01
26.000000 38.000000 -3.875272E+01
26.000000 36.000000 -2.731636E+01
26.000000 34.000000 -1.626112E+01
26.000000 32.000000 -1.489757E+01
26.000000 30.000000 -2.271621E+01
26.000000 28.000000 -3.193040E+01
26.000000 26.000000 -3.301438E+01
26.000000 24.000000 -1.545596E+01
26.000000 22.000000 5.315528E+00
26.000000 20.000000 1.479839E+01
26.000000 18.000000 1.102578E+01
26.000000 16.000000 -5.387469E+00
26.000000 14.000000 -2.804524E+01
26.000000 12.000000 -4.506097E+01
26.000000 10.000000 -5.143764E+01
26.000000 8.000000 -4.472014E+01
26.000000 6.000000 -3.160012E+01
26.000000 4.000000 -1.605528E+01
26.000000 2.000000 -2.464443E+00
26.000000 0.000000 1.354713E+01
26.000000 -2.000000 3.090354E+01
26.000000 -4.000000 3.677225E+01
26.000000 -6.000000 1.652072E+01
26.000000 -8.000000 -2.297593E+01
26.000000 -10.000000 -7.048813E+01
26.000000 -12.000000 -1.106726E+02
26.000000 -14.000000 -1.332264E+02
26.000000 -16.000000 -1.296663E+02
26.000000 -18.000000 -1.029546E+02
26.000000 -20.000000 -6.819921E+01
26.000000 -22.000000 -3.716744E+01
26.000000 -24.000000 -1.498875E+01
26.000000 -26.000000 -4.146816E+00
26.000000 -28.000000 -1.392922E+00
26.000000 -30.000000 -2.108557E+00
26.000000 -32.000000 -8.362522E+00
26.000000 -34.000000 -2.099599E+01
26.000000 -36.000000 -3.098799E+01
26.000000 -38.000000 -3.513939E+01
26.000000 -40.000000 -3.402121E+01
28.000000 40.000000 -5.259898E+01
28.000000 38.000000 -4.486232E+01
28.000000 36.000000 -3.589930E+01
28.000000 34.000000 -2.853859E+01
28.000000 32.000000 -3.018957E+01
28.000000 30.000000 -3.961773E+01
28.000000 28.000000 -5.130493E+01
28.000000 26.000000 -5.352932E+01
28.000000 24.000000 -3.778655E+01
28.000000 22.000000 -1.834078E+01
28.000000 20.000000 -9.313077E+00
28.000000 18.000000 -4.690815E+00
28.000000 16.000000 -6.848454E+00
28.000000 14.000000 -1.419736E+01
28.000000 12.000000 -2.061291E+01
28.000000 10.000000 -2.282629E+01
28.000000 8.000000 -2.059855E+01
28.000000 6.000000 -1.644819E+01
28.000000 4.000000 -1.498814E+01
28.000000 2.000000 -1.212519E+01
28.000000 0.000000 1.910370E+00
28.000000 -2.000000 2.556335E+01
28.000000 -4.000000 4.088958E+01
28.000000 -6.000000 2.417185E+01
28.000000 -8.000000 -2.175543E+01
28.000000 -10.000000 -7.809027E+01
28.000000 -12.000000 -1.221106E+02
28.000000 -14.000000 -1.444617E+02
28.000000 -16.000000 -1.373598E+02
28.000000 -18.000000 -1.052080E+02
28.000000 -20.000000 -6.566279E+01
28.000000 -22.000000 -3.120304E+01
28.000000 -24.000000 -4.697240E+00
28.000000 -26.000000 8.851802E+00
28.000000 -28.000000 1.041682E+01
28.000000 -30.000000 6.586169E+00
28.000000 -32.000000 -5.269331E+00
28.000000 -34.000000 -2.384033E+01
28.000000 -36.000000 -3.777278E+01
28.000000 -38.000000 -4.116718E+01
28.000000 -40.000000 -3.912494E+01
30.000000 40.000000 -5.887268E+01
30.000000 38.000000 -5.353219E+01
30.000000 36.000000 -4.603540E+01
30.000000 34.000000 -4.127751E+01
30.000000 32.000000 -4.558501E+01
30.000000 30.000000 -5.730741E+01
30.000000 28.000000 -7.105792E+01
30.000000 26.000000 -7.337918E+01
30.000000 24.000000 -5.774523E+01
30.000000 22.000000 -4.023757E+01
30.000000 20.000000 -3.411014E+01
30.000000 18.000000 -2.600476E+01
30.000000 16.000000 -1.759498E+01
30.000000 14.000000 -1.221201E+01
30.000000 12.000000 -6.882072E+00
30.000000 10.000000 9.207573E-01
30.000000 8.000000 4.050980E+00
30.000000 6.000000 2.273638E+00
30.000000 4.000000 -9.399876E+00
30.000000 2.000000 -1.870481E+01
30.000000 0.000000 -9.166672E+00
30.000000 -2.000000 1.875361E+01
30.000000 -4.000000 4.372668E+01
30.000000 -6.000000 3.409736E+01
30.000000 -8.000000 -1.660863E+01
30.000000 -10.000000 -7.937082E+01
30.000000 -12.000000 -1.222389E+02
30.000000 -14.000000 -1.392363E+02
30.000000 -16.000000 -1.270250E+02
30.000000 -18.000000 -9.354025E+01
30.000000 -20.000000 -5.636829E+01
30.000000 -22.000000 -2.445728E+01
30.000000 -24.000000 3.830629E+00
30.000000 -26.000000 2.113460E+01
30.000000 -28.000000 2.228184E+01
30.000000 -30.000000 1.368336E+01
30.000000 -32.000000 -4.706896E+00
30.000000 -34.000000 -2.747017E+01
30.000000 -36.000000 -4.258496E+01
30.000000 -38.000000 -4.565001E+01
30.000000 -40.000000 -4.309921E+01
32.000000 40.000000 -6.685487E+01
32.000000 38.000000 -6.357060E+01
32.000000 36.000000 -5.602786E+01
32.000000 34.000000 -5.197388E+01
32.000000 32.000000 -5.770762E+01
32.000000 30.000000 -7.113396E+01
32.000000 28.000000 -8.558875E+01
32.000000 26.000000 -8.668551E+01
32.000000 24.000000 -7.003451E+01
32.000000 22.000000 -5.322082E+01
32.000000 20.000000 -4.934316E+01
32.000000 18.000000 -4.228781E+01
32.000000 16.000000 -2.934048E+01
32.000000 14.000000 -1.691039E+01
32.000000 12.000000 -2.342552E+00
32.000000 10.000000 1.635357E+01
32.000000 8.000000 2.410111E+01
32.000000 6.000000 2.059846E+01
32.000000 4.000000 -9.414101E-01
32.000000 2.000000 -2.170027E+01
32.000000 0.000000 -2.060343E+01
32.000000 -2.000000 5.970691E+00
32.000000 -4.000000 3.616266E+01
32.000000 -6.000000 3.405314E+01
32.000000 -8.000000 -1.504669E+01
32.000000 -10.000000 -7.698882E+01
32.000000 -12.000000 -1.134473E+02
32.000000 -14.000000 -1.211022E+02
32.000000 -16.000000 -1.025330E+02
32.000000 -18.000000 -7.121275E+01
32.000000 -20.000000 -4.273106E+01
32.000000 -22.000000 -1.729817E+01
32.000000 -24.000000 1.102920E+01
32.000000 -26.000000 3.103051E+01
32.000000 -28.000000 3.078749E+01
32.000000 -30.000000 1.549913E+01
32.000000 -32.000000 -8.504786E+00
32.000000 -34.000000 -3.201734E+01
32.000000 -36.000000 -4.507867E+01
32.000000 -38.000000 -4.758156E+01
32.000000 -40.000000 -4.463869E+01
34.000000 40.000000 -7.473573E+01
34.000000 38.000000 -7.280744E+01
34.000000 36.000000 -6.481206E+01
34.000000 34.000000 -5.935669E+01
34.000000 32.000000 -6.347054E+01
34.000000 30.000000 -7.659473E+01
34.000000 28.000000 -9.039114E+01
34.000000 26.000000 -8.931302E+01
34.000000 24.000000 -7.124734E+01
34.000000 22.000000 -5.377379E+01
34.000000 20.000000 -4.975418E+01
34.000000 18.000000 -4.652632E+01
34.000000 16.000000 -3.749405E+01
34.000000 14.000000 -2.719561E+01
34.000000 12.000000 -1.100656E+01
34.000000 10.000000 1.425017E+01
34.000000 8.000000 3.021778E+01
34.000000 6.000000 3.198690E+01
34.000000 4.000000 1.005888E+01
34.000000 2.000000 -1.635029E+01
34.000000 0.000000 -2.404023E+01
34.000000 -2.000000 -5.119698E+00
34.000000 -4.000000 2.209678E+01
34.000000 -6.000000 2.403821E+01
34.000000 -8.000000 -1.700186E+01
34.000000 -10.000000 -7.170308E+01
34.000000 -12.000000 -1.005227E+02
34.000000 -14.000000 -9.971228E+01
34.000000 -16.000000 -7.680997E+01
34.000000 -18.000000 -4.915740E+01
34.000000 -20.000000 -2.886720E+01
34.000000 -22.000000 -8.918694E+00
34.000000 -24.000000 1.730263E+01
34.000000 -26.000000 3.619156E+01
34.000000 -28.000000 3.201711E+01
34.000000 -30.000000 1.066500E+01
34.000000 -32.000000 -1.596680E+01
34.000000 -34.000000 -3.650951E+01
34.000000 -36.000000 -4.542926E+01
34.000000 -38.000000 -4.636750E+01
34.000000 -40.000000 -4.297097E+01
36.000000 40.000000 -8.128620E+01
36.000000 38.000000 -8.004336E+01
36.000000 36.000000 -7.041985E+01
36.000000 34.000000 -6.051327E+01
36.000000 32.000000 -6.005573E+01
36.000000 30.000000 -7.076870E+01
36.000000 28.000000 -8.386977E+01
36.000000 26.000000 -8.152228E+01
36.000000 24.000000 -6.165019E+01
36.000000 22.000000 -4.334179E+01
36.000000 20.000000 -3.781947E+01
36.000000 18.000000 -3.972871E+01
36.000000 16.000000 -4.242657E+01
36.000000 14.000000 -4.302613E+01
36.000000 12.000000 -3.285786E+01
36.000000 10.000000 -8.139341E+00
36.000000 8.000000 1.739894E+01
36.000000 6.000000 3.139338E+01
36.000000 4.000000 2.031905E+01
36.000000 2.000000 -2.808808E+00
36.000000 0.000000 -1.517618E+01
36.000000 -2.000000 -7.606822E+00
36.000000 -4.000000 8.579603E+00
36.000000 -6.000000 1.051935E+01
36.000000 -8.000000 -1.958167E+01
36.000000 -10.000000 -6.250819E+01
36.000000 -12.000000 -8.459629E+01
36.000000 -14.000000 -8.074049E+01
36.000000 -16.000000 -5.851008E+01
36.000000 -18.000000 -3.470705E+01
36.000000 -20.000000 -1.817381E+01
36.000000 -22.000000 -8.955489E-01
36.000000 -24.000000 2.050900E+01
36.000000 -26.000000 3.386944E+01
36.000000 -28.000000 2.525429E+01
36.000000 -30.000000 8.594893E-01
36.000000 -32.000000 -2.578390E+01
36.000000 -34.000000 -4.141963E+01
36.000000 -36.000000 -4.416074E+01
36.000000 -38.000000 -4.203777E+01
36.000000 -40.000000 -3.876570E+01
38.000000 40.000000 -8.533920E+01
38.000000 38.000000 -8.343104E+01
38.000000 36.000000 -7.081116E+01
38.000000 34.000000 -5.367967E+01
38.000000 32.000000 -4.712421E+01
38.000000 30.000000 -5.463898E+01
38.000000 28.000000 -6.752687E+01
38.000000 26.000000 -6.677582E+01
38.000000 24.000000 -4.642710E+01
38.000000 22.000000 -2.813952E+01
38.000000 20.000000 -2.208004E+01
38.000000 18.000000 -2.979402E+01
38.000000 16.000000 -4.664186E+01
38.000000 14.000000 -6.206904E+01
38.000000 12.000000 -6.266763E+01
38.000000 10.000000 -4.397394E+01
38.000000 8.000000 -8.854515E+00
38.000000 6.000000 2.194421E+01
38.000000 4.000000 3.126294E+01
38.000000 2.000000 1.849778E+01
38.000000 0.000000 5.090466E+00
38.000000 -2.000000 1.846524E+00
38.000000 -4.000000 3.998100E+00
38.000000 -6.000000 9.812222E-01
38.000000 -8.000000 -2.089260E+01
38.000000 -10.000000 -5.191147E+01
38.000000 -12.000000 -6.968595E+01
38.000000 -14.000000 -6.922871E+01
38.000000 -16.000000 -5.260304E+01
38.000000 -18.000000 -3.152866E+01
38.000000 -20.000000 -1.399038E+01
38.000000 -22.000000 2.661063E+00
38.000000 -24.000000 1.839097E+01
38.000000 -26.000000 2.334620E+01
38.000000 -28.000000 1.082735E+01
38.000000 -30.000000 -1.270153E+01
38.000000 -32.000000 -3.665827E+01
38.000000 -34.000000 -4.640476E+01
38.000000 -36.000000 -4.199776E+01
38.000000 -38.000000 -3.596977E+01
38.000000 -40.000000 -3.268417E+01
40.000000 40.000000 -8.708272E+01
40.000000 38.000000 -8.200084E+01
40.000000 36.000000 -6.500871E+01
40.000000 34.000000 -4.019760E+01
40.000000 32.000000 -2.640431E+01
40.000000 30.000000 -3.030054E+01
40.000000 28.000000 -4.354300E+01
40.000000 26.000000 -4.695464E+01
40.000000 24.000000 -3.114804E+01
40.000000 22.000000 -1.662943E+01
40.000000 20.000000 -1.285183E+01
40.000000 18.000000 -2.462061E+01
40.000000 16.000000 -4.890031E+01
40.000000 14.000000 -7.440497E+01
40.000000 12.000000 -8.594409E+01
40.000000 10.000000 -7.542410E+01
40.000000 8.000000 -3.443678E+01
40.000000 6.000000 1.049829E+01
40.000000 4.000000 4.027222E+01
40.000000 2.000000 3.888890E+01
40.000000 0.000000 2.578557E+01
40.000000 -2.000000 1.403608E+01
40.000000 -4.000000 6.637756E+00
40.000000 -6.000000 -8.603115E-01
40.000000 -8.000000 -1.817848E+01
40.000000 -10.000000 -4.115340E+01
40.000000 -12.000000 -5.906457E+01
40.000000 -14.000000 -6.614952E+01
40.000000 -16.000000 -5.966753E+01
40.000000 -18.000000 -4.218083E+01
40.000000 -20.000000 -2.060396E+01
40.000000 -22.000000 -1.973299E+00
40.000000 -24.000000 9.238867E+00
40.000000 -26.000000 6.578078E+00
40.000000 -28.000000 -8.704012E+00
40.000000 -30.000000 -2.925128E+01
40.000000 -32.000000 -4.723991E+01
40.000000 -34.000000 -4.910860E+01
40.000000 -36.000000 -3.838765E+01
40.000000 -38.000000 -3.006234E+01
40.000000 -40.000000 -2.592756E+01
42.000000 40.000000 -8.766088E+01
42.000000 38.000000 -7.710519E+01
42.000000 36.000000 -5.465923E+01
42.000000 34.000000 -2.368298E+01
42.000000 32.000000 -2.994115E+00
42.000000 30.000000 -3.433505E+00
42.000000 28.000000 -1.760742E+01
42.000000 26.000000 -2.603255E+01
42.000000 24.000000 -1.865897E+01
42.000000 22.000000 -1.112237E+01
42.000000 20.000000 -1.107289E+01
42.000000 18.000000 -2.196504E+01
42.000000 16.000000 -4.294911E+01
42.000000 14.000000 -6.871355E+01
42.000000 12.000000 -8.491183E+01
42.000000 10.000000 -8.044651E+01
42.000000 8.000000 -4.261144E+01
42.000000 6.000000 3.851155E+00
42.000000 4.000000 4.137217E+01
42.000000 2.000000 4.532418E+01
42.000000 0.000000 3.092365E+01
42.000000 -2.000000 1.382561E+01
42.000000 -4.000000 2.629963E+00
42.000000 -6.000000 -4.703704E+00
42.000000 -8.000000 -1.739657E+01
42.000000 -10.000000 -3.420829E+01
42.000000 -12.000000 -5.307386E+01
42.000000 -14.000000 -6.746093E+01
42.000000 -16.000000 -7.243723E+01
42.000000 -18.000000 -6.070062E+01
42.000000 -20.000000 -3.720202E+01
42.000000 -22.000000 -1.628530E+01
42.000000 -24.000000 -7.355894E+00
42.000000 -26.000000 -1.288175E+01
42.000000 -28.000000 -2.849653E+01
42.000000 -30.000000 -4.584176E+01
42.000000 -32.000000 -5.669021E+01
42.000000 -34.000000 -4.993713E+01
42.000000 -36.000000 -3.379936E+01
42.000000 -38.000000 -2.461754E+01
42.000000 -40.000000 -1.968996E+01
44.000000 40.000000 -8.684723E+01
44.000000 38.000000 -7.110224E+01
44.000000 36.000000 -4.425669E+01
44.000000 34.000000 -8.379094E+00
44.000000 32.000000 1.680419E+01
44.000000 30.000000 1.749567E+01
44.000000 28.000000 2.008753E+00
44.000000 26.000000 -1.026735E+01
44.000000 24.000000 -9.084438E+00
44.000000 22.000000 -7.219175E+00
44.000000 20.000000 -9.399052E+00
44.000000 18.000000 -1.541206E+01
44.000000 16.000000 -2.590127E+01
44.000000 14.000000 -4.312406E+01
44.000000 12.000000 -5.632563E+01
44.000000 10.000000 -5.393493E+01
44.000000 8.000000 -2.695157E+01
44.000000 6.000000 7.211096E+00
44.000000 4.000000 3.428661E+01
44.000000 2.000000 3.318246E+01
44.000000 0.000000 1.518440E+01
44.000000 -2.000000 -2.954970E+00
44.000000 -4.000000 -1.357729E+01
44.000000 -6.000000 -1.705398E+01
44.000000 -8.000000 -2.365312E+01
44.000000 -10.000000 -3.396456E+01
44.000000 -12.000000 -5.083708E+01
44.000000 -14.000000 -7.029013E+01
44.000000 -16.000000 -8.520498E+01
44.000000 -18.000000 -8.050555E+01
44.000000 -20.000000 -5.883979E+01
44.000000 -22.000000 -3.678063E+01
44.000000 -24.000000 -2.735770E+01
44.000000 -26.000000 -3.250221E+01
44.000000 -28.000000 -4.665395E+01
44.000000 -30.000000 -6.017498E+01
44.000000 -32.000000 -6.441421E+01
44.000000 -34.000000 -5.101623E+01
44.000000 -36.000000 -3.026477E+01
44.000000 -38.000000 -1.953269E+01
44.000000 -40.000000 -1.365148E+01
46.000000 40.000000 -8.545727E+01
46.000000 38.000000 -6.620713E+01
46.000000 36.000000 -3.637025E+01
46.000000 34.000000 2.468785E+00
46.000000 32.000000 2.846663E+01
46.000000 30.000000 2.728135E+01
46.000000 28.000000 1.049247E+01
46.000000 26.000000 -1.822558E+00
46.000000 24.000000 -2.028752E+00
46.000000 22.000000 -2.034210E+00
46.000000 20.000000 -4.089197E+00
46.000000 18.000000 -5.613493E+00
46.000000 16.000000 -4.705127E+00
46.000000 14.000000 -9.228109E+00
46.000000 12.000000 -1.427186E+01
46.000000 10.000000 -1.008840E+01
46.000000 8.000000 3.432420E+00
46.000000 6.000000 1.863894E+01
46.000000 4.000000 2.457017E+01
46.000000 2.000000 1.136617E+01
46.000000 0.000000 -1.050349E+01
46.000000 -2.000000 -2.748227E+01
46.000000 -4.000000 -3.606473E+01
46.000000 -6.000000 -3.536071E+01
46.000000 -8.000000 -3.611763E+01
46.000000 -10.000000 -4.098107E+01
46.000000 -12.000000 -5.437781E+01
46.000000 -14.000000 -7.592278E+01
46.000000 -16.000000 -9.637629E+01
46.000000 -18.000000 -9.741554E+01
46.000000 -20.000000 -7.874498E+01
46.000000 -22.000000 -5.591386E+01
46.000000 -24.000000 -4.368898E+01
46.000000 -26.000000 -4.600012E+01
46.000000 -28.000000 -5.895602E+01
46.000000 -30.000000 -6.980079E+01
46.000000 -32.000000 -6.939969E+01
46.000000 -34.000000 -5.242525E+01
46.000000 -36.000000 -2.884037E+01
46.000000 -38.000000 -1.648242E+01
46.000000 -40.000000 -9.295559E+00
48.000000 40.000000 -8.504957E+01
48.000000 38.000000 -6.346032E+01
48.000000 36.000000 -3.171662E+01
48.000000 34.000000 6.653999E+00
48.000000 32.000000 2.932450E+01
48.000000 30.000000 2.473584E+01
48.000000 28.000000 7.805504E+00
48.000000 26.000000 -1.698412E+00
48.000000 24.000000 5.827389E-01
48.000000 22.000000 2.351785E+00
48.000000 20.000000 2.157691E+00
48.000000 18.000000 4.632562E+00
48.000000 16.000000 1.287802E+01
48.000000 14.000000 1.830502E+01
48.000000 12.000000 2.155626E+01
48.000000 10.000000 2.827835E+01
48.000000 8.000000 3.134438E+01
48.000000 6.000000 3.150590E+01
48.000000 4.000000 1.862635E+01
48.000000 2.000000 -6.463477E+00
48.000000 0.000000 -3.066331E+01
48.000000 -2.000000 -4.609116E+01
48.000000 -4.000000 -5.319923E+01
48.000000 -6.000000 -5.057171E+01
48.000000 -8.000000 -4.859146E+01
48.000000 -10.000000 -5.165362E+01
48.000000 -12.000000 -6.204124E+01
48.000000 -14.000000 -8.292478E+01
48.000000 -16.000000 -1.047544E+02
48.000000 -18.000000 -1.091884E+02
48.000000 -20.000000 -9.313734E+01
48.000000 -22.000000 -6.912358E+01
48.000000 -24.000000 -5.243944E+01
48.000000 -26.000000 -4.909087E+01
48.000000 -28.000000 -6.028073E+01
48.000000 -30.000000 -7.109647E+01
48.000000 -32.000000 -6.998263E+01
48.000000 -34.000000 -5.314337E+01
48.000000 -36.000000 -2.933812E+01
48.000000 -38.000000 -1.628668E+01
48.000000 -40.000000 -8.415953E+00
50.000000 40.000000 -8.544051E+01
50.000000 38.000000 -6.378672E+01
50.000000 36.000000 -3.236417E+01
50.000000 34.000000 2.899301E+00
50.000000 32.000000 1.950379E+01
50.000000 30.000000 1.097436E+01
50.000000 28.000000 -4.683496E+00
50.000000 26.000000 -1.116183E+01
50.000000 24.000000 -4.126314E+00
50.000000 22.000000 3.355515E+00
50.000000 20.000000 7.063224E+00
50.000000 18.000000 1.306011E+01
50.000000 16.000000 2.305882E+01
50.000000 14.000000 3.194379E+01
50.000000 12.000000 3.872569E+01
50.000000 10.000000 4.529354E+01
50.000000 8.000000 4.287955E+01
50.000000 6.000000 3.640896E+01
50.000000 4.000000 1.499058E+01
50.000000 2.000000 -1.492279E+01
50.000000 0.000000 -3.877383E+01
50.000000 -2.000000 -5.153718E+01
50.000000 -4.000000 -5.695102E+01
50.000000 -6.000000 -5.532112E+01
50.000000 -8.000000 -5.407865E+01
50.000000 -10.000000 -5.732039E+01
50.000000 -12.000000 -6.449551E+01
50.000000 -14.000000 -8.280558E+01
50.000000 -16.000000 -1.039881E+02
50.000000 -18.000000 -1.099693E+02
50.000000 -20.000000 -9.645483E+01
50.000000 -22.000000 -7.313916E+01
50.000000 -24.000000 -5.363177E+01
50.000000 -26.000000 -4.588619E+01
50.000000 -28.000000 -5.334835E+01
50.000000 -30.000000 -6.377000E+01
50.000000 -32.000000 -6.495887E+01
50.000000 -34.000000 -5.192518E+01
50.000000 -36.000000 -3.136705E+01
50.000000 -38.000000 -1.831586E+01
50.000000 -40.000000 -1.026712E+01
52.000000 40.000000 -8.585480E+01
52.000000 38.000000 -6.691586E+01
52.000000 36.000000 -3.865360E+01
52.000000 34.000000 -8.941832E+00
52.000000 32.000000 7.515516E-01
52.000000 30.000000 -1.201980E+01
52.000000 28.000000 -2.704083E+01
52.000000 26.000000 -2.968342E+01
52.000000 24.000000 -1.541868E+01
52.000000 22.000000 1.185127E+00
52.000000 20.000000 1.012042E+01
52.000000 18.000000 1.803532E+01
52.000000 16.000000 2.594570E+01
52.000000 14.000000 3.145992E+01
52.000000 12.000000 3.539026E+01
52.000000 10.000000 3.861321E+01
52.000000 8.000000 3.394740E+01
52.000000 6.000000 2.660349E+01
52.000000 4.000000 6.177925E+00
52.000000 2.000000 -1.930541E+01
52.000000 0.000000 -3.725165E+01
52.000000 -2.000000 -4.490461E+01
52.000000 -4.000000 -4.669558E+01
52.000000 -6.000000 -4.570320E+01
52.000000 -8.000000 -4.709364E+01
52.000000 -10.000000 -5.122798E+01
52.000000 -12.000000 -5.520983E+01
52.000000 -14.000000 -7.038298E+01
52.000000 -16.000000 -8.897163E+01
52.000000 -18.000000 -9.515189E+01
52.000000 -20.000000 -8.479605E+01
52.000000 -22.000000 -6.485606E+01
52.000000 -24.000000 -4.579499E+01
52.000000 -26.000000 -3.671614E+01
52.000000 -28.000000 -4.079335E+01
52.000000 -30.000000 -4.983654E+01
52.000000 -32.000000 -5.437984E+01
52.000000 -34.000000 -4.799968E+01
52.000000 -36.000000 -3.406423E+01
52.000000 -38.000000 -2.325950E+01
52.000000 -40.000000 -1.552277E+01
54.000000 40.000000 -8.504412E+01
54.000000 38.000000 -7.172227E+01
54.000000 36.000000 -5.020248E+01
54.000000 34.000000 -2.864857E+01
54.000000 32.000000 -2.538373E+01
54.000000 30.000000 -4.073019E+01
54.000000 28.000000 -5.497562E+01
54.000000 26.000000 -5.258857E+01
54.000000 24.000000 -2.934569E+01
54.000000 22.000000 -2.310912E+00
54.000000 20.000000 1.229117E+01
54.000000 18.000000 2.065649E+01
54.000000 16.000000 2.436310E+01
54.000000 14.000000 2.271065E+01
54.000000 12.000000 1.937656E+01
54.000000 10.000000 1.560138E+01
54.000000 8.000000 8.170080E+00
54.000000 6.000000 6.689100E-01
54.000000 4.000000 -1.475571E+01
54.000000 2.000000 -2.976554E+01
54.000000 0.000000 -3.579542E+01
54.000000 -2.000000 -3.312478E+01
54.000000 -4.000000 -2.729075E+01
54.000000 -6.000000 -2.293070E+01
54.000000 -8.000000 -2.619497E+01
54.000000 -10.000000 -3.155112E+01
54.000000 -12.000000 -3.346543E+01
54.000000 -14.000000 -4.513827E+01
54.000000 -16.000000 -6.106846E+01
54.000000 -18.000000 -6.744515E+01
54.000000 -20.000000 -6.030164E+01
54.000000 -22.000000 -4.459928E+01
54.000000 -24.000000 -2.841626E+01
54.000000 -26.000000 -2.008537E+01
54.000000 -28.000000 -2.333109E+01
54.000000 -30.000000 -3.196956E+01
54.000000 -32.000000 -4.063680E+01
54.000000 -34.000000 -4.260546E+01
54.000000 -36.000000 -3.720257E+01
54.000000 -38.000000 -3.110645E+01
54.000000 -40.000000 -2.452444E+01
56.000000 40.000000 -8.169578E+01
56.000000 38.000000 -7.462497E+01
56.000000 36.000000 -6.185800E+01
