-12.000000 -34.000000 4.412651E+00
-12.000000 -36.000000 -4.029842E+00
-12.000000 -38.000000 -1.528510E+01
-12.000000 -40.000000 -3.039719E+01
-10.000000 40.000000 3.568880E+00
-10.000000 38.000000 -1.232056E+01
-10.000000 36.000000 -2.451464E+01
-10.000000 34.000000 -2.873137E+01
-10.000000 32.000000 -1.542344E+01
-10.000000 30.000000 6.404743E+00
-10.000000 28.000000 2.211093E+01
-10.000000 26.000000 2.121979E+01
-10.000000 24.000000 1.297762E+01
-10.000000 22.000000 1.235634E+00
-10.000000 20.000000 -2.223471E+00
-10.000000 18.000000 9.471622E+00
-10.000000 16.000000 3.423170E+01
-10.000000 14.000000 6.080180E+01
-10.000000 12.000000 8.095826E+01
-10.000000 10.000000 9.173806E+01
-10.000000 8.000000 8.090123E+01
-10.000000 6.000000 4.842508E+01
-10.000000 4.000000 7.901755E+00
-10.000000 2.000000 -1.527041E+01
-10.000000 0.000000 -1.452034E+01
-10.000000 -2.000000 3.414961E+00
-10.000000 -4.000000 1.861125E+01
-10.000000 -6.000000 1.520707E+01
-10.000000 -8.000000 1.004917E+00
-10.000000 -10.000000 -6.765743E+00
-10.000000 -12.000000 -2.310072E+00
-10.000000 -14.000000 7.662187E+00
-10.000000 -16.000000 1.311374E+01
-10.000000 -18.000000 9.564578E+00
-10.000000 -20.000000 -3.902723E+00
-10.000000 -22.000000 -2.250036E+01
-10.000000 -24.000000 -3.500085E+01
-10.000000 -26.000000 -3.511771E+01
-10.000000 -28.000000 -2.389532E+01
-10.000000 -30.000000 -1.019682E+01
-10.000000 -32.000000 2.047451E-01
-10.000000 -34.000000 2.981215E+00
-10.000000 -36.000000 -7.579744E+00
-10.000000 -38.000000 -2.059873E+01
-10.000000 -40.000000 -3.590541E+01
-8.000000 40.000000 -5.746578E+00
-8.000000 38.000000 -2.230409E+01
-8.000000 36.000000 -3.254580E+01
-8.000000 34.000000 -3.181468E+01
-8.000000 32.000000 -1.426098E+01
-8.000000 30.000000 9.139365E+00
-8.000000 28.000000 2.355626E+01
-8.000000 26.000000 1.957188E+01
-8.000000 24.000000 1.067962E+01
-8.000000 22.000000 1.692411E+00
-8.000000 20.000000 1.531158E+00
-8.000000 18.000000 1.825600E+01
-8.000000 16.000000 4.607713E+01
-8.000000 14.000000 7.350564E+01
-8.000000 12.000000 9.261793E+01
-8.000000 10.000000 1.055968E+02
-8.000000 8.000000 9.749860E+01
-8.000000 6.000000 6.613397E+01
-8.000000 4.000000 1.943172E+01
-8.000000 2.000000 -1.324267E+01
-8.000000 0.000000 -1.999491E+01
-8.000000 -2.000000 -4.642517E+00
-8.000000 -4.000000 1.013155E+01
-8.000000 -6.000000 5.499442E+00
-8.000000 -8.000000 -1.035510E+01
-8.000000 -10.000000 -1.991634E+01
-8.000000 -12.000000 -1.216987E+01
-8.000000 -14.000000 -4.273806E-01
-8.000000 -16.000000 5.686046E+00
-8.000000 -18.000000 2.529642E+00
-8.000000 -20.000000 -1.040731E+01
-8.000000 -22.000000 -2.881187E+01
-8.000000 -24.000000 -4.177727E+01
-8.000000 -26.000000 -4.132037E+01
-8.000000 -28.000000 -2.905224E+01
-8.000000 -30.000000 -1.390489E+01
-8.000000 -32.000000 -1.855436E+00
-8.000000 -34.000000 1.156088E+00
-8.000000 -36.000000 -1.081446E+01
-8.000000 -38.000000 -2.432916E+01
-8.000000 -40.000000 -3.835801E+01
-6.000000 40.000000 -1.333031E+01
-6.000000 38.000000 -2.780822E+01
-6.000000 36.000000 -3.490663E+01
-6.000000 34.000000 -2.961986E+01
-6.000000 32.000000 -9.352812E+00
-6.000000 30.000000 1.295511E+01
-6.000000 28.000000 2.435206E+01
-6.000000 26.000000 1.806578E+01
-6.000000 24.000000 9.943724E+00
-6.000000 22.000000 3.439274E+00
-6.000000 20.000000 6.380161E+00
-6.000000 18.000000 2.673556E+01
-6.000000 16.000000 5.568924E+01
-6.000000 14.000000 8.290371E+01
-6.000000 12.000000 9.946582E+01
-6.000000 10.000000 1.096548E+02
-6.000000 8.000000 1.017518E+02
-6.000000 6.000000 7.306049E+01
-6.000000 4.000000 2.486165E+01
-6.000000 2.000000 -1.477494E+01
-6.000000 0.000000 -2.782693E+01
-6.000000 -2.000000 -1.585367E+01
-6.000000 -4.000000 -3.597662E+00
-6.000000 -6.000000 -8.860455E+00
-6.000000 -8.000000 -2.229992E+01
-6.000000 -10.000000 -3.021472E+01
-6.000000 -12.000000 -1.872673E+01
-6.000000 -14.000000 -5.065885E+00
-6.000000 -16.000000 1.580447E+00
-6.000000 -18.000000 -1.009347E+00
-6.000000 -20.000000 -1.271743E+01
-6.000000 -22.000000 -3.050363E+01
-6.000000 -24.000000 -4.369502E+01
-6.000000 -26.000000 -4.367464E+01
-6.000000 -28.000000 -3.209543E+01
-6.000000 -30.000000 -1.740224E+01
-6.000000 -32.000000 -5.863665E+00
-6.000000 -34.000000 -2.775905E+00
-6.000000 -36.000000 -1.394711E+01
-6.000000 -38.000000 -2.622238E+01
-6.000000 -40.000000 -3.848066E+01
-4.000000 40.000000 -1.859367E+01
-4.000000 38.000000 -2.892123E+01
-4.000000 36.000000 -3.168145E+01
-4.000000 34.000000 -2.268725E+01
-4.000000 32.000000 -1.772387E+00
-4.000000 30.000000 1.734974E+01
-4.000000 28.000000 2.513470E+01
-4.000000 26.000000 1.772696E+01
-4.000000 24.000000 1.010479E+01
-4.000000 22.000000 4.460333E+00
-4.000000 20.000000 7.603296E+00
-4.000000 18.000000 2.691926E+01
-4.000000 16.000000 5.451558E+01
-4.000000 14.000000 7.925392E+01
-4.000000 12.000000 9.317797E+01
-4.000000 10.000000 9.985432E+01
-4.000000 8.000000 9.266889E+01
-4.000000 6.000000 6.741120E+01
-4.000000 4.000000 2.209350E+01
-4.000000 2.000000 -1.856370E+01
-4.000000 0.000000 -3.441280E+01
-4.000000 -2.000000 -2.561010E+01
-4.000000 -4.000000 -1.475358E+01
-4.000000 -6.000000 -1.844888E+01
-4.000000 -8.000000 -2.752583E+01
-4.000000 -10.000000 -2.984339E+01
-4.000000 -12.000000 -1.523148E+01
-4.000000 -14.000000 2.387381E-01
-4.000000 -16.000000 7.334073E+00
-4.000000 -18.000000 4.776258E+00
-4.000000 -20.000000 -7.413424E+00
-4.000000 -22.000000 -2.616588E+01
-4.000000 -24.000000 -4.045358E+01
-4.000000 -26.000000 -4.273856E+01
-4.000000 -28.000000 -3.210788E+01
-4.000000 -30.000000 -1.912297E+01
-4.000000 -32.000000 -1.015056E+01
-4.000000 -34.000000 -7.700463E+00
-4.000000 -36.000000 -1.641517E+01
-4.000000 -38.000000 -2.727036E+01
-4.000000 -40.000000 -3.831202E+01
-2.000000 40.000000 -1.976101E+01
-2.000000 38.000000 -2.662959E+01
-2.000000 36.000000 -2.631204E+01
-2.000000 34.000000 -1.532365E+01
-2.000000 32.000000 5.500189E+00
-2.000000 30.000000 2.234151E+01
-2.000000 28.000000 2.729153E+01
-2.000000 26.000000 1.810699E+01
-2.000000 24.000000 8.349569E+00
-2.000000 22.000000 1.451967E+00
-2.000000 20.000000 2.429167E+00
-2.000000 18.000000 1.849966E+01
-2.000000 16.000000 4.440457E+01
-2.000000 14.000000 6.587681E+01
-2.000000 12.000000 7.753203E+01
-2.000000 10.000000 8.209653E+01
-2.000000 8.000000 7.653342E+01
-2.000000 6.000000 5.448288E+01
-2.000000 4.000000 1.411730E+01
-2.000000 2.000000 -2.309624E+01
-2.000000 0.000000 -3.875270E+01
-2.000000 -2.000000 -3.203032E+01
-2.000000 -4.000000 -2.103434E+01
-2.000000 -6.000000 -2.167097E+01
-2.000000 -8.000000 -2.610853E+01
-2.000000 -10.000000 -2.126202E+01
-2.000000 -12.000000 -3.900457E+00
-2.000000 -14.000000 1.208770E+01
-2.000000 -16.000000 1.862915E+01
-2.000000 -18.000000 1.522785E+01
-2.000000 -20.000000 1.838754E+00
-2.000000 -22.000000 -1.716901E+01
-2.000000 -24.000000 -3.141742E+01
-2.000000 -26.000000 -3.489533E+01
-2.000000 -28.000000 -2.646477E+01
-2.000000 -30.000000 -1.695621E+01
-2.000000 -32.000000 -1.151179E+01
-2.000000 -34.000000 -1.018487E+01
-2.000000 -36.000000 -1.714791E+01
-2.000000 -38.000000 -2.873005E+01
-2.000000 -40.000000 -3.983640E+01
0.000000 40.000000 -1.834896E+01
0.000000 38.000000 -2.327814E+01
0.000000 36.000000 -2.136923E+01
0.000000 34.000000 -9.447250E+00
0.000000 32.000000 1.137167E+01
0.000000 30.000000 2.729515E+01
0.000000 28.000000 3.047643E+01
0.000000 26.000000 1.888034E+01
0.000000 24.000000 5.106194E+00
0.000000 22.000000 -4.994614E+00
0.000000 20.000000 -6.430820E+00
0.000000 18.000000 8.028217E+00
0.000000 16.000000 3.286036E+01
0.000000 14.000000 5.343491E+01
0.000000 12.000000 6.482871E+01
0.000000 10.000000 6.937066E+01
0.000000 8.000000 6.424235E+01
0.000000 6.000000 4.194604E+01
0.000000 4.000000 3.584919E+00
0.000000 2.000000 -3.038826E+01
0.000000 0.000000 -4.402913E+01
0.000000 -2.000000 -3.666896E+01
0.000000 -4.000000 -2.506533E+01
0.000000 -6.000000 -2.257453E+01
0.000000 -8.000000 -2.276542E+01
0.000000 -10.000000 -1.388081E+01
0.000000 -12.000000 5.399314E+00
0.000000 -14.000000 2.165943E+01
0.000000 -16.000000 2.756365E+01
0.000000 -18.000000 2.321393E+01
0.000000 -20.000000 1.017450E+01
0.000000 -22.000000 -6.558774E+00
0.000000 -24.000000 -1.813275E+01
0.000000 -26.000000 -2.041114E+01
0.000000 -28.000000 -1.563066E+01
0.000000 -30.000000 -1.112999E+01
0.000000 -32.000000 -9.694582E+00
0.000000 -34.000000 -1.008949E+01
0.000000 -36.000000 -1.658458E+01
0.000000 -38.000000 -3.010930E+01
0.000000 -40.000000 -4.198132E+01
2.000000 40.000000 -1.672758E+01
2.000000 38.000000 -2.015321E+01
2.000000 36.000000 -1.684531E+01
2.000000 34.000000 -4.723101E+00
2.000000 32.000000 1.495803E+01
2.000000 30.000000 2.969377E+01
2.000000 28.000000 3.238079E+01
2.000000 26.000000 2.007684E+01
2.000000 24.000000 2.975231E+00
2.000000 22.000000 -1.035572E+01
2.000000 20.000000 -1.285379E+01
2.000000 18.000000 8.915653E-01
2.000000 16.000000 2.422746E+01
2.000000 14.000000 4.571950E+01
2.000000 12.000000 6.054932E+01
2.000000 10.000000 6.899154E+01
2.000000 8.000000 6.444656E+01
2.000000 6.000000 4.050807E+01
2.000000 4.000000 -2.946739E-01
2.000000 2.000000 -3.509907E+01
2.000000 0.000000 -4.831042E+01
2.000000 -2.000000 -4.014244E+01
2.000000 -4.000000 -2.832061E+01
2.000000 -6.000000 -2.396531E+01
2.000000 -8.000000 -2.228076E+01
2.000000 -10.000000 -1.371916E+01
2.000000 -12.000000 5.189996E+00
2.000000 -14.000000 2.149777E+01
2.000000 -16.000000 2.763372E+01
2.000000 -18.000000 2.381449E+01
2.000000 -20.000000 1.287576E+01
2.000000 -22.000000 6.298683E-01
2.000000 -24.000000 -5.694493E+00
2.000000 -26.000000 -5.778749E+00
2.000000 -28.000000 -3.807381E+00
2.000000 -30.000000 -4.434943E+00
2.000000 -32.000000 -7.482004E+00
2.000000 -34.000000 -1.013579E+01
2.000000 -36.000000 -1.746935E+01
2.000000 -38.000000 -2.938325E+01
2.000000 -40.000000 -4.107721E+01
4.000000 40.000000 -1.584462E+01
4.000000 38.000000 -1.807009E+01
4.000000 36.000000 -1.394344E+01
4.000000 34.000000 -2.502237E+00
4.000000 32.000000 1.520156E+01
4.000000 30.000000 2.845200E+01
4.000000 28.000000 3.092736E+01
4.000000 26.000000 1.970738E+01
4.000000 24.000000 3.580494E+00
4.000000 22.000000 -9.752014E+00
4.000000 20.000000 -1.170717E+01
4.000000 18.000000 9.929276E-01
4.000000 16.000000 2.063030E+01
4.000000 14.000000 4.176785E+01
4.000000 12.000000 6.218049E+01
4.000000 10.000000 7.959720E+01
4.000000 8.000000 7.912649E+01
4.000000 6.000000 5.486037E+01
4.000000 4.000000 8.628961E+00
4.000000 2.000000 -3.208128E+01
4.000000 0.000000 -4.844046E+01
4.000000 -2.000000 -4.206082E+01
4.000000 -4.000000 -2.968007E+01
4.000000 -6.000000 -2.430566E+01
4.000000 -8.000000 -2.369747E+01
4.000000 -10.000000 -1.896741E+01
4.000000 -12.000000 -5.055385E+00
4.000000 -14.000000 9.893119E+00
4.000000 -16.000000 1.800656E+01
4.000000 -18.000000 1.598857E+01
4.000000 -20.000000 7.715611E+00
4.000000 -22.000000 8.443420E-01
4.000000 -24.000000 6.061341E-01
4.000000 -26.000000 2.915880E+00
4.000000 -28.000000 3.333587E+00
4.000000 -30.000000 -1.304451E+00
4.000000 -32.000000 -8.168980E+00
4.000000 -34.000000 -1.234006E+01
4.000000 -36.000000 -1.860055E+01
4.000000 -38.000000 -2.538270E+01
4.000000 -40.000000 -3.586247E+01
6.000000 40.000000 -1.501032E+01
6.000000 38.000000 -1.693155E+01
6.000000 36.000000 -1.389848E+01
6.000000 34.000000 -5.226922E+00
6.000000 32.000000 1.009501E+01
6.000000 30.000000 2.234114E+01
6.000000 28.000000 2.479667E+01
6.000000 26.000000 1.666448E+01
6.000000 24.000000 7.199644E+00
6.000000 22.000000 -1.761330E+00
6.000000 20.000000 -1.701731E+00
6.000000 18.000000 8.141729E+00
6.000000 16.000000 2.149095E+01
6.000000 14.000000 4.003689E+01
6.000000 12.000000 6.518837E+01
6.000000 10.000000 9.334347E+01
6.000000 8.000000 1.012013E+02
6.000000 6.000000 7.892686E+01
6.000000 4.000000 2.626312E+01
6.000000 2.000000 -2.275770E+01
6.000000 0.000000 -4.441280E+01
6.000000 -2.000000 -3.966652E+01
6.000000 -4.000000 -2.479558E+01
6.000000 -6.000000 -1.752286E+01
6.000000 -8.000000 -2.079727E+01
6.000000 -10.000000 -2.422653E+01
6.000000 -12.000000 -1.873525E+01
6.000000 -14.000000 -6.157155E+00
6.000000 -16.000000 4.641150E+00
6.000000 -18.000000 4.390387E+00
6.000000 -20.000000 -2.648160E+00
6.000000 -22.000000 -6.340678E+00
6.000000 -24.000000 -2.783870E+00
6.000000 -26.000000 1.686825E+00
6.000000 -28.000000 1.338255E+00
6.000000 -30.000000 -4.878717E+00
6.000000 -32.000000 -1.295643E+01
6.000000 -34.000000 -1.606759E+01
6.000000 -36.000000 -1.717597E+01
6.000000 -38.000000 -1.865769E+01
6.000000 -40.000000 -2.737706E+01
8.000000 40.000000 -1.250248E+01
8.000000 38.000000 -1.581221E+01
8.000000 36.000000 -1.597608E+01
8.000000 34.000000 -1.280266E+01
8.000000 32.000000 -1.481422E+00
8.000000 30.000000 1.030442E+01
8.000000 28.000000 1.467087E+01
8.000000 26.000000 1.143186E+01
8.000000 24.000000 1.070388E+01
8.000000 22.000000 8.451292E+00
8.000000 20.000000 1.064749E+01
8.000000 18.000000 1.556890E+01
8.000000 16.000000 2.279529E+01
8.000000 14.000000 3.861015E+01
8.000000 12.000000 6.777375E+01
8.000000 10.000000 1.059758E+02
8.000000 8.000000 1.236471E+02
8.000000 6.000000 1.052701E+02
8.000000 4.000000 4.657178E+01
8.000000 2.000000 -1.095319E+01
8.000000 0.000000 -3.882041E+01
8.000000 -2.000000 -3.383481E+01
8.000000 -4.000000 -1.354100E+01
8.000000 -6.000000 -2.768134E+00
8.000000 -8.000000 -1.156544E+01
8.000000 -10.000000 -2.543992E+01
8.000000 -12.000000 -2.854019E+01
8.000000 -14.000000 -1.802911E+01
8.000000 -16.000000 -4.834420E+00
8.000000 -18.000000 -3.217005E+00
8.000000 -20.000000 -1.093818E+01
8.000000 -22.000000 -1.611122E+01
8.000000 -24.000000 -1.386871E+01
8.000000 -26.000000 -9.663499E+00
8.000000 -28.000000 -9.175927E+00
8.000000 -30.000000 -1.409461E+01
8.000000 -32.000000 -2.013372E+01
8.000000 -34.000000 -1.903805E+01
8.000000 -36.000000 -1.400151E+01
8.000000 -38.000000 -1.123759E+01
8.000000 -40.000000 -1.699677E+01
10.000000 40.000000 -8.388302E+00
10.000000 38.000000 -1.455163E+01
10.000000 36.000000 -1.869601E+01
10.000000 34.000000 -2.161518E+01
10.000000 32.000000 -1.506043E+01
10.000000 30.000000 -4.134161E+00
10.000000 28.000000 3.522959E+00
10.000000 26.000000 5.378655E+00
10.000000 24.000000 1.052461E+01
10.000000 22.000000 1.351380E+01
10.000000 20.000000 1.624463E+01
10.000000 18.000000 1.762613E+01
10.000000 16.000000 2.179881E+01
10.000000 14.000000 3.703212E+01
10.000000 12.000000 6.948248E+01
10.000000 10.000000 1.150197E+02
10.000000 8.000000 1.400651E+02
10.000000 6.000000 1.261337E+02
10.000000 4.000000 6.396913E+01
10.000000 2.000000 -1.540369E+00
10.000000 0.000000 -3.500575E+01
10.000000 -2.000000 -2.783825E+01
10.000000 -4.000000 1.066771E-01
10.000000 -6.000000 1.552892E+01
10.000000 -8.000000 7.672052E-01
10.000000 -10.000000 -2.314159E+01
10.000000 -12.000000 -3.279640E+01
10.000000 -14.000000 -2.239276E+01
10.000000 -16.000000 -6.101580E+00
10.000000 -18.000000 -2.330842E+00
10.000000 -20.000000 -1.236016E+01
10.000000 -22.000000 -2.268622E+01
10.000000 -24.000000 -2.566427E+01
10.000000 -26.000000 -2.413080E+01
10.000000 -28.000000 -2.222898E+01
10.000000 -30.000000 -2.430151E+01
10.000000 -32.000000 -2.644782E+01
10.000000 -34.000000 -2.023674E+01
10.000000 -36.000000 -1.012309E+01
10.000000 -38.000000 -3.891176E+00
10.000000 -40.000000 -7.017172E+00
12.000000 40.000000 -4.221158E+00
12.000000 38.000000 -1.336329E+01
12.000000 36.000000 -2.037613E+01
12.000000 34.000000 -2.697421E+01
12.000000 32.000000 -2.312965E+01
12.000000 30.000000 -1.392468E+01
12.000000 28.000000 -4.886742E+00
12.000000 26.000000 -1.826229E-01
12.000000 24.000000 6.484137E+00
12.000000 22.000000 1.168785E+01
12.000000 20.000000 1.359189E+01
12.000000 18.000000 1.440437E+01
12.000000 16.000000 1.769694E+01
12.000000 14.000000 3.209383E+01
12.000000 12.000000 6.434065E+01
12.000000 10.000000 1.138324E+02
12.000000 8.000000 1.459558E+02
12.000000 6.000000 1.379771E+02
12.000000 4.000000 7.638768E+01
12.000000 2.000000 5.607991E+00
12.000000 0.000000 -3.147738E+01
12.000000 -2.000000 -2.222903E+01
12.000000 -4.000000 1.111932E+01
12.000000 -6.000000 2.854972E+01
12.000000 -8.000000 7.873600E+00
12.000000 -10.000000 -2.411343E+01
12.000000 -12.000000 -3.763897E+01
12.000000 -14.000000 -2.314976E+01
12.000000 -16.000000 1.716924E-01
12.000000 -18.000000 7.428827E+00
12.000000 -20.000000 -4.929323E+00
12.000000 -22.000000 -2.164007E+01
12.000000 -24.000000 -3.110424E+01
12.000000 -26.000000 -3.289381E+01
12.000000 -28.000000 -3.127875E+01
12.000000 -30.000000 -3.046383E+01
12.000000 -32.000000 -2.824234E+01
12.000000 -34.000000 -1.852240E+01
12.000000 -36.000000 -5.529436E+00
12.000000 -38.000000 2.806148E+00
12.000000 -40.000000 -1.705074E-02
14.000000 40.000000 -9.310691E-01
14.000000 38.000000 -1.194795E+01
14.000000 36.000000 -1.962643E+01
14.000000 34.000000 -2.660131E+01
14.000000 32.000000 -2.174552E+01
14.000000 30.000000 -1.280122E+01
14.000000 28.000000 -5.118882E+00
14.000000 26.000000 -1.860209E+00
14.000000 24.000000 2.494804E+00
14.000000 22.000000 6.026570E+00
14.000000 20.000000 6.702934E+00
14.000000 18.000000 8.926226E+00
14.000000 16.000000 1.270389E+01
14.000000 14.000000 2.325042E+01
14.000000 12.000000 5.030633E+01
14.000000 10.000000 9.893760E+01
14.000000 8.000000 1.373774E+02
14.000000 6.000000 1.368687E+02
14.000000 4.000000 8.161239E+01
14.000000 2.000000 1.151397E+01
14.000000 0.000000 -2.704279E+01
14.000000 -2.000000 -1.839604E+01
14.000000 -4.000000 1.345911E+01
14.000000 -6.000000 2.625121E+01
14.000000 -8.000000 1.210400E+00
14.000000 -10.000000 -3.316605E+01
14.000000 -12.000000 -4.326908E+01
14.000000 -14.000000 -1.970921E+01
14.000000 -16.000000 1.250552E+01
14.000000 -18.000000 2.442825E+01
14.000000 -20.000000 1.058235E+01
14.000000 -22.000000 -1.241852E+01
14.000000 -24.000000 -2.860178E+01
14.000000 -26.000000 -3.455858E+01
14.000000 -28.000000 -3.380422E+01
14.000000 -30.000000 -2.996029E+01
14.000000 -32.000000 -2.389959E+01
14.000000 -34.000000 -1.276145E+01
14.000000 -36.000000 -1.927509E-01
14.000000 -38.000000 7.138919E+00
14.000000 -40.000000 2.880329E+00
16.000000 40.000000 4.309328E-01
16.000000 38.000000 -1.036582E+01
16.000000 36.000000 -1.628041E+01
16.000000 34.000000 -2.034440E+01
16.000000 32.000000 -1.126465E+01
16.000000 30.000000 -2.948227E-01
16.000000 28.000000 6.083959E+00
16.000000 26.000000 6.282797E+00
16.000000 24.000000 5.935156E+00
16.000000 22.000000 4.476628E+00
16.000000 20.000000 2.388428E+00
16.000000 18.000000 5.689898E+00
16.000000 16.000000 9.892432E+00
16.000000 14.000000 1.582712E+01
16.000000 12.000000 3.510444E+01
16.000000 10.000000 7.659768E+01
16.000000 8.000000 1.158325E+02
16.000000 6.000000 1.210774E+02
16.000000 4.000000 7.521705E+01
16.000000 2.000000 1.062581E+01
16.000000 0.000000 -2.841316E+01
16.000000 -2.000000 -2.546099E+01
16.000000 -4.000000 -1.184887E+00
16.000000 -6.000000 6.220958E+00
16.000000 -8.000000 -1.779285E+01
16.000000 -10.000000 -4.599273E+01
16.000000 -12.000000 -4.333497E+01
16.000000 -14.000000 -7.889642E+00
16.000000 -16.000000 3.146670E+01
16.000000 -18.000000 4.547613E+01
16.000000 -20.000000 2.912077E+01
16.000000 -22.000000 8.231499E-01
16.000000 -24.000000 -2.174389E+01
16.000000 -26.000000 -3.213921E+01
16.000000 -28.000000 -3.152333E+01
16.000000 -30.000000 -2.483066E+01
16.000000 -32.000000 -1.561507E+01
16.000000 -34.000000 -4.233275E+00
16.000000 -36.000000 5.416767E+00
16.000000 -38.000000 8.859900E+00
16.000000 -40.000000 2.333797E+00
18.000000 40.000000 -1.549555E+00
18.000000 38.000000 -9.221743E+00
18.000000 36.000000 -1.115244E+01
18.000000 34.000000 -9.251721E+00
18.000000 32.000000 5.211022E+00
18.000000 30.000000 1.883180E+01
18.000000 28.000000 2.570512E+01
18.000000 26.000000 2.442762E+01
18.000000 24.000000 2.007270E+01
18.000000 22.000000 1.438655E+01
18.000000 20.000000 1.080336E+01
18.000000 18.000000 1.352592E+01
18.000000 16.000000 1.619134E+01
18.000000 14.000000 1.822824E+01
18.000000 12.000000 2.806164E+01
18.000000 10.000000 5.458247E+01
18.000000 8.000000 8.614181E+01
18.000000 6.000000 9.265714E+01
18.000000 4.000000 5.686247E+01
18.000000 2.000000 7.797222E-01
18.000000 0.000000 -3.791155E+01
18.000000 -2.000000 -4.387632E+01
18.000000 -4.000000 -3.104928E+01
18.000000 -6.000000 -2.760170E+01
18.000000 -8.000000 -4.451150E+01
18.000000 -10.000000 -5.983372E+01
18.000000 -12.000000 -3.990389E+01
18.000000 -14.000000 8.346347E+00
18.000000 -16.000000 5.335504E+01
18.000000 -18.000000 6.603582E+01
18.000000 -20.000000 4.519627E+01
18.000000 -22.000000 1.181353E+01
18.000000 -24.000000 -1.605943E+01
18.000000 -26.000000 -2.888673E+01
18.000000 -28.000000 -2.770386E+01
18.000000 -30.000000 -1.908061E+01
18.000000 -32.000000 -7.137078E+00
18.000000 -34.000000 4.597379E+00
18.000000 -36.000000 1.033255E+01
18.000000 -38.000000 9.201554E+00
18.000000 -40.000000 -4.929667E-01
20.000000 40.000000 -6.712387E+00
20.000000 38.000000 -9.810151E+00
20.000000 36.000000 -6.921409E+00
20.000000 34.000000 2.781169E+00
20.000000 32.000000 2.380914E+01
20.000000 30.000000 4.130608E+01
20.000000 28.000000 4.902956E+01
20.000000 26.000000 4.611700E+01
20.000000 24.000000 4.015766E+01
20.000000 22.000000 3.223616E+01
20.000000 20.000000 2.987942E+01
20.000000 18.000000 3.312572E+01
20.000000 16.000000 3.525470E+01
20.000000 14.000000 3.345863E+01
20.000000 12.000000 3.247020E+01
20.000000 10.000000 4.146742E+01
20.000000 8.000000 6.107884E+01
20.000000 6.000000 6.501277E+01
20.000000 4.000000 3.644726E+01
20.000000 2.000000 -1.272400E+01
20.000000 0.000000 -5.227981E+01
20.000000 -2.000000 -6.535246E+01
20.000000 -4.000000 -6.273014E+01
20.000000 -6.000000 -6.308469E+01
20.000000 -8.000000 -7.302010E+01
20.000000 -10.000000 -7.574487E+01
20.000000 -12.000000 -3.957004E+01
20.000000 -14.000000 1.939434E+01
20.000000 -16.000000 6.736696E+01
20.000000 -18.000000 7.718493E+01
20.000000 -20.000000 5.087806E+01
20.000000 -22.000000 1.306047E+01
20.000000 -24.000000 -1.648931E+01
20.000000 -26.000000 -2.793998E+01
20.000000 -28.000000 -2.459482E+01
20.000000 -30.000000 -1.430040E+01
20.000000 -32.000000 -5.087633E-01
20.000000 -34.000000 1.150407E+01
20.000000 -36.000000 1.346190E+01
20.000000 -38.000000 8.353957E+00
20.000000 -40.000000 -4.445632E+00
22.000000 40.000000 -1.353221E+01
22.000000 38.000000 -1.371513E+01
22.000000 36.000000 -6.470767E+00
22.000000 34.000000 1.191907E+01
22.000000 32.000000 4.074687E+01
22.000000 30.000000 6.318127E+01
22.000000 28.000000 7.032050E+01
22.000000 26.000000 6.390210E+01
22.000000 24.000000 5.661614E+01
22.000000 22.000000 4.688354E+01
22.000000 20.000000 4.695818E+01
22.000000 18.000000 5.353742E+01
22.000000 16.000000 5.845232E+01
22.000000 14.000000 5.599026E+01
22.000000 12.000000 4.818705E+01
22.000000 10.000000 4.436938E+01
22.000000 8.000000 5.259593E+01
22.000000 6.000000 5.273873E+01
22.000000 4.000000 2.619707E+01
22.000000 2.000000 -2.130131E+01
22.000000 0.000000 -6.358143E+01
22.000000 -2.000000 -8.080691E+01
22.000000 -4.000000 -8.431990E+01
22.000000 -6.000000 -8.777626E+01
22.000000 -8.000000 -9.495011E+01
22.000000 -10.000000 -9.138211E+01
22.000000 -12.000000 -4.620082E+01
22.000000 -14.000000 1.828921E+01
22.000000 -16.000000 6.579547E+01
22.000000 -18.000000 7.159164E+01
22.000000 -20.000000 4.072917E+01
22.000000 -22.000000 1.121711E+00
22.000000 -24.000000 -2.482451E+01
22.000000 -26.000000 -3.055276E+01
22.000000 -28.000000 -2.368151E+01
22.000000 -30.000000 -1.131408E+01
22.000000 -32.000000 2.837375E+00
22.000000 -34.000000 1.447503E+01
22.000000 -36.000000 1.373309E+01
22.000000 -38.000000 5.853596E+00
22.000000 -40.000000 -8.073900E+00
24.000000 40.000000 -2.066753E+01
24.000000 38.000000 -2.022080E+01
24.000000 36.000000 -9.327442E+00
24.000000 34.000000 1.601746E+01
24.000000 32.000000 5.098900E+01
24.000000 30.000000 7.701554E+01
24.000000 28.000000 8.263315E+01
24.000000 26.000000 7.135131E+01
24.000000 24.000000 6.052013E+01
24.000000 22.000000 4.886245E+01
24.000000 20.000000 5.109210E+01
24.000000 18.000000 6.322694E+01
24.000000 16.000000 7.368502E+01
24.000000 14.000000 7.599713E+01
24.000000 12.000000 6.955468E+01
24.000000 10.000000 6.327969E+01
24.000000 8.000000 6.450796E+01
24.000000 6.000000 6.056745E+01
24.000000 4.000000 3.078581E+01
24.000000 2.000000 -2.048585E+01
24.000000 0.000000 -6.559976E+01
24.000000 -2.000000 -8.520637E+01
24.000000 -4.000000 -9.001469E+01
24.000000 -6.000000 -9.581494E+01
24.000000 -8.000000 -1.054341E+02
24.000000 -10.000000 -1.027348E+02
24.000000 -12.000000 -5.716597E+01
24.000000 -14.000000 6.839914E+00
24.000000 -16.000000 5.092390E+01
24.000000 -18.000000 5.150489E+01
24.000000 -20.000000 1.793424E+01
24.000000 -22.000000 -2.003315E+01
24.000000 -24.000000 -3.932190E+01
24.000000 -26.000000 -3.718596E+01
24.000000 -28.000000 -2.642097E+01
24.000000 -30.000000 -1.241057E+01
24.000000 -32.000000 1.315746E+00
24.000000 -34.000000 1.274574E+01
24.000000 -36.000000 1.116816E+01
24.000000 -38.000000 2.928847E+00
24.000000 -40.000000 -9.995101E+00
26.000000 40.000000 -2.608352E+01
26.000000 38.000000 -2.708440E+01
26.000000 36.000000 -1.454322E+01
26.000000 34.000000 1.258094E+01
26.000000 32.000000 4.958181E+01
26.000000 30.000000 7.684303E+01
26.000000 28.000000 8.120852E+01
26.000000 26.000000 6.466621E+01
26.000000 24.000000 4.870336E+01
26.000000 22.000000 3.618067E+01
26.000000 20.000000 3.922027E+01
26.000000 18.000000 5.702516E+01
26.000000 16.000000 7.517249E+01
26.000000 14.000000 8.667952E+01
26.000000 12.000000 8.814248E+01
26.000000 10.000000 8.773323E+01
26.000000 8.000000 8.688152E+01
26.000000 6.000000 7.990743E+01
26.000000 4.000000 4.547856E+01
26.000000 2.000000 -1.007906E+01
26.000000 0.000000 -5.524061E+01
26.000000 -2.000000 -7.357871E+01
26.000000 -4.000000 -7.613759E+01
26.000000 -6.000000 -8.454141E+01
26.000000 -8.000000 -1.010702E+02
26.000000 -10.000000 -1.056176E+02
26.000000 -12.000000 -6.623409E+01
26.000000 -14.000000 -8.728388E+00
26.000000 -16.000000 2.839585E+01
26.000000 -18.000000 2.402577E+01
26.000000 -20.000000 -1.014747E+01
26.000000 -22.000000 -4.377241E+01
26.000000 -24.000000 -5.607956E+01
26.000000 -26.000000 -4.796504E+01
26.000000 -28.000000 -3.331541E+01
26.000000 -30.000000 -1.745203E+01
26.000000 -32.000000 -4.129333E+00
26.000000 -34.000000 7.812507E+00
26.000000 -36.000000 7.630895E+00
26.000000 -38.000000 1.613148E+00
26.000000 -40.000000 -9.833260E+00
28.000000 40.000000 -2.748535E+01
28.000000 38.000000 -3.317993E+01
28.000000 36.000000 -2.406199E+01
28.000000 34.000000 -3.371177E-01
28.000000 32.000000 3.564663E+01
28.000000 30.000000 6.216050E+01
28.000000 28.000000 6.529018E+01
28.000000 26.000000 4.583459E+01
28.000000 24.000000 2.621379E+01
28.000000 22.000000 1.399622E+01
28.000000 20.000000 1.753658E+01
28.000000 18.000000 3.970082E+01
28.000000 16.000000 6.550161E+01
28.000000 14.000000 8.657221E+01
28.000000 12.000000 9.811112E+01
28.000000 10.000000 1.065404E+02
28.000000 8.000000 1.068642E+02
28.000000 6.000000 9.560156E+01
28.000000 4.000000 5.681478E+01
28.000000 2.000000 2.432926E+00
28.000000 0.000000 -3.730936E+01
28.000000 -2.000000 -5.018488E+01
28.000000 -4.000000 -4.949317E+01
28.000000 -6.000000 -6.057742E+01
28.000000 -8.000000 -8.320633E+01
28.000000 -10.000000 -9.588454E+01
28.000000 -12.000000 -6.811220E+01
28.000000 -14.000000 -2.200794E+01
28.000000 -16.000000 6.487682E+00
28.000000 -18.000000 -1.187549E+00
28.000000 -20.000000 -3.464862E+01
28.000000 -22.000000 -6.421240E+01
28.000000 -24.000000 -7.078680E+01
28.000000 -26.000000 -5.888970E+01
28.000000 -28.000000 -4.166016E+01
28.000000 -30.000000 -2.340215E+01
28.000000 -32.000000 -9.358303E+00
28.000000 -34.000000 3.823977E+00
28.000000 -36.000000 5.524971E+00
28.000000 -38.000000 1.323567E+00
28.000000 -40.000000 -1.017038E+01
30.000000 40.000000 -2.636587E+01
30.000000 38.000000 -3.835578E+01
30.000000 36.000000 -3.619075E+01
30.000000 34.000000 -1.845109E+01
30.000000 32.000000 1.427913E+01
30.000000 30.000000 3.795592E+01
30.000000 28.000000 4.025886E+01
30.000000 26.000000 2.212435E+01
30.000000 24.000000 2.174858E+00
30.000000 22.000000 -9.068835E+00
30.000000 20.000000 -5.335708E+00
30.000000 18.000000 1.841443E+01
30.000000 16.000000 5.033219E+01
30.000000 14.000000 8.034622E+01
30.000000 12.000000 1.018311E+02
30.000000 10.000000 1.157183E+02
30.000000 8.000000 1.143296E+02
30.000000 6.000000 9.615766E+01
30.000000 4.000000 5.468200E+01
30.000000 2.000000 7.026679E+00
30.000000 0.000000 -2.275967E+01
30.000000 -2.000000 -2.724946E+01
30.000000 -4.000000 -2.275125E+01
30.000000 -6.000000 -3.396195E+01
30.000000 -8.000000 -5.980620E+01
30.000000 -10.000000 -7.863618E+01
30.000000 -12.000000 -6.368434E+01
30.000000 -14.000000 -3.058423E+01
30.000000 -16.000000 -8.750650E+00
30.000000 -18.000000 -1.691217E+01
30.000000 -20.000000 -4.830775E+01
30.000000 -22.000000 -7.569019E+01
30.000000 -24.000000 -7.959684E+01
30.000000 -26.000000 -6.522806E+01
30.000000 -28.000000 -4.708504E+01
30.000000 -30.000000 -2.708276E+01
30.000000 -32.000000 -1.121091E+01
30.000000 -34.000000 3.352436E+00
30.000000 -36.000000 5.598040E+00
30.000000 -38.000000 5.446453E-01
30.000000 -40.000000 -1.277358E+01
32.000000 40.000000 -2.756197E+01
32.000000 38.000000 -4.347505E+01
32.000000 36.000000 -4.607030E+01
32.000000 34.000000 -3.308654E+01
32.000000 32.000000 -4.806246E+00
32.000000 30.000000 1.458487E+01
32.000000 28.000000 1.610765E+01
32.000000 26.000000 7.882490E-01
32.000000 24.000000 -1.777444E+01
32.000000 22.000000 -2.741629E+01
32.000000 20.000000 -2.361514E+01
32.000000 18.000000 -9.494801E-01
32.000000 16.000000 3.448117E+01
32.000000 14.000000 7.163257E+01
32.000000 12.000000 9.989057E+01
32.000000 10.000000 1.146394E+02
32.000000 8.000000 1.085324E+02
32.000000 6.000000 8.353495E+01
32.000000 4.000000 4.163903E+01
32.000000 2.000000 1.998345E+00
32.000000 0.000000 -1.764898E+01
32.000000 -2.000000 -1.332904E+01
32.000000 -4.000000 -4.060543E+00
32.000000 -6.000000 -1.256013E+01
32.000000 -8.000000 -3.912575E+01
32.000000 -10.000000 -6.276060E+01
32.000000 -12.000000 -5.895075E+01
32.000000 -14.000000 -3.605977E+01
32.000000 -16.000000 -1.794674E+01
32.000000 -18.000000 -2.393388E+01
32.000000 -20.000000 -5.111046E+01
32.000000 -22.000000 -7.698970E+01
32.000000 -24.000000 -8.171637E+01
32.000000 -26.000000 -6.705478E+01
32.000000 -28.000000 -4.861222E+01
32.000000 -30.000000 -2.770718E+01
32.000000 -32.000000 -9.714006E+00
32.000000 -34.000000 5.986828E+00
32.000000 -36.000000 7.611462E+00
32.000000 -38.000000 -5.434418E-01
32.000000 -40.000000 -1.679248E+01
34.000000 40.000000 -3.224193E+01
34.000000 38.000000 -4.950430E+01
34.000000 36.000000 -5.371489E+01
34.000000 34.000000 -4.238113E+01
34.000000 32.000000 -1.577312E+01
34.000000 30.000000 1.140957E+00
34.000000 28.000000 1.623500E+00
34.000000 26.000000 -1.210813E+01
34.000000 24.000000 -2.963695E+01
34.000000 22.000000 -3.937929E+01
34.000000 20.000000 -3.689546E+01
34.000000 18.000000 -1.610450E+01
34.000000 16.000000 2.135331E+01
34.000000 14.000000 6.362477E+01
34.000000 12.000000 9.482567E+01
34.000000 10.000000 1.080536E+02
34.000000 8.000000 9.674937E+01
34.000000 6.000000 6.699418E+01
34.000000 4.000000 2.610714E+01
34.000000 2.000000 -8.052664E+00
34.000000 0.000000 -2.060797E+01
34.000000 -2.000000 -9.223225E+00
34.000000 -4.000000 6.040099E+00
34.000000 -6.000000 7.893289E-01
34.000000 -8.000000 -2.649649E+01
34.000000 -10.000000 -5.501706E+01
34.000000 -12.000000 -6.025380E+01
34.000000 -14.000000 -4.424076E+01
34.000000 -16.000000 -2.725854E+01
34.000000 -18.000000 -2.875860E+01
34.000000 -20.000000 -4.909957E+01
34.000000 -22.000000 -7.194039E+01
34.000000 -24.000000 -7.734367E+01
34.000000 -26.000000 -6.396058E+01
34.000000 -28.000000 -4.617457E+01
34.000000 -30.000000 -2.478891E+01
34.000000 -32.000000 -5.444428E+00
34.000000 -34.000000 1.056794E+01
34.000000 -36.000000 1.003015E+01
34.000000 -38.000000 -2.224193E+00
34.000000 -40.000000 -2.204644E+01
36.000000 40.000000 -3.809693E+01
36.000000 38.000000 -5.597221E+01
36.000000 36.000000 -6.044699E+01
36.000000 34.000000 -4.772568E+01
36.000000 32.000000 -1.799106E+01
36.000000 30.000000 5.099587E-01
36.000000 28.000000 1.333914E-01
36.000000 26.000000 -1.392257E+01
36.000000 24.000000 -3.170208E+01
36.000000 22.000000 -4.472639E+01
36.000000 20.000000 -4.641131E+01
36.000000 18.000000 -2.809955E+01
36.000000 16.000000 1.013853E+01
36.000000 14.000000 5.540710E+01
36.000000 12.000000 8.904096E+01
36.000000 10.000000 1.030360E+02
36.000000 8.000000 8.919435E+01
36.000000 6.000000 5.535771E+01
36.000000 4.000000 1.224338E+01
36.000000 2.000000 -2.088935E+01
36.000000 0.000000 -2.929253E+01
36.000000 -2.000000 -1.204042E+01
36.000000 -4.000000 9.507549E+00
36.000000 -6.000000 7.276272E+00
36.000000 -8.000000 -2.136284E+01
36.000000 -10.000000 -5.474405E+01
36.000000 -12.000000 -6.670001E+01
36.000000 -14.000000 -5.534864E+01
36.000000 -16.000000 -3.832582E+01
36.000000 -18.000000 -3.525995E+01
36.000000 -20.000000 -4.806146E+01
36.000000 -22.000000 -6.539369E+01
36.000000 -24.000000 -6.806313E+01
36.000000 -26.000000 -5.743086E+01
36.000000 -28.000000 -4.206019E+01
36.000000 -30.000000 -2.008096E+01
36.000000 -32.000000 -2.875767E-01
36.000000 -34.000000 1.437541E+01
36.000000 -36.000000 9.911257E+00
36.000000 -38.000000 -5.550725E+00
36.000000 -40.000000 -2.756985E+01
38.000000 40.000000 -4.219349E+01
38.000000 38.000000 -6.132927E+01
38.000000 36.000000 -6.620996E+01
38.000000 34.000000 -5.025611E+01
38.000000 32.000000 -1.456748E+01
38.000000 30.000000 9.049204E+00
38.000000 28.000000 1.040476E+01
38.000000 26.000000 -4.720570E+00
38.000000 24.000000 -2.339958E+01
38.000000 22.000000 -4.265382E+01
38.000000 20.000000 -5.255651E+01
38.000000 18.000000 -3.899990E+01
38.000000 16.000000 -1.187083E+00
38.000000 14.000000 4.671235E+01
38.000000 12.000000 8.478020E+01
38.000000 10.000000 1.028196E+02
38.000000 8.000000 8.914671E+01
38.000000 6.000000 5.151142E+01
38.000000 4.000000 2.340101E+00
38.000000 2.000000 -3.252371E+01
38.000000 0.000000 -3.898750E+01
38.000000 -2.000000 -1.858435E+01
38.000000 -4.000000 6.809608E+00
38.000000 -6.000000 7.459524E+00
38.000000 -8.000000 -2.174584E+01
38.000000 -10.000000 -5.634567E+01
38.000000 -12.000000 -7.007445E+01
38.000000 -14.000000 -6.200725E+01
38.000000 -16.000000 -4.741316E+01
38.000000 -18.000000 -4.390104E+01
38.000000 -20.000000 -5.095366E+01
38.000000 -22.000000 -6.163352E+01
38.000000 -24.000000 -6.013878E+01
38.000000 -26.000000 -5.144932E+01
38.000000 -28.000000 -3.831043E+01
38.000000 -30.000000 -1.692738E+01
38.000000 -32.000000 2.091473E+00
38.000000 -34.000000 1.369247E+01
38.000000 -36.000000 5.674820E+00
38.000000 -38.000000 -9.724644E+00
38.000000 -40.000000 -3.035043E+01
40.000000 40.000000 -4.331566E+01
40.000000 38.000000 -6.408810E+01
40.000000 36.000000 -7.038019E+01
40.000000 34.000000 -5.227522E+01
40.000000 32.000000 -1.125278E+01
40.000000 30.000000 1.958852E+01
40.000000 28.000000 2.735303E+01
40.000000 26.000000 1.428754E+01
40.000000 24.000000 -3.203444E+00
40.000000 22.000000 -2.774660E+01
40.000000 20.000000 -4.623483E+01
40.000000 18.000000 -4.100932E+01
40.000000 16.000000 -7.311398E+00
40.000000 14.000000 3.943086E+01
40.000000 12.000000 7.808135E+01
40.000000 10.000000 9.743943E+01
40.000000 8.000000 8.464629E+01
40.000000 6.000000 4.775224E+01
40.000000 4.000000 -1.751278E+00
40.000000 2.000000 -3.582173E+01
40.000000 0.000000 -4.224490E+01
40.000000 -2.000000 -2.405374E+01
40.000000 -4.000000 -1.585386E+00
40.000000 -6.000000 -1.369081E-01
40.000000 -8.000000 -2.520422E+01
40.000000 -10.000000 -5.434716E+01
40.000000 -12.000000 -6.551121E+01
40.000000 -14.000000 -6.112001E+01
40.000000 -16.000000 -5.273507E+01
40.000000 -18.000000 -5.153957E+01
40.000000 -20.000000 -5.550215E+01
40.000000 -22.000000 -6.071103E+01
40.000000 -24.000000 -5.687799E+01
40.000000 -26.000000 -4.813613E+01
40.000000 -28.000000 -3.543213E+01
40.000000 -30.000000 -1.621565E+01
40.000000 -32.000000 2.370167E-01
40.000000 -34.000000 8.830090E+00
40.000000 -36.000000 -6.364403E-01
40.000000 -38.000000 -1.348378E+01
40.000000 -40.000000 -3.040183E+01
42.000000 40.000000 -4.144353E+01
42.000000 38.000000 -6.235197E+01
42.000000 36.000000 -7.078984E+01
42.000000 34.000000 -5.396336E+01
42.000000 32.000000 -1.127999E+01
42.000000 30.000000 2.614619E+01
42.000000 28.000000 4.293194E+01
42.000000 26.000000 3.723069E+01
42.000000 24.000000 2.505397E+01
42.000000 22.000000 8.015823E-02
42.000000 20.000000 -2.263096E+01
42.000000 18.000000 -2.742951E+01
42.000000 16.000000 -4.157207E+00
42.000000 14.000000 3.302671E+01
42.000000 12.000000 6.468059E+01
42.000000 10.000000 8.073119E+01
42.000000 8.000000 7.101000E+01
42.000000 6.000000 4.113556E+01
42.000000 4.000000 3.139677E-01
42.000000 2.000000 -2.920673E+01
42.000000 0.000000 -3.666910E+01
42.000000 -2.000000 -2.428634E+01
42.000000 -4.000000 -8.968847E+00
42.000000 -6.000000 -8.515141E+00
42.000000 -8.000000 -2.652112E+01
42.000000 -10.000000 -4.746077E+01
42.000000 -12.000000 -5.518264E+01
42.000000 -14.000000 -5.495690E+01
42.000000 -16.000000 -5.335098E+01
42.000000 -18.000000 -5.549813E+01
42.000000 -20.000000 -5.898496E+01
42.000000 -22.000000 -6.143298E+01
42.000000 -24.000000 -5.667478E+01
42.000000 -26.000000 -4.686233E+01
42.000000 -28.000000 -3.416647E+01
42.000000 -30.000000 -1.696557E+01
42.000000 -32.000000 -2.924032E+00
42.000000 -34.000000 3.854874E+00
42.000000 -36.000000 -5.316301E+00
42.000000 -38.000000 -1.638092E+01
42.000000 -40.000000 -3.067042E+01
44.000000 40.000000 -3.562992E+01
44.000000 38.000000 -5.560035E+01
44.000000 36.000000 -6.668937E+01
44.000000 34.000000 -5.436002E+01
44.000000 32.000000 -1.387757E+01
44.000000 30.000000 2.725951E+01
44.000000 28.000000 5.173237E+01
44.000000 26.000000 5.451667E+01
44.000000 24.000000 5.031829E+01
44.000000 22.000000 2.956460E+01
44.000000 20.000000 8.612739E+00
44.000000 18.000000 -3.030638E+00
44.000000 16.000000 6.037507E+00
44.000000 14.000000 2.841426E+01
44.000000 12.000000 4.858356E+01
44.000000 10.000000 5.853586E+01
44.000000 8.000000 5.375436E+01
44.000000 6.000000 3.484055E+01
44.000000 4.000000 7.450181E+00
44.000000 2.000000 -1.452416E+01
44.000000 0.000000 -2.242427E+01
44.000000 -2.000000 -1.603801E+01
44.000000 -4.000000 -7.619948E+00
44.000000 -6.000000 -8.913506E+00
44.000000 -8.000000 -2.127613E+01
44.000000 -10.000000 -3.591361E+01
44.000000 -12.000000 -4.309531E+01
44.000000 -14.000000 -4.710114E+01
44.000000 -16.000000 -5.106471E+01
44.000000 -18.000000 -5.671001E+01
44.000000 -20.000000 -6.108916E+01
44.000000 -22.000000 -6.243653E+01
44.000000 -24.000000 -5.665250E+01
44.000000 -26.000000 -4.589079E+01
44.000000 -28.000000 -3.348066E+01
44.000000 -30.000000 -1.790095E+01
44.000000 -32.000000 -5.840378E+00
44.000000 -34.000000 -9.930038E-02
44.000000 -36.000000 -8.047672E+00
44.000000 -38.000000 -1.796299E+01
44.000000 -40.000000 -3.101179E+01
46.000000 40.000000 -2.613518E+01
46.000000 38.000000 -4.502961E+01
46.000000 36.000000 -5.813678E+01
46.000000 34.000000 -5.191873E+01
46.000000 32.000000 -1.665419E+01
46.000000 30.000000 2.418406E+01
46.000000 28.000000 5.333747E+01
46.000000 26.000000 6.172785E+01
46.000000 24.000000 6.230240E+01
46.000000 22.000000 4.659933E+01
46.000000 20.000000 3.125048E+01
46.000000 18.000000 1.873643E+01
46.000000 16.000000 1.779357E+01
46.000000 14.000000 2.770387E+01
46.000000 12.000000 3.707916E+01
46.000000 10.000000 4.113673E+01
46.000000 8.000000 4.126619E+01
46.000000 6.000000 3.374895E+01
46.000000 4.000000 1.941129E+01
46.000000 2.000000 4.556887E+00
46.000000 0.000000 -3.155450E+00
46.000000 -2.000000 -1.605741E+00
46.000000 -4.000000 1.469875E+00
46.000000 -6.000000 -2.154045E+00
46.000000 -8.000000 -1.154903E+01
46.000000 -10.000000 -2.323292E+01
46.000000 -12.000000 -3.287549E+01
46.000000 -14.000000 -4.020062E+01
46.000000 -16.000000 -4.759620E+01
46.000000 -18.000000 -5.527645E+01
46.000000 -20.000000 -6.043311E+01
46.000000 -22.000000 -6.124421E+01
46.000000 -24.000000 -5.432981E+01
46.000000 -26.000000 -4.342631E+01
46.000000 -28.000000 -3.135150E+01
46.000000 -30.000000 -1.834074E+01
46.000000 -32.000000 -9.465350E+00
46.000000 -34.000000 -4.321194E+00
46.000000 -36.000000 -9.934845E+00
46.000000 -38.000000 -1.796249E+01
46.000000 -40.000000 -2.990199E+01
48.000000 40.000000 -1.450066E+01
48.000000 38.000000 -3.115609E+01
48.000000 36.000000 -4.487071E+01
48.000000 34.000000 -4.505209E+01
48.000000 32.000000 -1.774006E+01
48.000000 30.000000 1.881163E+01
48.000000 28.000000 4.925559E+01
48.000000 26.000000 5.994479E+01
48.000000 24.000000 5.901076E+01
48.000000 22.000000 4.494898E+01
48.000000 20.000000 3.405645E+01
48.000000 18.000000 2.745131E+01
48.000000 16.000000 2.713601E+01
48.000000 14.000000 3.123775E+01
48.000000 12.000000 3.367840E+01
48.000000 10.000000 3.499036E+01
48.000000 8.000000 3.756092E+01
48.000000 6.000000 3.767815E+01
48.000000 4.000000 3.139602E+01
48.000000 2.000000 2.101227E+01
48.000000 0.000000 1.450138E+01
48.000000 -2.000000 1.276600E+01
48.000000 -4.000000 1.246534E+01
48.000000 -6.000000 7.222704E+00
48.000000 -8.000000 -1.896418E+00
48.000000 -10.000000 -1.373059E+01
48.000000 -12.000000 -2.572297E+01
48.000000 -14.000000 -3.447691E+01
48.000000 -16.000000 -4.203682E+01
48.000000 -18.000000 -4.979708E+01
48.000000 -20.000000 -5.550862E+01
48.000000 -22.000000 -5.622676E+01
48.000000 -24.000000 -4.976713E+01
48.000000 -26.000000 -4.027225E+01
48.000000 -28.000000 -2.977250E+01
48.000000 -30.000000 -2.003938E+01
48.000000 -32.000000 -1.408850E+01
48.000000 -34.000000 -8.115772E+00
48.000000 -36.000000 -1.010884E+01
48.000000 -38.000000 -1.597703E+01
48.000000 -40.000000 -2.725785E+01
50.000000 40.000000 -2.083518E+00
50.000000 38.000000 -1.557493E+01
50.000000 36.000000 -2.921236E+01
50.000000 34.000000 -3.520596E+01
50.000000 32.000000 -1.681882E+01
50.000000 30.000000 1.282186E+01
50.000000 28.000000 4.158131E+01
50.000000 26.000000 5.233017E+01
50.000000 24.000000 4.655202E+01
50.000000 22.000000 3.197567E+01
50.000000 20.000000 2.420340E+01
50.000000 18.000000 2.781306E+01
50.000000 16.000000 3.528596E+01
50.000000 14.000000 3.817464E+01
50.000000 12.000000 3.485748E+01
50.000000 10.000000 3.236633E+01
50.000000 8.000000 3.365271E+01
50.000000 6.000000 3.670076E+01
50.000000 4.000000 3.485449E+01
50.000000 2.000000 2.848009E+01
50.000000 0.000000 2.538221E+01
50.000000 -2.000000 2.434653E+01
50.000000 -4.000000 2.316940E+01
50.000000 -6.000000 1.536296E+01
50.000000 -8.000000 3.012450E+00
50.000000 -10.000000 -1.059190E+01
50.000000 -12.000000 -2.212203E+01
50.000000 -14.000000 -2.930378E+01
50.000000 -16.000000 -3.481283E+01
50.000000 -18.000000 -4.077754E+01
50.000000 -20.000000 -4.602374E+01
50.000000 -22.000000 -4.781370E+01
50.000000 -24.000000 -4.430361E+01
50.000000 -26.000000 -3.788441E+01
50.000000 -28.000000 -3.103231E+01
50.000000 -30.000000 -2.447860E+01
50.000000 -32.000000 -2.000971E+01
50.000000 -34.000000 -1.144589E+01
50.000000 -36.000000 -8.497296E+00
50.000000 -38.000000 -1.212961E+01
50.000000 -40.000000 -2.305048E+01
52.000000 40.000000 1.039100E+01
52.000000 38.000000 -7.886529E-01
52.000000 36.000000 -1.492905E+01
52.000000 34.000000 -2.554335E+01
52.000000 32.000000 -1.507171E+01
52.000000 30.000000 7.263894E+00
52.000000 28.000000 3.267488E+01
52.000000 26.000000 4.326455E+01
52.000000 24.000000 3.648940E+01
52.000000 22.000000 2.363434E+01
52.000000 20.000000 1.830530E+01
52.000000 18.000000 2.917259E+01
52.000000 16.000000 4.164438E+01
52.000000 14.000000 4.300088E+01
52.000000 12.000000 3.409009E+01
52.000000 10.000000 2.557030E+01
52.000000 8.000000 2.351902E+01
52.000000 6.000000 2.633594E+01
52.000000 4.000000 2.673407E+01
52.000000 2.000000 2.409389E+01
52.000000 0.000000 2.537235E+01
52.000000 -2.000000 2.842298E+01
52.000000 -4.000000 2.861558E+01
52.000000 -6.000000 1.857177E+01
52.000000 -8.000000 2.939189E+00
52.000000 -10.000000 -1.130380E+01
52.000000 -12.000000 -2.015599E+01
52.000000 -14.000000 -2.415222E+01
52.000000 -16.000000 -2.690811E+01
52.000000 -18.000000 -3.137108E+01
52.000000 -20.000000 -3.653366E+01
52.000000 -22.000000 -3.974870E+01
52.000000 -24.000000 -3.983035E+01
52.000000 -26.000000 -3.696475E+01
52.000000 -28.000000 -3.435307E+01
52.000000 -30.000000 -3.162232E+01
52.000000 -32.000000 -2.799391E+01
52.000000 -34.000000 -1.561139E+01
52.000000 -36.000000 -6.623942E+00
52.000000 -38.000000 -6.732066E+00
52.000000 -40.000000 -1.634605E+01
54.000000 40.000000 2.110750E+01
54.000000 38.000000 1.186887E+01
54.000000 36.000000 -3.133163E+00
54.000000 34.000000 -1.797102E+01
54.000000 32.000000 -1.476840E+01
54.000000 30.000000 1.460218E+00
54.000000 28.000000 2.475567E+01
54.000000 26.000000 3.858640E+01
54.000000 24.000000 3.736235E+01
54.000000 22.000000 2.838212E+01
54.000000 20.000000 2.460220E+01
54.000000 18.000000 3.590397E+01
54.000000 16.000000 4.659495E+01
54.000000 14.000000 4.330150E+01
54.000000 12.000000 2.787290E+01
54.000000 10.000000 1.251980E+01
54.000000 8.000000 8.147753E+00
54.000000 6.000000 1.034902E+01
54.000000 4.000000 1.213242E+01
54.000000 2.000000 1.251865E+01
54.000000 0.000000 1.594679E+01
54.000000 -2.000000 2.081335E+01
54.000000 -4.000000 2.174314E+01
54.000000 -6.000000 1.287678E+01
54.000000 -8.000000 -8.401587E-01
54.000000 -10.000000 -1.206940E+01
54.000000 -12.000000 -1.579237E+01
54.000000 -14.000000 -1.616145E+01
54.000000 -16.000000 -1.764869E+01
54.000000 -18.000000 -2.441305E+01
54.000000 -20.000000 -3.253055E+01
54.000000 -22.000000 -3.732971E+01
54.000000 -24.000000 -3.921735E+01
54.000000 -26.000000 -3.908388E+01
54.000000 -28.000000 -3.992657E+01
54.000000 -30.000000 -3.990880E+01
54.000000 -32.000000 -3.548759E+01
54.000000 -34.000000 -1.913599E+01
54.000000 -36.000000 -4.573494E+00
54.000000 -38.000000 -7.895279E-01
54.000000 -40.000000 -7.942629E+00
56.000000 40.000000 2.533697E+01
56.000000 38.000000 1.773632E+01
56.000000 36.000000 4.581326E+00
56.000000 34.000000 -1.339457E+01
56.000000 32.000000 -1.526356E+01
56.000000 30.000000 -3.151833E+00
56.000000 28.000000 2.032635E+01
56.000000 26.000000 3.985647E+01
56.000000 24.000000 4.809716E+01
56.000000 22.000000 4.380204E+01
56.000000 20.000000 4.147826E+01
56.000000 18.000000 4.877611E+01
56.000000 16.000000 5.343587E+01
56.000000 14.000000 4.378379E+01
56.000000 12.000000 2.087437E+01
56.000000 10.000000 -2.169031E+00
56.000000 8.000000 -1.027907E+01
56.000000 6.000000 -1.057413E+01
56.000000 4.000000 -7.998096E+00
56.000000 2.000000 -5.326473E+00
56.000000 0.000000 -1.296493E+00
56.000000 -2.000000 3.262810E+00
56.000000 -4.000000 3.738372E+00
56.000000 -6.000000 -1.989576E+00
56.000000 -8.000000 -9.358372E+00
56.000000 -10.000000 -1.251726E+01
56.000000 -12.000000 -7.642382E+00
56.000000 -14.000000 -2.988785E+00
56.000000 -16.000000 -6.551548E+00
56.000000 -18.000000 -1.940656E+01
56.000000 -20.000000 -3.262056E+01
56.000000 -22.000000 -3.988229E+01
56.000000 -24.000000 -4.243364E+01
56.000000 -26.000000 -4.328985E+01
56.000000 -28.000000 -4.607478E+01
56.000000 -30.000000 -4.627309E+01
56.000000 -32.000000 -3.931529E+01
56.000000 -34.000000 -2.135798E+01
56.000000 -36.000000 -3.661488E+00
56.000000 -38.000000 1.860626E+00
56.000000 -40.000000 -1.842920E+00
58.000000 40.000000 2.796485E+01
58.000000 38.000000 2.180783E+01
58.000000 36.000000 8.683553E+00
58.000000 34.000000 -9.918875E+00
58.000000 32.000000 -1.455354E+01
58.000000 30.000000 -3.868551E+00
58.000000 28.000000 2.015779E+01
58.000000 26.000000 4.369014E+01
58.000000 24.000000 5.656246E+01
58.000000 22.000000 5.615913E+01
58.000000 20.000000 5.693589E+01
58.000000 18.000000 6.061216E+01
58.000000 16.000000 5.873832E+01
58.000000 14.000000 4.535977E+01
58.000000 12.000000 1.940817E+01
58.000000 10.000000 -8.260069E+00
58.000000 8.000000 -2.101924E+01
58.000000 6.000000 -2.592832E+01
58.000000 4.000000 -2.339675E+01
58.000000 2.000000 -2.013103E+01
58.000000 0.000000 -1.626107E+01
58.000000 -2.000000 -1.243321E+01
58.000000 -4.000000 -1.280315E+01
58.000000 -6.000000 -1.552051E+01
58.000000 -8.000000 -1.670352E+01
