-16.000000 40.000000 2.331480E+01
-16.000000 38.000000 1.820086E+01
-16.000000 36.000000 1.576158E+01
-16.000000 34.000000 1.759319E+01
-16.000000 32.000000 2.749906E+01
-16.000000 30.000000 3.674640E+01
-16.000000 28.000000 4.176119E+01
-16.000000 26.000000 3.904513E+01
-16.000000 24.000000 3.140208E+01
-16.000000 22.000000 1.995849E+01
-16.000000 20.000000 1.181497E+01
-16.000000 18.000000 -3.051730E+00
-16.000000 16.000000 -2.353960E+01
-16.000000 14.000000 -3.807341E+01
-16.000000 12.000000 -3.392122E+01
-16.000000 10.000000 -1.788779E+01
-16.000000 8.000000 -1.168807E+01
-16.000000 6.000000 -2.353719E+01
-16.000000 4.000000 -4.299617E+01
-16.000000 2.000000 -5.452770E+01
-16.000000 0.000000 -5.945135E+01
-16.000000 -2.000000 -6.065657E+01
-16.000000 -4.000000 -5.738796E+01
-16.000000 -6.000000 -4.439097E+01
-16.000000 -8.000000 -3.259118E+01
-16.000000 -10.000000 -2.436081E+01
-16.000000 -12.000000 -1.710058E+01
-16.000000 -14.000000 -1.487736E+01
-16.000000 -16.000000 -2.137721E+01
-16.000000 -18.000000 -2.821642E+01
-16.000000 -20.000000 -2.823489E+01
-16.000000 -22.000000 -2.380294E+01
-16.000000 -24.000000 -1.687075E+01
-16.000000 -26.000000 -8.834195E+00
-16.000000 -28.000000 -2.406018E+00
-16.000000 -30.000000 3.615181E+00
-16.000000 -32.000000 1.022041E+01
-16.000000 -34.000000 1.961109E+01
-16.000000 -36.000000 1.870363E+01
-16.000000 -38.000000 7.440054E+00
-16.000000 -40.000000 -5.479446E+00
-14.000000 40.000000 1.792861E+01
-14.000000 38.000000 1.011861E+01
-14.000000 36.000000 5.815809E+00
-14.000000 34.000000 8.682071E+00
-14.000000 32.000000 2.153558E+01
-14.000000 30.000000 3.584362E+01
-14.000000 28.000000 4.631757E+01
-14.000000 26.000000 4.497069E+01
-14.000000 24.000000 3.573023E+01
-14.000000 22.000000 2.237357E+01
-14.000000 20.000000 1.438436E+01
-14.000000 18.000000 -1.081150E+00
-14.000000 16.000000 -2.411137E+01
-14.000000 14.000000 -4.225711E+01
-14.000000 12.000000 -4.033040E+01
-14.000000 10.000000 -2.615610E+01
-14.000000 8.000000 -2.233719E+01
-14.000000 6.000000 -3.697298E+01
-14.000000 4.000000 -5.627115E+01
-14.000000 2.000000 -6.397823E+01
-14.000000 0.000000 -6.479867E+01
-14.000000 -2.000000 -6.322960E+01
-14.000000 -4.000000 -5.893081E+01
-14.000000 -6.000000 -4.277777E+01
-14.000000 -8.000000 -2.589734E+01
-14.000000 -10.000000 -1.238749E+01
-14.000000 -12.000000 -2.393774E+00
-14.000000 -14.000000 -2.712531E+00
-14.000000 -16.000000 -1.830673E+01
-14.000000 -18.000000 -3.390093E+01
-14.000000 -20.000000 -3.792585E+01
-14.000000 -22.000000 -3.285855E+01
-14.000000 -24.000000 -2.334255E+01
-14.000000 -26.000000 -1.346913E+01
-14.000000 -28.000000 -4.820476E+00
-14.000000 -30.000000 4.532764E+00
-14.000000 -32.000000 1.438184E+01
-14.000000 -34.000000 2.488467E+01
-14.000000 -36.000000 2.048637E+01
-14.000000 -38.000000 5.786383E+00
-14.000000 -40.000000 -9.080719E+00
-12.000000 40.000000 1.323390E+01
-12.000000 38.000000 1.086528E+00
-12.000000 36.000000 -7.571434E+00
-12.000000 34.000000 -8.366303E+00
-12.000000 32.000000 3.386839E+00
-12.000000 30.000000 1.984405E+01
-12.000000 28.000000 3.329388E+01
-12.000000 26.000000 3.482402E+01
-12.000000 24.000000 2.575370E+01
-12.000000 22.000000 1.364074E+01
-12.000000 20.000000 8.532002E+00
-12.000000 18.000000 -3.325362E+00
-12.000000 16.000000 -2.278612E+01
-12.000000 14.000000 -3.743494E+01
-12.000000 12.000000 -3.405870E+01
-12.000000 10.000000 -2.067676E+01
-12.000000 8.000000 -2.060642E+01
-12.000000 6.000000 -3.608784E+01
-12.000000 4.000000 -5.226513E+01
-12.000000 2.000000 -5.433874E+01
-12.000000 0.000000 -5.022240E+01
-12.000000 -2.000000 -4.868877E+01
-12.000000 -4.000000 -4.852280E+01
-12.000000 -6.000000 -3.788259E+01
-12.000000 -8.000000 -2.315057E+01
-12.000000 -10.000000 -8.284029E+00
-12.000000 -12.000000 4.025015E+00
-12.000000 -14.000000 3.125079E+00
-12.000000 -16.000000 -1.722121E+01
-12.000000 -18.000000 -3.750045E+01
-12.000000 -20.000000 -4.389359E+01
-12.000000 -22.000000 -3.946889E+01
-12.000000 -24.000000 -2.981193E+01
-12.000000 -26.000000 -1.995493E+01
-12.000000 -28.000000 -9.827998E+00
-12.000000 -30.000000 2.026710E+00
-12.000000 -32.000000 1.580018E+01
-12.000000 -34.000000 2.812659E+01
-12.000000 -36.000000 2.032743E+01
-12.000000 -38.000000 3.011006E+00
-12.000000 -40.000000 -1.301655E+01
-10.000000 40.000000 1.157479E+01
-10.000000 38.000000 -7.594673E+00
-10.000000 36.000000 -2.243587E+01
-10.000000 34.000000 -2.990111E+01
-10.000000 32.000000 -2.182521E+01
-10.000000 30.000000 -6.560347E+00
-10.000000 28.000000 5.548902E+00
-10.000000 26.000000 8.479318E+00
-10.000000 24.000000 1.960182E-01
-10.000000 22.000000 -7.779896E+00
-10.000000 20.000000 -8.167830E+00
-10.000000 18.000000 -1.360699E+01
-10.000000 16.000000 -2.470525E+01
-10.000000 14.000000 -3.087926E+01
-10.000000 12.000000 -2.319472E+01
-10.000000 10.000000 -7.719277E+00
-10.000000 8.000000 -6.981122E+00
-10.000000 6.000000 -1.808512E+01
-10.000000 4.000000 -2.968475E+01
-10.000000 2.000000 -2.719496E+01
-10.000000 0.000000 -1.761723E+01
-10.000000 -2.000000 -1.678873E+01
-10.000000 -4.000000 -2.512246E+01
-10.000000 -6.000000 -2.690250E+01
-10.000000 -8.000000 -2.115391E+01
-10.000000 -10.000000 -1.100108E+01
-10.000000 -12.000000 3.288384E+00
-10.000000 -14.000000 4.723465E+00
-10.000000 -16.000000 -1.412962E+01
-10.000000 -18.000000 -3.438036E+01
-10.000000 -20.000000 -4.164930E+01
-10.000000 -22.000000 -3.956316E+01
-10.000000 -24.000000 -3.277060E+01
-10.000000 -26.000000 -2.451109E+01
-10.000000 -28.000000 -1.441414E+01
-10.000000 -30.000000 -1.645117E+00
-10.000000 -32.000000 1.420888E+01
-10.000000 -34.000000 2.738633E+01
-10.000000 -36.000000 1.777455E+01
-10.000000 -38.000000 -4.838181E-01
-10.000000 -40.000000 -1.703893E+01
-8.000000 40.000000 1.151078E+01
-8.000000 38.000000 -1.512636E+01
-8.000000 36.000000 -3.561422E+01
-8.000000 34.000000 -4.842261E+01
-8.000000 32.000000 -4.341177E+01
-8.000000 30.000000 -3.129130E+01
-8.000000 28.000000 -2.269385E+01
-8.000000 26.000000 -2.188018E+01
-8.000000 24.000000 -3.169697E+01
-8.000000 22.000000 -3.520939E+01
-8.000000 20.000000 -3.064749E+01
-8.000000 18.000000 -2.890458E+01
-8.000000 16.000000 -3.064366E+01
-8.000000 14.000000 -2.993737E+01
-8.000000 12.000000 -1.992049E+01
-8.000000 10.000000 -1.830464E+00
-8.000000 8.000000 4.864883E+00
-8.000000 6.000000 3.551103E+00
-8.000000 4.000000 -4.822302E-01
-8.000000 2.000000 5.163748E+00
-8.000000 0.000000 1.771455E+01
-8.000000 -2.000000 1.808269E+01
-8.000000 -4.000000 3.338470E+00
-8.000000 -6.000000 -8.996985E+00
-8.000000 -8.000000 -1.355503E+01
-8.000000 -10.000000 -1.111624E+01
-8.000000 -12.000000 3.991034E+00
-8.000000 -14.000000 9.802333E+00
-8.000000 -16.000000 -4.472940E+00
-8.000000 -18.000000 -2.191331E+01
-8.000000 -20.000000 -2.911483E+01
-8.000000 -22.000000 -3.020116E+01
-8.000000 -24.000000 -2.784371E+01
-8.000000 -26.000000 -2.325631E+01
-8.000000 -28.000000 -1.644574E+01
-8.000000 -30.000000 -6.305057E+00
-8.000000 -32.000000 7.344367E+00
-8.000000 -34.000000 2.031009E+01
-8.000000 -36.000000 1.197933E+01
-8.000000 -38.000000 -3.939543E+00
-8.000000 -40.000000 -1.956795E+01
-6.000000 40.000000 1.091751E+01
-6.000000 38.000000 -1.973009E+01
-6.000000 36.000000 -4.314374E+01
-6.000000 34.000000 -5.780040E+01
-6.000000 32.000000 -5.441731E+01
-6.000000 30.000000 -4.534593E+01
-6.000000 28.000000 -3.972847E+01
-6.000000 26.000000 -4.172160E+01
-6.000000 24.000000 -5.344168E+01
-6.000000 22.000000 -5.405992E+01
-6.000000 20.000000 -4.793952E+01
-6.000000 18.000000 -4.141588E+01
-6.000000 16.000000 -3.696001E+01
-6.000000 14.000000 -3.535379E+01
-6.000000 12.000000 -2.813192E+01
-6.000000 10.000000 -9.680735E+00
-6.000000 8.000000 5.974228E+00
-6.000000 6.000000 1.615593E+01
-6.000000 4.000000 2.077961E+01
-6.000000 2.000000 2.853747E+01
-6.000000 0.000000 4.027524E+01
-6.000000 -2.000000 3.855358E+01
-6.000000 -4.000000 2.451609E+01
-6.000000 -6.000000 1.054422E+01
-6.000000 -8.000000 2.935410E-01
-6.000000 -10.000000 -2.333996E+00
-6.000000 -12.000000 1.190046E+01
-6.000000 -14.000000 1.995020E+01
-6.000000 -16.000000 8.826967E+00
-6.000000 -18.000000 -5.415607E+00
-6.000000 -20.000000 -1.153034E+01
-6.000000 -22.000000 -1.373626E+01
-6.000000 -24.000000 -1.506473E+01
-6.000000 -26.000000 -1.579865E+01
-6.000000 -28.000000 -1.532967E+01
-6.000000 -30.000000 -1.098350E+01
-6.000000 -32.000000 -1.880303E+00
-6.000000 -34.000000 1.000483E+01
-6.000000 -36.000000 4.846834E+00
-6.000000 -38.000000 -6.599615E+00
-6.000000 -40.000000 -1.996826E+01
-4.000000 40.000000 8.323363E+00
-4.000000 38.000000 -2.150106E+01
-4.000000 36.000000 -4.397227E+01
-4.000000 34.000000 -5.650927E+01
-4.000000 32.000000 -5.242359E+01
-4.000000 30.000000 -4.484260E+01
-4.000000 28.000000 -4.085824E+01
-4.000000 26.000000 -4.304804E+01
-4.000000 24.000000 -5.343472E+01
-4.000000 22.000000 -5.281447E+01
-4.000000 20.000000 -4.747528E+01
-4.000000 18.000000 -4.044737E+01
-4.000000 16.000000 -3.685696E+01
-4.000000 14.000000 -3.889298E+01
-4.000000 12.000000 -3.663110E+01
-4.000000 10.000000 -2.142082E+01
-4.000000 8.000000 -2.668576E-01
-4.000000 6.000000 1.559109E+01
-4.000000 4.000000 2.369795E+01
-4.000000 2.000000 3.079789E+01
-4.000000 0.000000 3.999757E+01
-4.000000 -2.000000 3.885875E+01
-4.000000 -4.000000 3.194624E+01
-4.000000 -6.000000 2.492106E+01
-4.000000 -8.000000 1.648146E+01
-4.000000 -10.000000 1.318615E+01
-4.000000 -12.000000 2.052282E+01
-4.000000 -14.000000 2.401260E+01
-4.000000 -16.000000 1.326961E+01
-4.000000 -18.000000 1.846309E+00
-4.000000 -20.000000 -4.156802E-01
-4.000000 -22.000000 1.618178E+00
-4.000000 -24.000000 1.291882E+00
-4.000000 -26.000000 -2.561535E+00
-4.000000 -28.000000 -8.537217E+00
-4.000000 -30.000000 -1.183767E+01
-4.000000 -32.000000 -9.863407E+00
-4.000000 -34.000000 -7.143691E-01
-4.000000 -36.000000 -6.526959E-01
-4.000000 -38.000000 -6.399959E+00
-4.000000 -40.000000 -1.738014E+01
-2.000000 40.000000 6.497071E+00
-2.000000 38.000000 -1.856385E+01
-2.000000 36.000000 -3.745513E+01
-2.000000 34.000000 -4.723772E+01
-2.000000 32.000000 -4.240932E+01
-2.000000 30.000000 -3.540094E+01
-2.000000 28.000000 -3.156715E+01
-2.000000 26.000000 -3.136739E+01
-2.000000 24.000000 -3.522784E+01
-2.000000 22.000000 -3.071132E+01
-2.000000 20.000000 -2.410706E+01
-2.000000 18.000000 -1.942436E+01
-2.000000 16.000000 -2.181277E+01
-2.000000 14.000000 -2.961100E+01
-2.000000 12.000000 -3.314314E+01
-2.000000 10.000000 -2.366529E+01
-2.000000 8.000000 -4.763524E+00
-2.000000 6.000000 7.503894E+00
-2.000000 4.000000 1.119270E+01
-2.000000 2.000000 1.391419E+01
-2.000000 0.000000 1.929509E+01
-2.000000 -2.000000 2.175969E+01
-2.000000 -4.000000 2.393082E+01
-2.000000 -6.000000 2.686549E+01
-2.000000 -8.000000 2.372596E+01
-2.000000 -10.000000 2.154737E+01
-2.000000 -12.000000 1.989945E+01
-2.000000 -14.000000 1.577889E+01
-2.000000 -16.000000 3.577443E+00
-2.000000 -18.000000 -5.320130E+00
-2.000000 -20.000000 -8.118792E-01
-2.000000 -22.000000 9.555120E+00
-2.000000 -24.000000 1.575312E+01
-2.000000 -26.000000 1.387407E+01
-2.000000 -28.000000 3.419665E+00
-2.000000 -30.000000 -8.116940E+00
-2.000000 -32.000000 -1.484431E+01
-2.000000 -34.000000 -7.502508E+00
-2.000000 -36.000000 -1.105156E+00
-2.000000 -38.000000 -1.644781E+00
-2.000000 -40.000000 -1.075842E+01
0.000000 40.000000 7.806126E+00
0.000000 38.000000 -1.013716E+01
0.000000 36.000000 -2.441783E+01
0.000000 34.000000 -3.299689E+01
0.000000 32.000000 -2.982377E+01
0.000000 30.000000 -2.472066E+01
0.000000 28.000000 -2.112332E+01
0.000000 26.000000 -1.687255E+01
0.000000 24.000000 -9.768027E+00
0.000000 22.000000 2.940318E+00
0.000000 20.000000 1.463759E+01
0.000000 18.000000 1.665139E+01
0.000000 16.000000 7.033803E+00
0.000000 14.000000 -8.566563E+00
0.000000 12.000000 -1.901986E+01
0.000000 10.000000 -1.552274E+01
0.000000 8.000000 -4.942782E+00
0.000000 6.000000 -1.919148E+00
0.000000 4.000000 -6.101885E+00
0.000000 2.000000 -8.579452E+00
0.000000 0.000000 -5.834740E+00
0.000000 -2.000000 -1.378898E+00
0.000000 -4.000000 4.145885E+00
0.000000 -6.000000 1.295314E+01
0.000000 -8.000000 1.542952E+01
0.000000 -10.000000 1.400397E+01
0.000000 -12.000000 9.067613E+00
0.000000 -14.000000 2.719085E+00
0.000000 -16.000000 -8.482494E+00
0.000000 -18.000000 -1.493573E+01
0.000000 -20.000000 -6.025514E+00
0.000000 -22.000000 9.997259E+00
0.000000 -24.000000 2.409372E+01
0.000000 -26.000000 2.775559E+01
0.000000 -28.000000 1.477853E+01
0.000000 -30.000000 -3.213437E+00
0.000000 -32.000000 -1.583426E+01
0.000000 -34.000000 -8.361315E+00
0.000000 -36.000000 3.701088E+00
0.000000 -38.000000 7.001012E+00
0.000000 -40.000000 -8.015323E-01
2.000000 40.000000 1.100245E+01
2.000000 38.000000 1.555891E-01
2.000000 36.000000 -9.195581E+00
2.000000 34.000000 -1.701513E+01
2.000000 32.000000 -1.696561E+01
2.000000 30.000000 -1.533727E+01
2.000000 28.000000 -1.291207E+01
2.000000 26.000000 -4.391517E+00
2.000000 24.000000 1.377451E+01
2.000000 22.000000 3.464720E+01
2.000000 20.000000 5.178356E+01
2.000000 18.000000 5.279299E+01
2.000000 16.000000 3.726110E+01
2.000000 14.000000 1.455723E+01
2.000000 12.000000 -2.056127E+00
2.000000 10.000000 -4.188958E+00
2.000000 8.000000 -2.980423E+00
2.000000 6.000000 -9.249550E+00
2.000000 4.000000 -2.038644E+01
2.000000 2.000000 -2.563721E+01
2.000000 0.000000 -2.471175E+01
2.000000 -2.000000 -2.174549E+01
2.000000 -4.000000 -1.866133E+01
2.000000 -6.000000 -8.689771E+00
2.000000 -8.000000 -6.409700E-01
2.000000 -10.000000 1.084324E+00
2.000000 -12.000000 -1.306960E-01
2.000000 -14.000000 -3.057847E+00
2.000000 -16.000000 -1.144339E+01
2.000000 -18.000000 -1.753785E+01
2.000000 -20.000000 -9.228403E+00
2.000000 -22.000000 7.459794E+00
2.000000 -24.000000 2.558338E+01
2.000000 -26.000000 3.410323E+01
2.000000 -28.000000 2.208979E+01
2.000000 -30.000000 1.577968E+00
2.000000 -32.000000 -1.324524E+01
2.000000 -34.000000 -5.366385E+00
2.000000 -36.000000 1.086033E+01
2.000000 -38.000000 1.729148E+01
2.000000 -40.000000 1.041941E+01
4.000000 40.000000 1.560675E+01
4.000000 38.000000 9.737104E+00
4.000000 36.000000 3.704152E+00
4.000000 34.000000 -3.303310E+00
4.000000 32.000000 -4.932223E+00
4.000000 30.000000 -4.585898E+00
4.000000 28.000000 -1.928328E+00
4.000000 26.000000 7.372298E+00
4.000000 24.000000 2.677887E+01
4.000000 22.000000 4.741726E+01
4.000000 20.000000 6.389217E+01
4.000000 18.000000 6.435921E+01
4.000000 16.000000 4.816299E+01
4.000000 14.000000 2.599773E+01
4.000000 12.000000 9.610776E+00
4.000000 10.000000 6.996448E+00
4.000000 8.000000 3.405529E+00
4.000000 6.000000 -7.527908E+00
4.000000 4.000000 -2.175954E+01
4.000000 2.000000 -2.712881E+01
4.000000 0.000000 -2.760876E+01
4.000000 -2.000000 -2.882854E+01
4.000000 -4.000000 -3.159586E+01
4.000000 -6.000000 -2.514055E+01
4.000000 -8.000000 -1.479998E+01
4.000000 -10.000000 -7.903392E+00
4.000000 -12.000000 -9.616780E-02
4.000000 -14.000000 2.164441E+00
4.000000 -16.000000 -5.447878E+00
4.000000 -18.000000 -1.331567E+01
4.000000 -20.000000 -7.919957E+00
4.000000 -22.000000 5.919734E+00
4.000000 -24.000000 2.208466E+01
4.000000 -26.000000 3.076873E+01
4.000000 -28.000000 2.223452E+01
4.000000 -30.000000 3.847554E+00
4.000000 -32.000000 -8.922205E+00
4.000000 -34.000000 1.572460E+00
4.000000 -36.000000 2.067933E+01
4.000000 -38.000000 2.783256E+01
4.000000 -40.000000 2.076578E+01
6.000000 40.000000 2.186387E+01
6.000000 38.000000 1.746751E+01
6.000000 36.000000 1.152303E+01
6.000000 34.000000 5.291595E+00
6.000000 32.000000 5.486715E+00
6.000000 30.000000 8.852100E+00
6.000000 28.000000 1.352414E+01
6.000000 26.000000 1.893584E+01
6.000000 24.000000 2.827546E+01
6.000000 22.000000 3.822073E+01
6.000000 20.000000 4.587848E+01
6.000000 18.000000 4.269120E+01
6.000000 16.000000 3.069184E+01
6.000000 14.000000 1.677537E+01
6.000000 12.000000 7.958645E+00
6.000000 10.000000 1.086315E+01
6.000000 8.000000 1.173160E+01
6.000000 6.000000 3.869406E+00
6.000000 4.000000 -7.742486E+00
6.000000 2.000000 -1.037432E+01
6.000000 0.000000 -9.391459E+00
6.000000 -2.000000 -1.409237E+01
6.000000 -4.000000 -2.347700E+01
6.000000 -6.000000 -2.451518E+01
6.000000 -8.000000 -1.876243E+01
6.000000 -10.000000 -1.199732E+01
6.000000 -12.000000 1.736624E+00
6.000000 -14.000000 8.247528E+00
6.000000 -16.000000 1.396936E+00
6.000000 -18.000000 -6.262804E+00
6.000000 -20.000000 -2.595211E+00
6.000000 -22.000000 7.124422E+00
6.000000 -24.000000 1.840182E+01
6.000000 -26.000000 2.399531E+01
6.000000 -28.000000 1.665453E+01
6.000000 -30.000000 1.350688E+00
6.000000 -32.000000 -6.226852E+00
6.000000 -34.000000 9.588475E+00
6.000000 -36.000000 3.081383E+01
6.000000 -38.000000 3.734900E+01
6.000000 -40.000000 2.991952E+01
8.000000 40.000000 2.673503E+01
8.000000 38.000000 2.234528E+01
8.000000 36.000000 1.637631E+01
8.000000 34.000000 1.121725E+01
8.000000 32.000000 1.442828E+01
8.000000 30.000000 2.141842E+01
8.000000 28.000000 2.697810E+01
8.000000 26.000000 2.811834E+01
8.000000 24.000000 2.651415E+01
8.000000 22.000000 2.158134E+01
8.000000 20.000000 1.462551E+01
8.000000 18.000000 2.851290E+00
8.000000 16.000000 -5.655404E+00
8.000000 14.000000 -9.633088E+00
8.000000 12.000000 -6.926954E+00
8.000000 10.000000 4.185815E+00
8.000000 8.000000 1.574800E+01
8.000000 6.000000 1.582670E+01
8.000000 4.000000 8.376183E+00
8.000000 2.000000 1.070915E+01
8.000000 0.000000 1.921507E+01
8.000000 -2.000000 1.877239E+01
8.000000 -4.000000 9.357759E+00
8.000000 -6.000000 1.725350E+00
8.000000 -8.000000 -3.384931E+00
8.000000 -10.000000 -6.229901E+00
8.000000 -12.000000 2.906504E-01
8.000000 -14.000000 5.264179E+00
8.000000 -16.000000 6.820965E-02
8.000000 -18.000000 -4.911590E+00
8.000000 -20.000000 -2.508135E-01
8.000000 -22.000000 7.906458E+00
8.000000 -24.000000 1.607737E+01
8.000000 -26.000000 1.830452E+01
8.000000 -28.000000 1.057409E+01
8.000000 -30.000000 -1.985318E+00
8.000000 -32.000000 -5.058812E+00
8.000000 -34.000000 1.411201E+01
8.000000 -36.000000 3.615846E+01
8.000000 -38.000000 4.348994E+01
8.000000 -40.000000 3.749159E+01
10.000000 40.000000 2.793027E+01
10.000000 38.000000 2.452870E+01
10.000000 36.000000 2.090693E+01
10.000000 34.000000 1.752585E+01
10.000000 32.000000 2.184264E+01
10.000000 30.000000 2.906721E+01
10.000000 28.000000 3.229173E+01
10.000000 26.000000 3.055854E+01
10.000000 24.000000 2.278656E+01
10.000000 22.000000 7.019876E+00
10.000000 20.000000 -1.250823E+01
10.000000 18.000000 -3.288172E+01
10.000000 16.000000 -3.757919E+01
10.000000 14.000000 -3.141906E+01
10.000000 12.000000 -1.603226E+01
10.000000 10.000000 4.460383E+00
10.000000 8.000000 2.046363E+01
10.000000 6.000000 2.275859E+01
10.000000 4.000000 1.592980E+01
10.000000 2.000000 2.259336E+01
10.000000 0.000000 4.200236E+01
10.000000 -2.000000 5.440576E+01
10.000000 -4.000000 5.265543E+01
10.000000 -6.000000 4.201081E+01
10.000000 -8.000000 2.337486E+01
10.000000 -10.000000 3.604065E+00
10.000000 -12.000000 -7.106190E+00
10.000000 -14.000000 -1.018165E+01
10.000000 -16.000000 -1.370913E+01
10.000000 -18.000000 -1.335768E+01
10.000000 -20.000000 -4.720186E+00
10.000000 -22.000000 4.933399E+00
10.000000 -24.000000 1.297576E+01
10.000000 -26.000000 1.393710E+01
10.000000 -28.000000 7.304711E+00
10.000000 -30.000000 -2.454718E+00
10.000000 -32.000000 -2.543600E+00
10.000000 -34.000000 1.727834E+01
10.000000 -36.000000 3.781195E+01
10.000000 -38.000000 4.402705E+01
10.000000 -40.000000 3.951932E+01
12.000000 40.000000 2.682314E+01
12.000000 38.000000 2.539154E+01
12.000000 36.000000 2.482263E+01
12.000000 34.000000 2.433719E+01
12.000000 32.000000 2.650630E+01
12.000000 30.000000 2.888280E+01
12.000000 28.000000 2.748263E+01
12.000000 26.000000 2.332215E+01
12.000000 24.000000 1.396429E+01
12.000000 22.000000 -2.778965E+00
12.000000 20.000000 -2.384030E+01
12.000000 18.000000 -4.430780E+01
12.000000 16.000000 -4.429045E+01
12.000000 14.000000 -3.272600E+01
12.000000 12.000000 -1.126246E+01
12.000000 10.000000 1.336071E+01
12.000000 8.000000 2.666576E+01
12.000000 6.000000 2.560726E+01
12.000000 4.000000 1.733151E+01
12.000000 2.000000 2.854873E+01
12.000000 0.000000 5.943707E+01
12.000000 -2.000000 8.588016E+01
12.000000 -4.000000 9.261906E+01
12.000000 -6.000000 7.831524E+01
12.000000 -8.000000 4.591350E+01
12.000000 -10.000000 6.419162E+00
12.000000 -12.000000 -2.134894E+01
12.000000 -14.000000 -3.357301E+01
12.000000 -16.000000 -3.579445E+01
12.000000 -18.000000 -2.891986E+01
12.000000 -20.000000 -1.426605E+01
12.000000 -22.000000 -1.562017E+00
12.000000 -24.000000 7.478111E+00
12.000000 -26.000000 1.000793E+01
12.000000 -28.000000 5.555654E+00
12.000000 -30.000000 -1.416525E+00
12.000000 -32.000000 6.365166E-01
12.000000 -34.000000 1.898502E+01
12.000000 -36.000000 3.522000E+01
12.000000 -38.000000 3.841068E+01
12.000000 -40.000000 3.469841E+01
14.000000 40.000000 2.362544E+01
14.000000 38.000000 2.650095E+01
14.000000 36.000000 2.935769E+01
14.000000 34.000000 3.138135E+01
14.000000 32.000000 2.896650E+01
14.000000 30.000000 2.278131E+01
14.000000 28.000000 1.509101E+01
14.000000 26.000000 8.949681E+00
14.000000 24.000000 3.210478E-01
14.000000 22.000000 -8.938132E+00
14.000000 20.000000 -1.905011E+01
14.000000 18.000000 -2.904431E+01
14.000000 16.000000 -2.620056E+01
14.000000 14.000000 -1.561433E+01
14.000000 12.000000 1.933095E+00
14.000000 10.000000 2.066860E+01
14.000000 8.000000 2.679140E+01
14.000000 6.000000 2.158013E+01
14.000000 4.000000 1.454630E+01
14.000000 2.000000 3.287037E+01
14.000000 0.000000 7.659465E+01
14.000000 -2.000000 1.158786E+02
14.000000 -4.000000 1.300523E+02
14.000000 -6.000000 1.108979E+02
14.000000 -8.000000 6.638219E+01
14.000000 -10.000000 1.006126E+01
14.000000 -12.000000 -3.047423E+01
14.000000 -14.000000 -5.012771E+01
14.000000 -16.000000 -5.288972E+01
14.000000 -18.000000 -4.364796E+01
14.000000 -20.000000 -2.697601E+01
14.000000 -22.000000 -1.452565E+01
14.000000 -24.000000 -6.513282E+00
14.000000 -26.000000 -1.293872E+00
14.000000 -28.000000 -2.946907E+00
14.000000 -30.000000 -6.351315E+00
14.000000 -32.000000 -3.013662E+00
14.000000 -34.000000 1.279593E+01
14.000000 -36.000000 2.602387E+01
14.000000 -38.000000 2.922310E+01
14.000000 -40.000000 2.804650E+01
16.000000 40.000000 1.847603E+01
16.000000 38.000000 2.730514E+01
16.000000 36.000000 3.368562E+01
16.000000 34.000000 3.600751E+01
16.000000 32.000000 2.934330E+01
16.000000 30.000000 1.605560E+01
16.000000 28.000000 2.598723E+00
16.000000 26.000000 -5.235428E+00
16.000000 24.000000 -1.246155E+01
16.000000 22.000000 -1.151907E+01
16.000000 20.000000 -6.768290E+00
16.000000 18.000000 -1.989657E+00
16.000000 16.000000 4.483029E+00
16.000000 14.000000 1.091475E+01
16.000000 12.000000 1.555796E+01
16.000000 10.000000 1.938546E+01
16.000000 8.000000 1.451377E+01
16.000000 6.000000 4.084305E+00
16.000000 4.000000 1.766424E+00
16.000000 2.000000 3.200733E+01
16.000000 0.000000 9.066081E+01
16.000000 -2.000000 1.426925E+02
16.000000 -4.000000 1.653827E+02
16.000000 -6.000000 1.478173E+02
16.000000 -8.000000 9.804560E+01
16.000000 -10.000000 3.417169E+01
16.000000 -12.000000 -1.591724E+01
16.000000 -14.000000 -4.283537E+01
16.000000 -16.000000 -5.139908E+01
16.000000 -18.000000 -4.947771E+01
16.000000 -20.000000 -4.223801E+01
16.000000 -22.000000 -3.824817E+01
16.000000 -24.000000 -3.483918E+01
16.000000 -26.000000 -2.797287E+01
16.000000 -28.000000 -2.596054E+01
16.000000 -30.000000 -2.539088E+01
16.000000 -32.000000 -1.994399E+01
16.000000 -34.000000 -3.193353E+00
16.000000 -36.000000 1.350174E+01
16.000000 -38.000000 2.068894E+01
16.000000 -40.000000 2.463130E+01
18.000000 40.000000 1.463184E+01
18.000000 38.000000 2.487287E+01
18.000000 36.000000 3.244459E+01
18.000000 34.000000 3.433388E+01
18.000000 32.000000 2.582292E+01
18.000000 30.000000 1.073054E+01
18.000000 28.000000 -3.767999E+00
18.000000 26.000000 -1.179814E+01
18.000000 24.000000 -1.725822E+01
18.000000 22.000000 -9.303019E+00
18.000000 20.000000 6.102692E+00
18.000000 18.000000 2.285236E+01
18.000000 16.000000 3.262438E+01
18.000000 14.000000 3.331735E+01
18.000000 12.000000 2.370640E+01
18.000000 10.000000 1.211170E+01
18.000000 8.000000 -3.792625E+00
18.000000 6.000000 -2.153622E+01
18.000000 4.000000 -2.062229E+01
18.000000 2.000000 2.205855E+01
18.000000 0.000000 9.253750E+01
18.000000 -2.000000 1.536843E+02
18.000000 -4.000000 1.836261E+02
18.000000 -6.000000 1.756721E+02
18.000000 -8.000000 1.316388E+02
18.000000 -10.000000 7.320264E+01
18.000000 -12.000000 2.163093E+01
18.000000 -14.000000 -8.038520E+00
18.000000 -16.000000 -2.575313E+01
18.000000 -18.000000 -4.027659E+01
18.000000 -20.000000 -5.315967E+01
18.000000 -22.000000 -6.518734E+01
18.000000 -24.000000 -6.926157E+01
18.000000 -26.000000 -6.275771E+01
18.000000 -28.000000 -5.659958E+01
18.000000 -30.000000 -5.319701E+01
18.000000 -32.000000 -4.417720E+01
18.000000 -34.000000 -2.420230E+01
18.000000 -36.000000 -1.312970E+00
18.000000 -38.000000 1.400417E+01
18.000000 -40.000000 2.669772E+01
20.000000 40.000000 1.245307E+01
20.000000 38.000000 1.959028E+01
20.000000 36.000000 2.625180E+01
20.000000 34.000000 2.857038E+01
20.000000 32.000000 2.113193E+01
20.000000 30.000000 8.938225E+00
20.000000 28.000000 -1.635013E+00
20.000000 26.000000 -6.970048E+00
20.000000 24.000000 -9.661985E+00
20.000000 22.000000 -1.254656E+00
20.000000 20.000000 1.426367E+01
20.000000 18.000000 3.064854E+01
20.000000 16.000000 3.744019E+01
20.000000 14.000000 3.404497E+01
20.000000 12.000000 2.097620E+01
20.000000 10.000000 5.879104E+00
20.000000 8.000000 -1.452023E+01
20.000000 6.000000 -3.745308E+01
20.000000 4.000000 -3.921967E+01
20.000000 2.000000 3.288879E+00
20.000000 0.000000 7.285423E+01
20.000000 -2.000000 1.345332E+02
20.000000 -4.000000 1.687021E+02
20.000000 -6.000000 1.700093E+02
20.000000 -8.000000 1.367290E+02
20.000000 -10.000000 9.402248E+01
20.000000 -12.000000 5.768376E+01
20.000000 -14.000000 3.798213E+01
20.000000 -16.000000 1.740911E+01
20.000000 -18.000000 -1.327302E+01
20.000000 -20.000000 -4.753686E+01
20.000000 -22.000000 -7.565486E+01
20.000000 -24.000000 -8.796603E+01
20.000000 -26.000000 -8.368005E+01
20.000000 -28.000000 -7.524934E+01
20.000000 -30.000000 -7.134002E+01
20.000000 -32.000000 -6.086181E+01
20.000000 -34.000000 -4.051356E+01
20.000000 -36.000000 -1.550206E+01
20.000000 -38.000000 7.783983E+00
20.000000 -40.000000 2.905827E+01
22.000000 40.000000 9.166861E+00
22.000000 38.000000 1.400690E+01
22.000000 36.000000 1.994182E+01
22.000000 34.000000 2.340611E+01
22.000000 32.000000 1.872863E+01
22.000000 30.000000 1.079665E+01
22.000000 28.000000 5.138736E+00
22.000000 26.000000 4.072550E+00
22.000000 24.000000 4.993043E+00
22.000000 22.000000 9.667281E+00
22.000000 20.000000 1.675424E+01
22.000000 18.000000 2.164839E+01
22.000000 16.000000 1.953579E+01
22.000000 14.000000 1.336073E+01
22.000000 12.000000 5.606516E+00
22.000000 10.000000 -1.092035E+00
22.000000 8.000000 -1.662870E+01
22.000000 6.000000 -3.959739E+01
22.000000 4.000000 -4.847116E+01
22.000000 2.000000 -1.887708E+01
22.000000 0.000000 3.797912E+01
22.000000 -2.000000 9.117031E+01
22.000000 -4.000000 1.206452E+02
22.000000 -6.000000 1.214291E+02
22.000000 -8.000000 9.715372E+01
22.000000 -10.000000 7.205103E+01
22.000000 -12.000000 6.719590E+01
22.000000 -14.000000 7.249897E+01
22.000000 -16.000000 5.972701E+01
22.000000 -18.000000 2.184609E+01
22.000000 -20.000000 -2.302590E+01
22.000000 -22.000000 -5.736652E+01
22.000000 -24.000000 -7.400969E+01
22.000000 -26.000000 -7.249204E+01
22.000000 -28.000000 -6.522163E+01
22.000000 -30.000000 -6.197982E+01
22.000000 -32.000000 -5.388461E+01
22.000000 -34.000000 -3.738201E+01
22.000000 -36.000000 -1.809960E+01
22.000000 -38.000000 4.986401E-01
22.000000 -40.000000 1.883318E+01
24.000000 40.000000 3.850200E+00
24.000000 38.000000 8.700423E+00
24.000000 36.000000 1.550979E+01
24.000000 34.000000 2.092828E+01
24.000000 32.000000 1.841676E+01
24.000000 30.000000 1.242182E+01
24.000000 28.000000 1.011465E+01
24.000000 26.000000 1.292357E+01
24.000000 24.000000 1.670226E+01
24.000000 22.000000 1.684289E+01
24.000000 20.000000 1.405503E+01
24.000000 18.000000 5.919085E+00
24.000000 16.000000 -5.555885E+00
24.000000 14.000000 -1.442657E+01
24.000000 12.000000 -1.530366E+01
24.000000 10.000000 -1.061808E+01
24.000000 8.000000 -1.771980E+01
24.000000 6.000000 -3.925545E+01
24.000000 4.000000 -5.486646E+01
24.000000 2.000000 -3.753112E+01
24.000000 0.000000 5.749872E+00
24.000000 -2.000000 4.759212E+01
24.000000 -4.000000 6.718959E+01
24.000000 -6.000000 6.072914E+01
24.000000 -8.000000 4.108187E+01
24.000000 -10.000000 2.892114E+01
24.000000 -12.000000 5.302885E+01
24.000000 -14.000000 8.493773E+01
24.000000 -16.000000 8.597407E+01
24.000000 -18.000000 5.225351E+01
24.000000 -20.000000 1.122701E+01
24.000000 -22.000000 -1.970109E+01
24.000000 -24.000000 -3.708606E+01
24.000000 -26.000000 -3.874777E+01
24.000000 -28.000000 -3.462341E+01
24.000000 -30.000000 -3.169751E+01
24.000000 -32.000000 -2.691265E+01
24.000000 -34.000000 -1.771396E+01
24.000000 -36.000000 -1.004222E+01
24.000000 -38.000000 -5.740641E+00
24.000000 -40.000000 -8.827953E-01
26.000000 40.000000 -3.034726E+00
26.000000 38.000000 3.224377E+00
26.000000 36.000000 1.279483E+01
26.000000 34.000000 2.063974E+01
26.000000 32.000000 1.868528E+01
26.000000 30.000000 1.112278E+01
26.000000 28.000000 9.237949E+00
26.000000 26.000000 1.416299E+01
26.000000 24.000000 1.983663E+01
26.000000 22.000000 1.722798E+01
26.000000 20.000000 8.104766E+00
26.000000 18.000000 -8.414925E+00
26.000000 16.000000 -2.532095E+01
26.000000 14.000000 -3.441352E+01
26.000000 12.000000 -2.964455E+01
26.000000 10.000000 -1.760856E+01
26.000000 8.000000 -1.936387E+01
26.000000 6.000000 -3.972062E+01
26.000000 4.000000 -5.924623E+01
26.000000 2.000000 -4.982750E+01
26.000000 0.000000 -1.627266E+01
26.000000 -2.000000 1.739503E+01
26.000000 -4.000000 3.029785E+01
26.000000 -6.000000 1.828033E+01
26.000000 -8.000000 -1.449171E+00
26.000000 -10.000000 -7.470022E+00
26.000000 -12.000000 3.490388E+01
26.000000 -14.000000 8.711379E+01
26.000000 -16.000000 1.033677E+02
26.000000 -18.000000 8.003094E+01
26.000000 -20.000000 4.793347E+01
26.000000 -22.000000 2.078501E+01
26.000000 -24.000000 1.250252E+00
26.000000 -26.000000 -6.702166E+00
26.000000 -28.000000 -6.400144E+00
26.000000 -30.000000 -4.597816E+00
26.000000 -32.000000 -3.007980E+00
26.000000 -34.000000 -1.504374E+00
26.000000 -36.000000 -3.996870E+00
26.000000 -38.000000 -8.514635E+00
26.000000 -40.000000 -1.475779E+01
28.000000 40.000000 -9.592128E+00
28.000000 38.000000 -3.667835E+00
28.000000 36.000000 7.036049E+00
28.000000 34.000000 1.662436E+01
28.000000 32.000000 1.649361E+01
28.000000 30.000000 8.240939E+00
28.000000 28.000000 4.960782E+00
28.000000 26.000000 9.665325E+00
28.000000 24.000000 1.611886E+01
28.000000 22.000000 1.287738E+01
28.000000 20.000000 1.367252E+00
28.000000 18.000000 -1.718000E+01
28.000000 16.000000 -3.172008E+01
28.000000 14.000000 -3.462114E+01
28.000000 12.000000 -2.494575E+01
28.000000 10.000000 -1.297454E+01
28.000000 8.000000 -1.712931E+01
28.000000 6.000000 -3.936254E+01
28.000000 4.000000 -6.114817E+01
28.000000 2.000000 -5.510479E+01
28.000000 0.000000 -2.745983E+01
28.000000 -2.000000 1.536665E+00
28.000000 -4.000000 1.349277E+01
28.000000 -6.000000 1.386559E+00
28.000000 -8.000000 -1.991119E+01
28.000000 -10.000000 -2.418718E+01
28.000000 -12.000000 2.456450E+01
28.000000 -14.000000 8.747111E+01
28.000000 -16.000000 1.167611E+02
28.000000 -18.000000 1.047253E+02
28.000000 -20.000000 7.703453E+01
28.000000 -22.000000 4.733701E+01
28.000000 -24.000000 2.231163E+01
28.000000 -26.000000 7.805488E+00
28.000000 -28.000000 5.252320E+00
28.000000 -30.000000 5.188414E+00
28.000000 -32.000000 5.264583E+00
28.000000 -34.000000 4.523832E+00
28.000000 -36.000000 -2.411278E+00
28.000000 -38.000000 -9.253890E+00
28.000000 -40.000000 -1.974858E+01
30.000000 40.000000 -1.464396E+01
30.000000 38.000000 -1.325860E+01
30.000000 36.000000 -5.331721E+00
30.000000 34.000000 5.035074E+00
30.000000 32.000000 9.909942E+00
30.000000 30.000000 5.291281E+00
30.000000 28.000000 2.784518E+00
30.000000 26.000000 7.937012E+00
30.000000 24.000000 1.478224E+01
30.000000 22.000000 1.101430E+01
30.000000 20.000000 -3.095692E+00
30.000000 18.000000 -2.152814E+01
30.000000 16.000000 -2.808916E+01
30.000000 14.000000 -1.909990E+01
30.000000 12.000000 -2.737989E+00
30.000000 10.000000 8.286761E+00
30.000000 8.000000 -1.269690E+00
30.000000 6.000000 -2.765144E+01
30.000000 4.000000 -5.231825E+01
30.000000 2.000000 -5.007464E+01
30.000000 0.000000 -3.019833E+01
30.000000 -2.000000 -7.943779E+00
30.000000 -4.000000 5.551044E+00
30.000000 -6.000000 -1.527857E+00
30.000000 -8.000000 -2.231768E+01
30.000000 -10.000000 -2.695464E+01
30.000000 -12.000000 1.866091E+01
30.000000 -14.000000 8.206508E+01
30.000000 -16.000000 1.177263E+02
30.000000 -18.000000 1.143753E+02
30.000000 -20.000000 8.880146E+01
30.000000 -22.000000 5.365368E+01
30.000000 -24.000000 2.168081E+01
30.000000 -26.000000 4.228812E+00
30.000000 -28.000000 6.491070E-01
30.000000 -30.000000 -7.768850E-01
30.000000 -32.000000 -5.331125E-01
30.000000 -34.000000 1.778330E+00
30.000000 -36.000000 -3.324352E+00
30.000000 -38.000000 -9.024197E+00
30.000000 -40.000000 -1.844132E+01
32.000000 40.000000 -2.025016E+01
32.000000 38.000000 -2.437784E+01
32.000000 36.000000 -1.945977E+01
32.000000 34.000000 -8.024923E+00
32.000000 32.000000 1.405870E+00
32.000000 30.000000 1.295178E+00
32.000000 28.000000 2.327195E+00
32.000000 26.000000 1.072309E+01
32.000000 24.000000 1.939094E+01
32.000000 22.000000 1.552422E+01
32.000000 20.000000 -8.189001E-01
32.000000 18.000000 -1.899314E+01
32.000000 16.000000 -1.826281E+01
32.000000 14.000000 1.667953E+00
32.000000 12.000000 2.633713E+01
32.000000 10.000000 4.074447E+01
32.000000 8.000000 2.750266E+01
32.000000 6.000000 -1.158615E+00
32.000000 4.000000 -2.931048E+01
32.000000 2.000000 -3.626532E+01
32.000000 0.000000 -3.081840E+01
32.000000 -2.000000 -2.041492E+01
32.000000 -4.000000 -8.553513E+00
32.000000 -6.000000 -8.039158E+00
32.000000 -8.000000 -2.333232E+01
32.000000 -10.000000 -2.648184E+01
32.000000 -12.000000 1.362330E+01
32.000000 -14.000000 6.995930E+01
32.000000 -16.000000 1.037990E+02
32.000000 -18.000000 1.031577E+02
32.000000 -20.000000 7.813506E+01
32.000000 -22.000000 3.954008E+01
32.000000 -24.000000 4.554750E+00
32.000000 -26.000000 -1.148162E+01
32.000000 -28.000000 -1.297702E+01
32.000000 -30.000000 -1.284490E+01
32.000000 -32.000000 -1.106022E+01
32.000000 -34.000000 -4.912104E+00
32.000000 -36.000000 -4.404192E+00
32.000000 -38.000000 -6.636936E+00
32.000000 -40.000000 -1.276326E+01
34.000000 40.000000 -2.678324E+01
34.000000 38.000000 -3.412676E+01
34.000000 36.000000 -3.029530E+01
34.000000 34.000000 -1.819710E+01
34.000000 32.000000 -6.694341E+00
34.000000 30.000000 -4.171116E+00
34.000000 28.000000 1.018728E+00
34.000000 26.000000 1.386253E+01
34.000000 24.000000 2.545842E+01
34.000000 22.000000 2.320786E+01
34.000000 20.000000 9.025525E+00
34.000000 18.000000 -6.508747E+00
34.000000 16.000000 -2.314342E+00
34.000000 14.000000 2.161499E+01
34.000000 12.000000 5.019238E+01
34.000000 10.000000 6.804107E+01
34.000000 8.000000 5.406406E+01
34.000000 6.000000 2.726453E+01
34.000000 4.000000 -4.785116E+00
34.000000 2.000000 -2.407920E+01
34.000000 0.000000 -3.300096E+01
34.000000 -2.000000 -3.415665E+01
34.000000 -4.000000 -2.859993E+01
34.000000 -6.000000 -2.450721E+01
34.000000 -8.000000 -3.118392E+01
34.000000 -10.000000 -2.957186E+01
34.000000 -12.000000 6.873387E+00
34.000000 -14.000000 5.454714E+01
34.000000 -16.000000 8.237809E+01
34.000000 -18.000000 7.959264E+01
34.000000 -20.000000 5.320971E+01
34.000000 -22.000000 1.399329E+01
34.000000 -24.000000 -1.845698E+01
34.000000 -26.000000 -2.916968E+01
34.000000 -28.000000 -2.615791E+01
34.000000 -30.000000 -2.269177E+01
34.000000 -32.000000 -1.704186E+01
34.000000 -34.000000 -6.565563E+00
34.000000 -36.000000 -1.364120E+00
34.000000 -38.000000 -2.188265E+00
34.000000 -40.000000 -6.434690E+00
36.000000 40.000000 -3.116265E+01
36.000000 38.000000 -4.055584E+01
36.000000 36.000000 -3.782343E+01
36.000000 34.000000 -2.645612E+01
36.000000 32.000000 -1.293519E+01
36.000000 30.000000 -7.947285E+00
36.000000 28.000000 1.811819E-01
36.000000 26.000000 1.432545E+01
36.000000 24.000000 2.735708E+01
36.000000 22.000000 2.911162E+01
36.000000 20.000000 2.128391E+01
36.000000 18.000000 1.087056E+01
36.000000 16.000000 1.354830E+01
36.000000 14.000000 3.146120E+01
36.000000 12.000000 5.500326E+01
36.000000 10.000000 7.146326E+01
36.000000 8.000000 5.770068E+01
36.000000 6.000000 3.545284E+01
36.000000 4.000000 5.074884E+00
36.000000 2.000000 -1.847246E+01
36.000000 0.000000 -3.407248E+01
36.000000 -2.000000 -4.272131E+01
36.000000 -4.000000 -4.379389E+01
36.000000 -6.000000 -3.964125E+01
36.000000 -8.000000 -3.969033E+01
36.000000 -10.000000 -3.343476E+01
36.000000 -12.000000 1.385905E+00
36.000000 -14.000000 4.187464E+01
36.000000 -16.000000 6.240736E+01
36.000000 -18.000000 5.540078E+01
36.000000 -20.000000 2.941884E+01
36.000000 -22.000000 -5.384637E+00
36.000000 -24.000000 -3.085212E+01
36.000000 -26.000000 -3.516335E+01
36.000000 -28.000000 -2.996389E+01
36.000000 -30.000000 -2.465937E+01
36.000000 -32.000000 -1.444562E+01
36.000000 -34.000000 -1.449499E-01
36.000000 -36.000000 6.307242E+00
36.000000 -38.000000 3.183265E+00
36.000000 -40.000000 -2.462060E+00
38.000000 40.000000 -2.990988E+01
38.000000 38.000000 -4.378330E+01
38.000000 36.000000 -4.485282E+01
38.000000 34.000000 -3.400630E+01
38.000000 32.000000 -1.587728E+01
38.000000 30.000000 -6.843319E+00
38.000000 28.000000 2.329578E+00
38.000000 26.000000 1.309992E+01
38.000000 24.000000 2.372612E+01
38.000000 22.000000 3.107261E+01
38.000000 20.000000 3.294703E+01
38.000000 18.000000 2.807472E+01
38.000000 16.000000 2.301600E+01
38.000000 14.000000 2.470880E+01
38.000000 12.000000 3.230266E+01
38.000000 10.000000 3.834396E+01
38.000000 8.000000 2.522162E+01
38.000000 6.000000 8.108836E+00
38.000000 4.000000 -1.136104E+01
38.000000 2.000000 -2.437109E+01
38.000000 0.000000 -3.333462E+01
38.000000 -2.000000 -4.089691E+01
38.000000 -4.000000 -4.435538E+01
38.000000 -6.000000 -4.107086E+01
38.000000 -8.000000 -3.759747E+01
38.000000 -10.000000 -2.742578E+01
38.000000 -12.000000 6.218472E+00
38.000000 -14.000000 4.041154E+01
38.000000 -16.000000 5.378772E+01
38.000000 -18.000000 4.367409E+01
38.000000 -20.000000 2.146782E+01
38.000000 -22.000000 -4.970196E+00
38.000000 -24.000000 -2.248644E+01
38.000000 -26.000000 -2.383279E+01
38.000000 -28.000000 -2.041530E+01
38.000000 -30.000000 -1.546811E+01
38.000000 -32.000000 -4.511653E+00
38.000000 -34.000000 1.007818E+01
38.000000 -36.000000 1.484437E+01
38.000000 -38.000000 7.741133E+00
38.000000 -40.000000 -1.401459E+00
40.000000 40.000000 -2.470074E+01
40.000000 38.000000 -4.405656E+01
40.000000 36.000000 -4.982707E+01
40.000000 34.000000 -3.747752E+01
40.000000 32.000000 -1.297611E+01
40.000000 30.000000 6.222410E-01
40.000000 28.000000 9.226256E+00
40.000000 26.000000 1.432931E+01
40.000000 24.000000 1.962438E+01
40.000000 22.000000 2.970309E+01
40.000000 20.000000 3.967805E+01
40.000000 18.000000 3.670155E+01
40.000000 16.000000 2.046303E+01
40.000000 14.000000 2.387193E+00
40.000000 12.000000 -1.044759E+01
40.000000 10.000000 -1.981786E+01
40.000000 8.000000 -3.079854E+01
40.000000 6.000000 -4.302850E+01
40.000000 4.000000 -4.582250E+01
40.000000 2.000000 -3.969268E+01
40.000000 0.000000 -3.369506E+01
40.000000 -2.000000 -3.344059E+01
40.000000 -4.000000 -3.397376E+01
40.000000 -6.000000 -2.917361E+01
40.000000 -8.000000 -2.142813E+01
40.000000 -10.000000 -6.156105E+00
40.000000 -12.000000 2.383224E+01
40.000000 -14.000000 5.143826E+01
40.000000 -16.000000 5.985372E+01
40.000000 -18.000000 5.052643E+01
40.000000 -20.000000 3.359552E+01
40.000000 -22.000000 1.535044E+01
40.000000 -24.000000 3.335129E+00
40.000000 -26.000000 4.531031E-01
40.000000 -28.000000 -8.678436E-03
40.000000 -30.000000 1.919996E+00
40.000000 -32.000000 9.523805E+00
40.000000 -34.000000 2.094582E+01
40.000000 -36.000000 2.182375E+01
40.000000 -38.000000 1.038984E+01
40.000000 -40.000000 -3.803417E+00
42.000000 40.000000 -2.311718E+01
42.000000 38.000000 -4.288962E+01
42.000000 36.000000 -4.798241E+01
42.000000 34.000000 -3.077997E+01
42.000000 32.000000 -6.862898E-01
42.000000 30.000000 1.620822E+01
42.000000 28.000000 2.245985E+01
42.000000 26.000000 2.047000E+01
42.000000 24.000000 1.867385E+01
42.000000 22.000000 2.569109E+01
42.000000 20.000000 3.579989E+01
42.000000 18.000000 2.943644E+01
42.000000 16.000000 5.635967E+00
42.000000 14.000000 -2.314017E+01
42.000000 12.000000 -4.641118E+01
42.000000 10.000000 -6.406530E+01
42.000000 8.000000 -7.271758E+01
42.000000 6.000000 -8.291985E+01
42.000000 4.000000 -7.284883E+01
42.000000 2.000000 -5.114736E+01
42.000000 0.000000 -3.407066E+01
42.000000 -2.000000 -2.824522E+01
42.000000 -4.000000 -2.555320E+01
42.000000 -6.000000 -1.725399E+01
42.000000 -8.000000 -4.458187E+00
42.000000 -10.000000 1.517219E+01
42.000000 -12.000000 3.992382E+01
42.000000 -14.000000 6.204388E+01
42.000000 -16.000000 6.894578E+01
42.000000 -18.000000 6.363528E+01
42.000000 -20.000000 5.413776E+01
42.000000 -22.000000 4.372970E+01
42.000000 -24.000000 3.488418E+01
42.000000 -26.000000 2.945231E+01
42.000000 -28.000000 2.493632E+01
42.000000 -30.000000 2.206329E+01
42.000000 -32.000000 2.437793E+01
42.000000 -34.000000 2.963623E+01
42.000000 -36.000000 2.471747E+01
42.000000 -38.000000 1.031216E+01
42.000000 -40.000000 -9.392408E+00
44.000000 40.000000 -2.766764E+01
44.000000 38.000000 -4.126055E+01
44.000000 36.000000 -3.999813E+01
44.000000 34.000000 -1.662889E+01
44.000000 32.000000 1.651417E+01
44.000000 30.000000 3.402884E+01
44.000000 28.000000 3.636006E+01
44.000000 26.000000 2.780408E+01
44.000000 24.000000 1.998858E+01
44.000000 22.000000 2.138364E+01
44.000000 20.000000 2.559682E+01
44.000000 18.000000 1.347771E+01
44.000000 16.000000 -1.045397E+01
44.000000 14.000000 -3.341529E+01
44.000000 12.000000 -4.754397E+01
44.000000 10.000000 -5.802929E+01
44.000000 8.000000 -6.474589E+01
44.000000 6.000000 -7.482943E+01
44.000000 4.000000 -6.750896E+01
44.000000 2.000000 -4.806847E+01
44.000000 0.000000 -3.298065E+01
44.000000 -2.000000 -2.815065E+01
44.000000 -4.000000 -2.539352E+01
44.000000 -6.000000 -1.543285E+01
44.000000 -8.000000 -4.989376E-01
44.000000 -10.000000 1.865628E+01
44.000000 -12.000000 3.805630E+01
44.000000 -14.000000 5.462987E+01
44.000000 -16.000000 6.106574E+01
44.000000 -18.000000 5.990822E+01
44.000000 -20.000000 5.950303E+01
44.000000 -22.000000 5.915394E+01
44.000000 -24.000000 5.601975E+01
44.000000 -26.000000 5.074384E+01
44.000000 -28.000000 4.363358E+01
44.000000 -30.000000 3.648145E+01
44.000000 -32.000000 3.292592E+01
44.000000 -34.000000 3.221620E+01
44.000000 -36.000000 2.334722E+01
44.000000 -38.000000 8.714250E+00
44.000000 -40.000000 -1.404674E+01
46.000000 40.000000 -3.358260E+01
46.000000 38.000000 -3.712617E+01
46.000000 36.000000 -2.787010E+01
46.000000 34.000000 -2.171888E+00
46.000000 32.000000 2.870422E+01
46.000000 30.000000 4.194617E+01
46.000000 28.000000 3.942935E+01
46.000000 26.000000 2.796666E+01
46.000000 24.000000 1.803280E+01
46.000000 22.000000 1.699907E+01
46.000000 20.000000 1.783883E+01
46.000000 18.000000 4.887386E+00
46.000000 16.000000 -1.359560E+01
46.000000 14.000000 -2.246773E+01
46.000000 12.000000 -1.831278E+01
46.000000 10.000000 -1.058712E+01
46.000000 8.000000 -1.324520E+01
46.000000 6.000000 -2.340920E+01
46.000000 4.000000 -2.983636E+01
46.000000 2.000000 -2.656714E+01
46.000000 0.000000 -2.248046E+01
46.000000 -2.000000 -2.448474E+01
46.000000 -4.000000 -2.616645E+01
46.000000 -6.000000 -1.841483E+01
46.000000 -8.000000 -5.193998E+00
46.000000 -10.000000 8.437688E+00
46.000000 -12.000000 2.293949E+01
46.000000 -14.000000 3.303347E+01
46.000000 -16.000000 3.379893E+01
46.000000 -18.000000 3.105498E+01
46.000000 -20.000000 3.633696E+01
46.000000 -22.000000 4.530493E+01
46.000000 -24.000000 5.030968E+01
46.000000 -26.000000 4.930064E+01
46.000000 -28.000000 4.362875E+01
46.000000 -30.000000 3.493630E+01
46.000000 -32.000000 2.834823E+01
46.000000 -34.000000 2.669823E+01
46.000000 -36.000000 1.901001E+01
46.000000 -38.000000 6.553334E+00
46.000000 -40.000000 -1.350155E+01
48.000000 40.000000 -3.537535E+01
48.000000 38.000000 -3.108166E+01
48.000000 36.000000 -1.724860E+01
48.000000 34.000000 6.159525E+00
48.000000 32.000000 2.962827E+01
48.000000 30.000000 3.434680E+01
48.000000 28.000000 2.725772E+01
48.000000 26.000000 1.693746E+01
48.000000 24.000000 8.811534E+00
48.000000 22.000000 1.076472E+01
48.000000 20.000000 1.518204E+01
48.000000 18.000000 8.270735E+00
48.000000 16.000000 -2.121380E+00
48.000000 14.000000 9.844522E-01
48.000000 12.000000 1.914123E+01
48.000000 10.000000 4.255826E+01
48.000000 8.000000 4.401089E+01
48.000000 6.000000 3.267041E+01
48.000000 4.000000 1.366794E+01
48.000000 2.000000 2.005698E+00
48.000000 0.000000 -4.119800E+00
48.000000 -2.000000 -1.357000E+01
48.000000 -4.000000 -2.108664E+01
48.000000 -6.000000 -1.714853E+01
48.000000 -8.000000 -9.255786E+00
48.000000 -10.000000 -3.808804E+00
48.000000 -12.000000 6.906670E+00
48.000000 -14.000000 1.198847E+01
48.000000 -16.000000 4.373123E+00
48.000000 -18.000000 -4.455497E+00
48.000000 -20.000000 1.006989E-01
48.000000 -22.000000 1.181065E+01
48.000000 -24.000000 2.122751E+01
48.000000 -26.000000 2.444856E+01
48.000000 -28.000000 2.289645E+01
48.000000 -30.000000 1.628564E+01
48.000000 -32.000000 1.089846E+01
48.000000 -34.000000 1.110011E+01
48.000000 -36.000000 8.818347E+00
48.000000 -38.000000 2.405311E+00
48.000000 -40.000000 -9.895184E+00
50.000000 40.000000 -3.199156E+01
50.000000 38.000000 -2.545817E+01
50.000000 36.000000 -1.307619E+01
50.000000 34.000000 4.623141E+00
50.000000 32.000000 1.893245E+01
50.000000 30.000000 1.569326E+01
50.000000 28.000000 6.223630E+00
50.000000 26.000000 -8.478441E-01
50.000000 24.000000 -4.165802E+00
50.000000 22.000000 4.034091E+00
50.000000 20.000000 1.553965E+01
50.000000 18.000000 1.543129E+01
50.000000 16.000000 1.020655E+01
50.000000 14.000000 1.829934E+01
50.000000 12.000000 4.224884E+01
50.000000 10.000000 7.250370E+01
50.000000 8.000000 7.692161E+01
50.000000 6.000000 6.620511E+01
50.000000 4.000000 4.345186E+01
50.000000 2.000000 2.585111E+01
50.000000 0.000000 1.565763E+01
50.000000 -2.000000 3.016255E+00
50.000000 -4.000000 -6.910762E+00
50.000000 -6.000000 -8.320645E+00
50.000000 -8.000000 -7.568989E+00
50.000000 -10.000000 -7.590934E+00
50.000000 -12.000000 -1.911923E+00
50.000000 -14.000000 -2.906926E+00
50.000000 -16.000000 -1.692665E+01
50.000000 -18.000000 -3.136417E+01
50.000000 -20.000000 -3.216970E+01
50.000000 -22.000000 -2.382279E+01
50.000000 -24.000000 -1.561840E+01
50.000000 -26.000000 -1.122412E+01
50.000000 -28.000000 -9.358537E+00
50.000000 -30.000000 -1.185271E+01
50.000000 -32.000000 -1.434924E+01
50.000000 -34.000000 -1.219076E+01
50.000000 -36.000000 -6.971066E+00
50.000000 -38.000000 -4.039333E+00
50.000000 -40.000000 -6.934568E+00
52.000000 40.000000 -3.076756E+01
52.000000 38.000000 -2.481363E+01
52.000000 36.000000 -1.590959E+01
52.000000 34.000000 -4.805040E+00
52.000000 32.000000 2.992562E+00
52.000000 30.000000 -1.130907E+00
52.000000 28.000000 -7.041268E+00
52.000000 26.000000 -1.013544E+01
52.000000 24.000000 -9.399069E+00
52.000000 22.000000 2.189217E+00
52.000000 20.000000 1.573085E+01
52.000000 18.000000 1.706884E+01
52.000000 16.000000 1.171676E+01
52.000000 14.000000 1.741191E+01
52.000000 12.000000 3.980078E+01
52.000000 10.000000 6.944100E+01
52.000000 8.000000 7.661754E+01
52.000000 6.000000 6.786679E+01
52.000000 4.000000 4.847327E+01
52.000000 2.000000 3.253866E+01
52.000000 0.000000 2.279850E+01
52.000000 -2.000000 1.098224E+01
52.000000 -4.000000 3.049015E+00
52.000000 -6.000000 -1.039455E+00
52.000000 -8.000000 -4.077259E+00
52.000000 -10.000000 -4.679156E+00
52.000000 -12.000000 -4.165881E+00
52.000000 -14.000000 -9.887767E+00
52.000000 -16.000000 -2.654350E+01
