-18.000000 4.000000 2.652914E+00
-18.000000 2.000000 1.824389E+01
-18.000000 0.000000 3.443479E+01
-18.000000 -2.000000 4.781065E+01
-18.000000 -4.000000 5.989472E+01
-18.000000 -6.000000 6.191300E+01
-18.000000 -8.000000 5.704306E+01
-18.000000 -10.000000 5.309175E+01
-18.000000 -12.000000 4.235465E+01
-18.000000 -14.000000 3.156041E+01
-18.000000 -16.000000 2.904489E+01
-18.000000 -18.000000 3.648117E+01
-18.000000 -20.000000 4.267353E+01
-18.000000 -22.000000 4.266052E+01
-18.000000 -24.000000 3.756442E+01
-18.000000 -26.000000 3.275105E+01
-18.000000 -28.000000 3.039904E+01
-18.000000 -30.000000 3.077123E+01
-18.000000 -32.000000 3.090868E+01
-18.000000 -34.000000 2.840002E+01
-18.000000 -36.000000 2.230539E+01
-18.000000 -38.000000 1.665029E+01
-18.000000 -40.000000 1.325236E+01
-16.000000 40.000000 3.697192E+01
-16.000000 38.000000 2.822849E+01
-16.000000 36.000000 1.096737E+01
-16.000000 34.000000 -8.212444E+00
-16.000000 32.000000 -1.385954E+01
-16.000000 30.000000 -1.118964E+01
-16.000000 28.000000 -1.609121E+01
-16.000000 26.000000 -2.773683E+01
-16.000000 24.000000 -5.001183E+01
-16.000000 22.000000 -5.843248E+01
-16.000000 20.000000 -5.132499E+01
-16.000000 18.000000 -1.731503E+01
-16.000000 16.000000 3.628319E+01
-16.000000 14.000000 8.950628E+01
-16.000000 12.000000 1.181737E+02
-16.000000 10.000000 1.083174E+02
-16.000000 8.000000 6.774509E+01
-16.000000 6.000000 2.958408E+01
-16.000000 4.000000 1.423795E+01
-16.000000 2.000000 1.872159E+01
-16.000000 0.000000 2.639671E+01
-16.000000 -2.000000 3.611885E+01
-16.000000 -4.000000 4.901235E+01
-16.000000 -6.000000 5.764435E+01
-16.000000 -8.000000 5.974167E+01
-16.000000 -10.000000 5.977095E+01
-16.000000 -12.000000 5.097615E+01
-16.000000 -14.000000 4.344923E+01
-16.000000 -16.000000 4.287699E+01
-16.000000 -18.000000 4.646298E+01
-16.000000 -20.000000 4.681081E+01
-16.000000 -22.000000 4.294568E+01
-16.000000 -24.000000 3.534490E+01
-16.000000 -26.000000 2.664852E+01
-16.000000 -28.000000 1.960518E+01
-16.000000 -30.000000 1.451841E+01
-16.000000 -32.000000 1.214214E+01
-16.000000 -34.000000 1.321824E+01
-16.000000 -36.000000 1.313068E+01
-16.000000 -38.000000 1.115847E+01
-16.000000 -40.000000 9.885703E+00
-14.000000 40.000000 3.015284E+01
-14.000000 38.000000 2.555243E+01
-14.000000 36.000000 1.280804E+01
-14.000000 34.000000 -2.378258E+00
-14.000000 32.000000 -6.453552E+00
-14.000000 30.000000 -4.981895E+00
-14.000000 28.000000 -1.514280E+01
-14.000000 26.000000 -3.329836E+01
-14.000000 24.000000 -5.663675E+01
-14.000000 22.000000 -6.224681E+01
-14.000000 20.000000 -5.173663E+01
-14.000000 18.000000 -9.960545E+00
-14.000000 16.000000 5.734913E+01
-14.000000 14.000000 1.260422E+02
-14.000000 12.000000 1.637315E+02
-14.000000 10.000000 1.546065E+02
-14.000000 8.000000 1.031509E+02
-14.000000 6.000000 5.246261E+01
-14.000000 4.000000 2.448512E+01
-14.000000 2.000000 1.735622E+01
-14.000000 0.000000 1.491320E+01
-14.000000 -2.000000 1.785869E+01
-14.000000 -4.000000 2.921750E+01
-14.000000 -6.000000 4.213091E+01
-14.000000 -8.000000 4.973789E+01
-14.000000 -10.000000 5.347159E+01
-14.000000 -12.000000 4.737731E+01
-14.000000 -14.000000 4.298915E+01
-14.000000 -16.000000 4.291577E+01
-14.000000 -18.000000 4.113998E+01
-14.000000 -20.000000 3.502970E+01
-14.000000 -22.000000 2.956682E+01
-14.000000 -24.000000 2.416374E+01
-14.000000 -26.000000 1.638320E+01
-14.000000 -28.000000 7.444020E+00
-14.000000 -30.000000 -1.161405E+00
-14.000000 -32.000000 -4.989066E+00
-14.000000 -34.000000 -8.086181E-01
-14.000000 -36.000000 4.473174E+00
-14.000000 -38.000000 6.519222E+00
-14.000000 -40.000000 7.459136E+00
-12.000000 40.000000 2.217987E+01
-12.000000 38.000000 2.118740E+01
-12.000000 36.000000 1.363385E+01
-12.000000 34.000000 4.368465E+00
-12.000000 32.000000 3.598198E+00
-12.000000 30.000000 7.743874E+00
-12.000000 28.000000 1.085907E+00
-12.000000 26.000000 -1.438527E+01
-12.000000 24.000000 -3.529673E+01
-12.000000 22.000000 -4.258732E+01
-12.000000 20.000000 -3.478574E+01
-12.000000 18.000000 4.073601E+00
-12.000000 16.000000 7.365260E+01
-12.000000 14.000000 1.500748E+02
-12.000000 12.000000 1.972200E+02
-12.000000 10.000000 1.927716E+02
-12.000000 8.000000 1.330460E+02
-12.000000 6.000000 6.837329E+01
-12.000000 4.000000 2.588111E+01
-12.000000 2.000000 8.348534E+00
-12.000000 0.000000 -1.811161E+00
-12.000000 -2.000000 -2.913010E+00
-12.000000 -4.000000 6.688076E+00
-12.000000 -6.000000 1.994910E+01
-12.000000 -8.000000 2.955974E+01
-12.000000 -10.000000 3.417074E+01
-12.000000 -12.000000 3.034684E+01
-12.000000 -14.000000 2.884054E+01
-12.000000 -16.000000 2.874695E+01
-12.000000 -18.000000 2.368682E+01
-12.000000 -20.000000 1.469819E+01
-12.000000 -22.000000 1.000402E+01
-12.000000 -24.000000 8.023810E+00
-12.000000 -26.000000 3.322981E+00
-12.000000 -28.000000 -3.950656E+00
-12.000000 -30.000000 -1.091936E+01
-12.000000 -32.000000 -1.307205E+01
-12.000000 -34.000000 -7.431365E+00
-12.000000 -36.000000 -1.455978E+00
-12.000000 -38.000000 1.312490E+00
-12.000000 -40.000000 3.653551E+00
-10.000000 40.000000 1.309501E+01
-10.000000 38.000000 1.532444E+01
-10.000000 36.000000 1.208624E+01
-10.000000 34.000000 8.784119E+00
-10.000000 32.000000 1.294299E+01
-10.000000 30.000000 2.433300E+01
-10.000000 28.000000 2.897328E+01
-10.000000 26.000000 2.312534E+01
-10.000000 24.000000 7.127258E+00
-10.000000 22.000000 -6.233829E+00
-10.000000 20.000000 -6.614342E+00
-10.000000 18.000000 2.146859E+01
-10.000000 16.000000 8.469940E+01
-10.000000 14.000000 1.601420E+02
-10.000000 12.000000 2.121780E+02
-10.000000 10.000000 2.121062E+02
-10.000000 8.000000 1.500938E+02
-10.000000 6.000000 7.822983E+01
-10.000000 4.000000 2.403683E+01
-10.000000 2.000000 -3.828186E+00
-10.000000 0.000000 -2.044480E+01
-10.000000 -2.000000 -2.454657E+01
-10.000000 -4.000000 -1.696177E+01
-10.000000 -6.000000 -4.903706E+00
-10.000000 -8.000000 4.222200E+00
-10.000000 -10.000000 7.990065E+00
-10.000000 -12.000000 5.516592E+00
-10.000000 -14.000000 4.630390E+00
-10.000000 -16.000000 4.006332E+00
-10.000000 -18.000000 -1.433922E+00
-10.000000 -20.000000 -9.513556E+00
-10.000000 -22.000000 -1.187654E+01
-10.000000 -24.000000 -9.834096E+00
-10.000000 -26.000000 -1.034072E+01
-10.000000 -28.000000 -1.352603E+01
-10.000000 -30.000000 -1.562910E+01
-10.000000 -32.000000 -1.416978E+01
-10.000000 -34.000000 -8.034900E+00
-10.000000 -36.000000 -3.978842E+00
-10.000000 -38.000000 -2.401315E+00
-10.000000 -40.000000 1.792221E-01
-8.000000 40.000000 3.011234E+00
-8.000000 38.000000 8.064213E+00
-8.000000 36.000000 8.006369E+00
-8.000000 34.000000 9.933844E+00
-8.000000 32.000000 2.025834E+01
-8.000000 30.000000 4.021349E+01
-8.000000 28.000000 5.627842E+01
-8.000000 26.000000 5.938789E+01
-8.000000 24.000000 5.138290E+01
-8.000000 22.000000 3.423094E+01
-8.000000 20.000000 2.716854E+01
-8.000000 18.000000 4.454190E+01
-8.000000 16.000000 9.728746E+01
-8.000000 14.000000 1.646313E+02
-8.000000 12.000000 2.142270E+02
-8.000000 10.000000 2.172842E+02
-8.000000 8.000000 1.597099E+02
-8.000000 6.000000 8.643682E+01
-8.000000 4.000000 2.357442E+01
-8.000000 2.000000 -1.345787E+01
-8.000000 0.000000 -3.505332E+01
-8.000000 -2.000000 -4.188750E+01
-8.000000 -4.000000 -3.716790E+01
-8.000000 -6.000000 -2.926456E+01
-8.000000 -8.000000 -2.364066E+01
-8.000000 -10.000000 -2.230968E+01
-8.000000 -12.000000 -2.331647E+01
-8.000000 -14.000000 -2.476303E+01
-8.000000 -16.000000 -2.565502E+01
-8.000000 -18.000000 -2.958201E+01
-8.000000 -20.000000 -3.442810E+01
-8.000000 -22.000000 -3.276562E+01
-8.000000 -24.000000 -2.539492E+01
-8.000000 -26.000000 -2.078096E+01
-8.000000 -28.000000 -2.003710E+01
-8.000000 -30.000000 -1.831088E+01
-8.000000 -32.000000 -1.382061E+01
-8.000000 -34.000000 -7.239391E+00
-8.000000 -36.000000 -4.163152E+00
-8.000000 -38.000000 -3.042895E+00
-8.000000 -40.000000 -6.549840E-01
-6.000000 40.000000 -5.674841E+00
-6.000000 38.000000 6.974964E-01
-6.000000 36.000000 1.882963E+00
-6.000000 34.000000 6.114302E+00
-6.000000 32.000000 2.045561E+01
-6.000000 30.000000 4.625726E+01
-6.000000 28.000000 7.019726E+01
-6.000000 26.000000 8.074215E+01
-6.000000 24.000000 8.172033E+01
-6.000000 22.000000 6.572345E+01
-6.000000 20.000000 5.738886E+01
-6.000000 18.000000 7.040389E+01
-6.000000 16.000000 1.142564E+02
-6.000000 14.000000 1.716294E+02
-6.000000 12.000000 2.131414E+02
-6.000000 10.000000 2.148738E+02
-6.000000 8.000000 1.616311E+02
-6.000000 6.000000 8.934234E+01
-6.000000 4.000000 2.245539E+01
-6.000000 2.000000 -1.881007E+01
-6.000000 0.000000 -3.989381E+01
-6.000000 -2.000000 -4.452581E+01
-6.000000 -4.000000 -4.244798E+01
-6.000000 -6.000000 -4.280468E+01
-6.000000 -8.000000 -4.552780E+01
-6.000000 -10.000000 -4.963156E+01
-6.000000 -12.000000 -5.064102E+01
-6.000000 -14.000000 -5.277923E+01
-6.000000 -16.000000 -5.258956E+01
-6.000000 -18.000000 -5.355712E+01
-6.000000 -20.000000 -5.429882E+01
-6.000000 -22.000000 -4.826354E+01
-6.000000 -24.000000 -3.625260E+01
-6.000000 -26.000000 -2.712791E+01
-6.000000 -28.000000 -2.327077E+01
-6.000000 -30.000000 -1.948328E+01
-6.000000 -32.000000 -1.344041E+01
-6.000000 -34.000000 -6.596065E+00
-6.000000 -36.000000 -3.454448E+00
-6.000000 -38.000000 -2.083156E+00
-6.000000 -40.000000 8.642869E-01
-4.000000 40.000000 -9.880150E+00
-4.000000 38.000000 -4.157455E+00
-4.000000 36.000000 -4.405458E+00
-4.000000 34.000000 -2.838928E+00
-4.000000 32.000000 1.054855E+01
-4.000000 30.000000 3.780034E+01
-4.000000 28.000000 6.574463E+01
-4.000000 26.000000 8.197071E+01
-4.000000 24.000000 8.896045E+01
-4.000000 22.000000 7.670776E+01
-4.000000 20.000000 7.033828E+01
-4.000000 18.000000 8.341085E+01
-4.000000 16.000000 1.231842E+02
-4.000000 14.000000 1.753545E+02
-4.000000 12.000000 2.109354E+02
-4.000000 10.000000 2.086645E+02
-4.000000 8.000000 1.544568E+02
-4.000000 6.000000 8.166863E+01
-4.000000 4.000000 1.685332E+01
-4.000000 2.000000 -1.838457E+01
-4.000000 0.000000 -2.988945E+01
-4.000000 -2.000000 -2.721175E+01
-4.000000 -4.000000 -2.618988E+01
-4.000000 -6.000000 -3.523447E+01
-4.000000 -8.000000 -4.806014E+01
-4.000000 -10.000000 -5.924221E+01
-4.000000 -12.000000 -6.340611E+01
-4.000000 -14.000000 -6.776575E+01
-4.000000 -16.000000 -6.724337E+01
-4.000000 -18.000000 -6.457056E+01
-4.000000 -20.000000 -6.075652E+01
-4.000000 -22.000000 -5.296398E+01
-4.000000 -24.000000 -4.123885E+01
-4.000000 -26.000000 -3.136135E+01
-4.000000 -28.000000 -2.531835E+01
-4.000000 -30.000000 -1.994614E+01
-4.000000 -32.000000 -1.345806E+01
-4.000000 -34.000000 -6.825118E+00
-4.000000 -36.000000 -3.345109E+00
-4.000000 -38.000000 -7.180390E-01
-4.000000 -40.000000 4.353852E+00
-2.000000 40.000000 -8.417303E+00
-2.000000 38.000000 -4.985676E+00
-2.000000 36.000000 -8.810242E+00
-2.000000 34.000000 -1.326461E+01
-2.000000 32.000000 -4.745983E+00
-2.000000 30.000000 1.923442E+01
-2.000000 28.000000 4.608683E+01
-2.000000 26.000000 6.365231E+01
-2.000000 24.000000 7.070026E+01
-2.000000 22.000000 6.124154E+01
-2.000000 20.000000 5.657753E+01
-2.000000 18.000000 6.986080E+01
-2.000000 16.000000 1.080921E+02
-2.000000 14.000000 1.600524E+02
-2.000000 12.000000 1.984610E+02
-2.000000 10.000000 1.998248E+02
-2.000000 8.000000 1.473212E+02
-2.000000 6.000000 7.326483E+01
-2.000000 4.000000 1.224807E+01
-2.000000 2.000000 -1.097672E+01
-2.000000 0.000000 -8.462486E+00
-2.000000 -2.000000 3.051270E+00
-2.000000 -4.000000 6.456589E+00
-2.000000 -6.000000 -7.594692E+00
-2.000000 -8.000000 -2.787898E+01
-2.000000 -10.000000 -4.465635E+01
-2.000000 -12.000000 -5.396550E+01
-2.000000 -14.000000 -6.122411E+01
-2.000000 -16.000000 -6.057432E+01
-2.000000 -18.000000 -5.478500E+01
-2.000000 -20.000000 -4.889716E+01
-2.000000 -22.000000 -4.402502E+01
-2.000000 -24.000000 -3.876403E+01
-2.000000 -26.000000 -3.345183E+01
-2.000000 -28.000000 -2.675002E+01
-2.000000 -30.000000 -2.089592E+01
-2.000000 -32.000000 -1.486454E+01
-2.000000 -34.000000 -8.058536E+00
-2.000000 -36.000000 -4.031526E+00
-2.000000 -38.000000 1.153763E+00
-2.000000 -40.000000 9.979147E+00
0.000000 40.000000 -4.290815E+00
0.000000 38.000000 -2.576122E+00
0.000000 36.000000 -9.725208E+00
0.000000 34.000000 -1.968548E+01
0.000000 32.000000 -1.654296E+01
0.000000 30.000000 1.360264E+00
0.000000 28.000000 2.171113E+01
0.000000 26.000000 3.440744E+01
0.000000 24.000000 3.445181E+01
0.000000 22.000000 2.499390E+01
0.000000 20.000000 2.006872E+01
0.000000 18.000000 3.192961E+01
0.000000 16.000000 6.841588E+01
0.000000 14.000000 1.222494E+02
0.000000 12.000000 1.715954E+02
0.000000 10.000000 1.870135E+02
0.000000 8.000000 1.459500E+02
0.000000 6.000000 7.763993E+01
0.000000 4.000000 2.098730E+01
0.000000 2.000000 4.491619E+00
0.000000 0.000000 1.299427E+01
0.000000 -2.000000 2.845186E+01
0.000000 -4.000000 3.695511E+01
0.000000 -6.000000 2.695568E+01
0.000000 -8.000000 6.741291E+00
0.000000 -10.000000 -1.209488E+01
0.000000 -12.000000 -2.636823E+01
0.000000 -14.000000 -3.454570E+01
0.000000 -16.000000 -3.270472E+01
0.000000 -18.000000 -2.614838E+01
0.000000 -20.000000 -2.286041E+01
0.000000 -22.000000 -2.470535E+01
0.000000 -24.000000 -2.914136E+01
0.000000 -26.000000 -3.057231E+01
0.000000 -28.000000 -2.554249E+01
0.000000 -30.000000 -2.176031E+01
0.000000 -32.000000 -1.713639E+01
0.000000 -34.000000 -9.031565E+00
0.000000 -36.000000 -3.079562E+00
0.000000 -38.000000 4.692060E+00
0.000000 -40.000000 1.670229E+01
2.000000 40.000000 -2.603083E+00
2.000000 38.000000 -5.354500E-02
2.000000 36.000000 -7.718941E+00
2.000000 34.000000 -1.911016E+01
2.000000 32.000000 -1.803860E+01
2.000000 30.000000 -5.894741E+00
2.000000 28.000000 4.447973E+00
2.000000 26.000000 7.783443E+00
2.000000 24.000000 -2.258427E+00
2.000000 22.000000 -1.407121E+01
2.000000 20.000000 -2.252406E+01
2.000000 18.000000 -1.493949E+01
2.000000 16.000000 2.095494E+01
2.000000 14.000000 7.951076E+01
2.000000 12.000000 1.440131E+02
2.000000 10.000000 1.789383E+02
2.000000 8.000000 1.533998E+02
2.000000 6.000000 9.259424E+01
2.000000 4.000000 3.716309E+01
2.000000 2.000000 1.976588E+01
2.000000 0.000000 2.552949E+01
2.000000 -2.000000 3.905259E+01
2.000000 -4.000000 5.162178E+01
2.000000 -6.000000 5.170076E+01
2.000000 -8.000000 3.875434E+01
2.000000 -10.000000 2.297604E+01
2.000000 -12.000000 5.933626E+00
2.000000 -14.000000 -1.587877E+00
2.000000 -16.000000 1.248755E+00
2.000000 -18.000000 6.381172E+00
2.000000 -20.000000 4.990570E+00
2.000000 -22.000000 -3.595693E+00
2.000000 -24.000000 -1.448151E+01
2.000000 -26.000000 -2.018395E+01
2.000000 -28.000000 -2.061911E+01
2.000000 -30.000000 -2.067743E+01
2.000000 -32.000000 -1.702495E+01
2.000000 -34.000000 -7.134034E+00
2.000000 -36.000000 2.331919E+00
2.000000 -38.000000 1.123559E+01
2.000000 -40.000000 2.320114E+01
4.000000 40.000000 -5.749964E+00
4.000000 38.000000 -3.288097E-01
4.000000 36.000000 -4.959272E+00
4.000000 34.000000 -1.168581E+01
4.000000 32.000000 -6.780081E+00
4.000000 30.000000 1.892128E+00
4.000000 28.000000 6.321087E-01
4.000000 26.000000 -6.021667E+00
4.000000 24.000000 -2.313211E+01
4.000000 22.000000 -3.890166E+01
4.000000 20.000000 -5.459207E+01
4.000000 18.000000 -5.305577E+01
4.000000 16.000000 -1.467108E+01
4.000000 14.000000 5.228823E+01
4.000000 12.000000 1.302563E+02
4.000000 10.000000 1.808741E+02
4.000000 8.000000 1.679549E+02
4.000000 6.000000 1.142712E+02
4.000000 4.000000 5.796547E+01
4.000000 2.000000 3.225650E+01
4.000000 0.000000 2.636186E+01
4.000000 -2.000000 3.195101E+01
4.000000 -4.000000 4.587305E+01
4.000000 -6.000000 5.668091E+01
4.000000 -8.000000 5.396271E+01
4.000000 -10.000000 4.467976E+01
4.000000 -12.000000 2.725413E+01
4.000000 -14.000000 2.067581E+01
4.000000 -16.000000 2.354069E+01
4.000000 -18.000000 2.741280E+01
4.000000 -20.000000 2.353411E+01
4.000000 -22.000000 9.585748E+00
4.000000 -24.000000 -3.637845E+00
4.000000 -26.000000 -9.452911E+00
4.000000 -28.000000 -1.419629E+01
4.000000 -30.000000 -1.643128E+01
4.000000 -32.000000 -1.186250E+01
4.000000 -34.000000 -4.496288E-02
4.000000 -36.000000 1.251208E+01
4.000000 -38.000000 2.059905E+01
4.000000 -40.000000 3.041779E+01
6.000000 40.000000 -1.138336E+01
6.000000 38.000000 -2.278622E+00
6.000000 36.000000 -1.846130E+00
6.000000 34.000000 -7.787895E-01
6.000000 32.000000 1.037402E+01
6.000000 30.000000 1.781240E+01
6.000000 28.000000 7.674189E+00
6.000000 26.000000 -4.842167E+00
6.000000 24.000000 -2.315699E+01
6.000000 22.000000 -4.211955E+01
6.000000 20.000000 -6.389674E+01
6.000000 18.000000 -6.669155E+01
6.000000 16.000000 -2.697549E+01
6.000000 14.000000 4.594536E+01
6.000000 12.000000 1.314314E+02
6.000000 10.000000 1.919995E+02
6.000000 8.000000 1.902794E+02
6.000000 6.000000 1.474731E+02
6.000000 4.000000 8.807973E+01
6.000000 2.000000 4.335405E+01
6.000000 0.000000 1.522391E+01
6.000000 -2.000000 6.618286E+00
6.000000 -4.000000 1.788923E+01
6.000000 -6.000000 3.722388E+01
6.000000 -8.000000 4.378036E+01
6.000000 -10.000000 4.168723E+01
6.000000 -12.000000 2.880201E+01
6.000000 -14.000000 2.497254E+01
6.000000 -16.000000 2.846101E+01
6.000000 -18.000000 3.128815E+01
6.000000 -20.000000 2.550136E+01
6.000000 -22.000000 9.350364E+00
6.000000 -24.000000 -1.880915E+00
6.000000 -26.000000 -4.001100E+00
6.000000 -28.000000 -6.454574E+00
6.000000 -30.000000 -7.920884E+00
6.000000 -32.000000 -2.526613E+00
6.000000 -34.000000 1.043559E+01
6.000000 -36.000000 2.419469E+01
6.000000 -38.000000 3.078805E+01
6.000000 -40.000000 3.880251E+01
8.000000 40.000000 -1.593635E+01
8.000000 38.000000 -2.450410E+00
8.000000 36.000000 2.984028E+00
8.000000 34.000000 9.406179E+00
8.000000 32.000000 2.181742E+01
8.000000 30.000000 2.973868E+01
8.000000 28.000000 2.057873E+01
8.000000 26.000000 9.397001E+00
8.000000 24.000000 -5.339914E+00
8.000000 22.000000 -2.583239E+01
8.000000 20.000000 -4.938802E+01
8.000000 18.000000 -5.406971E+01
8.000000 16.000000 -1.755378E+01
8.000000 14.000000 5.410652E+01
8.000000 12.000000 1.396656E+02
8.000000 10.000000 2.050816E+02
8.000000 8.000000 2.124575E+02
8.000000 6.000000 1.794892E+02
8.000000 4.000000 1.160668E+02
8.000000 2.000000 5.221358E+01
8.000000 0.000000 9.137688E-01
8.000000 -2.000000 -2.522037E+01
8.000000 -4.000000 -2.207057E+01
8.000000 -6.000000 -1.379953E+00
8.000000 -8.000000 1.080811E+01
8.000000 -10.000000 1.476118E+01
8.000000 -12.000000 1.131825E+01
8.000000 -14.000000 1.403473E+01
8.000000 -16.000000 1.950684E+01
8.000000 -18.000000 2.002130E+01
8.000000 -20.000000 1.170134E+01
8.000000 -22.000000 -1.145344E+00
8.000000 -24.000000 -3.780542E+00
8.000000 -26.000000 3.025154E+00
8.000000 -28.000000 6.604695E+00
8.000000 -30.000000 3.954692E+00
8.000000 -32.000000 5.949140E+00
8.000000 -34.000000 1.726785E+01
8.000000 -36.000000 3.161254E+01
8.000000 -38.000000 3.894150E+01
8.000000 -40.000000 4.632144E+01
10.000000 40.000000 -1.936649E+01
10.000000 38.000000 -2.566931E-01
10.000000 36.000000 1.010294E+01
10.000000 34.000000 1.914288E+01
10.000000 32.000000 2.892914E+01
10.000000 30.000000 3.785661E+01
10.000000 28.000000 3.563409E+01
10.000000 26.000000 2.988055E+01
10.000000 24.000000 2.138416E+01
10.000000 22.000000 9.969559E-01
10.000000 20.000000 -2.342503E+01
10.000000 18.000000 -3.215413E+01
10.000000 16.000000 -2.775654E+00
10.000000 14.000000 6.245739E+01
10.000000 12.000000 1.446257E+02
10.000000 10.000000 2.109109E+02
10.000000 8.000000 2.221993E+02
10.000000 6.000000 1.927020E+02
10.000000 4.000000 1.286468E+02
10.000000 2.000000 5.717865E+01
10.000000 0.000000 -7.615841E+00
10.000000 -2.000000 -4.827283E+01
10.000000 -4.000000 -5.780994E+01
10.000000 -6.000000 -4.471706E+01
10.000000 -8.000000 -3.197205E+01
10.000000 -10.000000 -2.359858E+01
10.000000 -12.000000 -1.745884E+01
10.000000 -14.000000 -8.198215E+00
10.000000 -16.000000 2.432127E-01
10.000000 -18.000000 8.235173E-01
10.000000 -20.000000 -6.345466E+00
10.000000 -22.000000 -1.250333E+01
10.000000 -24.000000 -3.953569E+00
10.000000 -26.000000 1.486089E+01
10.000000 -28.000000 2.236382E+01
10.000000 -30.000000 1.470938E+01
10.000000 -32.000000 1.008933E+01
10.000000 -34.000000 1.717633E+01
10.000000 -36.000000 3.163155E+01
10.000000 -38.000000 4.174830E+01
10.000000 -40.000000 5.057832E+01
12.000000 40.000000 -2.318964E+01
12.000000 38.000000 2.701943E+00
12.000000 36.000000 1.894274E+01
12.000000 34.000000 2.984815E+01
12.000000 32.000000 3.611687E+01
12.000000 30.000000 4.390330E+01
12.000000 28.000000 4.619390E+01
12.000000 26.000000 4.602784E+01
12.000000 24.000000 4.534000E+01
12.000000 22.000000 2.871043E+01
12.000000 20.000000 6.310850E+00
12.000000 18.000000 -9.525774E+00
12.000000 16.000000 6.159254E+00
12.000000 14.000000 5.941726E+01
12.000000 12.000000 1.374573E+02
12.000000 10.000000 2.037535E+02
12.000000 8.000000 2.172415E+02
12.000000 6.000000 1.883249E+02
12.000000 4.000000 1.273260E+02
12.000000 2.000000 5.849752E+01
12.000000 0.000000 -8.349255E+00
12.000000 -2.000000 -5.703646E+01
12.000000 -4.000000 -8.031620E+01
12.000000 -6.000000 -7.996853E+01
12.000000 -8.000000 -7.169920E+01
12.000000 -10.000000 -6.283868E+01
12.000000 -12.000000 -5.161876E+01
12.000000 -14.000000 -3.808285E+01
12.000000 -16.000000 -2.430910E+01
12.000000 -18.000000 -1.834621E+01
12.000000 -20.000000 -1.956882E+01
12.000000 -22.000000 -1.814425E+01
12.000000 -24.000000 -1.641341E+00
12.000000 -26.000000 2.286655E+01
12.000000 -28.000000 3.016391E+01
12.000000 -30.000000 1.957591E+01
12.000000 -32.000000 1.029667E+01
12.000000 -34.000000 1.311917E+01
12.000000 -36.000000 2.621876E+01
12.000000 -38.000000 3.823489E+01
12.000000 -40.000000 5.011399E+01
14.000000 40.000000 -2.615282E+01
14.000000 38.000000 5.456583E+00
14.000000 36.000000 2.650836E+01
14.000000 34.000000 3.736289E+01
14.000000 32.000000 3.905407E+01
14.000000 30.000000 4.421932E+01
14.000000 28.000000 4.831868E+01
14.000000 26.000000 5.235728E+01
14.000000 24.000000 5.800632E+01
14.000000 22.000000 4.659962E+01
14.000000 20.000000 2.853659E+01
14.000000 18.000000 6.277069E+00
14.000000 16.000000 7.285517E+00
14.000000 14.000000 4.851592E+01
14.000000 12.000000 1.242314E+02
14.000000 10.000000 1.920655E+02
14.000000 8.000000 2.086831E+02
14.000000 6.000000 1.809039E+02
14.000000 4.000000 1.244604E+02
14.000000 2.000000 6.194972E+01
14.000000 0.000000 -8.907051E-01
14.000000 -2.000000 -5.224316E+01
14.000000 -4.000000 -8.596072E+01
14.000000 -6.000000 -9.921837E+01
14.000000 -8.000000 -9.960688E+01
14.000000 -10.000000 -9.569313E+01
14.000000 -12.000000 -8.562076E+01
14.000000 -14.000000 -6.935496E+01
14.000000 -16.000000 -4.874067E+01
14.000000 -18.000000 -3.484212E+01
14.000000 -20.000000 -2.903251E+01
14.000000 -22.000000 -2.227103E+01
14.000000 -24.000000 -3.211758E+00
14.000000 -26.000000 1.827845E+01
14.000000 -28.000000 2.385206E+01
14.000000 -30.000000 1.561456E+01
14.000000 -32.000000 5.555798E+00
14.000000 -34.000000 5.153648E+00
14.000000 -36.000000 1.686096E+01
14.000000 -38.000000 3.074827E+01
14.000000 -40.000000 4.717807E+01
16.000000 40.000000 -2.534690E+01
16.000000 38.000000 7.302142E+00
16.000000 36.000000 2.874881E+01
16.000000 34.000000 3.681148E+01
16.000000 32.000000 3.342296E+01
16.000000 30.000000 3.581494E+01
16.000000 28.000000 4.058917E+01
16.000000 26.000000 4.649046E+01
16.000000 24.000000 5.283257E+01
16.000000 22.000000 4.482706E+01
16.000000 20.000000 2.995663E+01
16.000000 18.000000 7.728192E+00
16.000000 16.000000 6.177736E+00
16.000000 14.000000 4.575304E+01
16.000000 12.000000 1.220544E+02
16.000000 10.000000 1.926455E+02
16.000000 8.000000 2.121330E+02
16.000000 6.000000 1.859280E+02
16.000000 4.000000 1.328338E+02
16.000000 2.000000 7.608782E+01
16.000000 0.000000 1.725111E+01
16.000000 -2.000000 -3.681517E+01
16.000000 -4.000000 -7.894250E+01
16.000000 -6.000000 -1.054533E+02
16.000000 -8.000000 -1.179367E+02
16.000000 -10.000000 -1.235793E+02
16.000000 -12.000000 -1.184719E+02
16.000000 -14.000000 -1.007083E+02
16.000000 -16.000000 -7.250700E+01
16.000000 -18.000000 -4.999491E+01
16.000000 -20.000000 -3.887343E+01
16.000000 -22.000000 -3.041134E+01
16.000000 -24.000000 -1.273112E+01
16.000000 -26.000000 4.150744E+00
16.000000 -28.000000 1.001874E+01
16.000000 -30.000000 4.790487E+00
16.000000 -32.000000 -4.674494E+00
16.000000 -34.000000 -7.026955E+00
16.000000 -36.000000 4.426430E+00
16.000000 -38.000000 2.132614E+01
16.000000 -40.000000 4.352449E+01
18.000000 40.000000 -2.174093E+01
18.000000 38.000000 8.206002E+00
18.000000 36.000000 2.664799E+01
18.000000 34.000000 2.966619E+01
18.000000 32.000000 2.051982E+01
18.000000 30.000000 2.059010E+01
18.000000 28.000000 2.570459E+01
18.000000 26.000000 3.107333E+01
18.000000 24.000000 3.265303E+01
18.000000 22.000000 2.604379E+01
18.000000 20.000000 1.467922E+01
18.000000 18.000000 2.361660E-01
18.000000 16.000000 7.130970E+00
18.000000 14.000000 5.285089E+01
18.000000 12.000000 1.306014E+02
18.000000 10.000000 2.043373E+02
18.000000 8.000000 2.284620E+02
18.000000 6.000000 2.079428E+02
18.000000 4.000000 1.572145E+02
18.000000 2.000000 1.004867E+02
18.000000 0.000000 4.011633E+01
18.000000 -2.000000 -1.865456E+01
18.000000 -4.000000 -6.895570E+01
18.000000 -6.000000 -1.073009E+02
18.000000 -8.000000 -1.312453E+02
18.000000 -10.000000 -1.465916E+02
18.000000 -12.000000 -1.459735E+02
18.000000 -14.000000 -1.274183E+02
18.000000 -16.000000 -9.250717E+01
18.000000 -18.000000 -6.254048E+01
18.000000 -20.000000 -4.742654E+01
18.000000 -22.000000 -3.900279E+01
18.000000 -24.000000 -2.498508E+01
18.000000 -26.000000 -1.133722E+01
18.000000 -28.000000 -4.705097E+00
18.000000 -30.000000 -8.822157E+00
18.000000 -32.000000 -1.815998E+01
18.000000 -34.000000 -2.126524E+01
18.000000 -36.000000 -9.310482E+00
18.000000 -38.000000 1.075607E+01
18.000000 -40.000000 3.828024E+01
20.000000 40.000000 -2.106991E+01
20.000000 38.000000 7.296876E+00
20.000000 36.000000 2.417272E+01
20.000000 34.000000 2.375254E+01
20.000000 32.000000 1.060060E+01
20.000000 30.000000 8.798600E+00
20.000000 28.000000 1.276157E+01
20.000000 26.000000 1.549616E+01
20.000000 24.000000 1.143538E+01
20.000000 22.000000 6.102829E+00
20.000000 20.000000 -1.449358E+00
20.000000 18.000000 -8.656424E+00
20.000000 16.000000 4.308276E+00
20.000000 14.000000 5.279859E+01
20.000000 12.000000 1.323467E+02
20.000000 10.000000 2.137411E+02
20.000000 8.000000 2.484001E+02
20.000000 6.000000 2.384318E+02
20.000000 4.000000 1.894655E+02
20.000000 2.000000 1.269655E+02
20.000000 0.000000 5.976082E+01
20.000000 -2.000000 -5.536674E+00
20.000000 -4.000000 -6.298767E+01
20.000000 -6.000000 -1.089614E+02
20.000000 -8.000000 -1.391248E+02
20.000000 -10.000000 -1.593573E+02
20.000000 -12.000000 -1.608287E+02
20.000000 -14.000000 -1.418794E+02
20.000000 -16.000000 -1.039631E+02
20.000000 -18.000000 -6.983349E+01
20.000000 -20.000000 -5.283359E+01
20.000000 -22.000000 -4.547909E+01
20.000000 -24.000000 -3.497152E+01
20.000000 -26.000000 -2.330391E+01
20.000000 -28.000000 -1.787866E+01
20.000000 -30.000000 -2.259239E+01
20.000000 -32.000000 -3.209465E+01
20.000000 -34.000000 -3.579708E+01
20.000000 -36.000000 -2.326651E+01
20.000000 -38.000000 4.829407E-03
20.000000 -40.000000 3.223067E+01
22.000000 40.000000 -2.613552E+01
22.000000 38.000000 3.817738E+00
22.000000 36.000000 2.266062E+01
22.000000 34.000000 2.401982E+01
22.000000 32.000000 1.050138E+01
22.000000 30.000000 6.688578E+00
22.000000 28.000000 8.062215E+00
22.000000 26.000000 8.718273E+00
22.000000 24.000000 3.160525E+00
22.000000 22.000000 -5.024147E-02
22.000000 20.000000 -5.065987E+00
22.000000 18.000000 -9.841190E+00
22.000000 16.000000 1.143370E+00
22.000000 14.000000 4.359649E+01
22.000000 12.000000 1.198925E+02
22.000000 10.000000 2.068142E+02
22.000000 8.000000 2.541214E+02
22.000000 6.000000 2.580124E+02
22.000000 4.000000 2.153182E+02
22.000000 2.000000 1.489079E+02
22.000000 0.000000 7.379241E+01
22.000000 -2.000000 1.177841E+00
22.000000 -4.000000 -5.981383E+01
22.000000 -6.000000 -1.077447E+02
22.000000 -8.000000 -1.399196E+02
22.000000 -10.000000 -1.603745E+02
22.000000 -12.000000 -1.616316E+02
22.000000 -14.000000 -1.429961E+02
22.000000 -16.000000 -1.054629E+02
22.000000 -18.000000 -7.112103E+01
22.000000 -20.000000 -5.610538E+01
22.000000 -22.000000 -5.188071E+01
22.000000 -24.000000 -4.547814E+01
22.000000 -26.000000 -3.587844E+01
22.000000 -28.000000 -3.120474E+01
22.000000 -30.000000 -3.602347E+01
22.000000 -32.000000 -4.452298E+01
22.000000 -34.000000 -4.719585E+01
22.000000 -36.000000 -3.359469E+01
22.000000 -38.000000 -8.515846E+00
22.000000 -40.000000 2.731279E+01
24.000000 40.000000 -3.536338E+01
24.000000 38.000000 -1.022001E+00
24.000000 36.000000 2.211737E+01
24.000000 34.000000 2.823421E+01
24.000000 32.000000 1.638574E+01
24.000000 30.000000 1.245569E+01
24.000000 28.000000 1.315394E+01
24.000000 26.000000 1.476570E+01
24.000000 24.000000 1.280313E+01
24.000000 22.000000 1.206022E+01
24.000000 20.000000 9.233270E+00
24.000000 18.000000 3.603859E+00
24.000000 16.000000 5.145955E+00
24.000000 14.000000 3.216096E+01
24.000000 12.000000 9.682562E+01
24.000000 10.000000 1.811156E+02
24.000000 8.000000 2.373471E+02
24.000000 6.000000 2.533636E+02
24.000000 4.000000 2.215838E+02
24.000000 2.000000 1.599937E+02
24.000000 0.000000 8.498921E+01
24.000000 -2.000000 9.813937E+00
24.000000 -4.000000 -5.219896E+01
24.000000 -6.000000 -1.003690E+02
24.000000 -8.000000 -1.339560E+02
24.000000 -10.000000 -1.538901E+02
24.000000 -12.000000 -1.534661E+02
24.000000 -14.000000 -1.349520E+02
24.000000 -16.000000 -1.007777E+02
24.000000 -18.000000 -7.108860E+01
24.000000 -20.000000 -6.069559E+01
24.000000 -22.000000 -6.121036E+01
24.000000 -24.000000 -6.007028E+01
24.000000 -26.000000 -5.398057E+01
24.000000 -28.000000 -4.769656E+01
24.000000 -30.000000 -4.889149E+01
24.000000 -32.000000 -5.352013E+01
24.000000 -34.000000 -5.258789E+01
24.000000 -36.000000 -3.639922E+01
24.000000 -38.000000 -1.143800E+01
24.000000 -40.000000 2.540012E+01
26.000000 40.000000 -4.674381E+01
26.000000 38.000000 -6.999595E+00
26.000000 36.000000 2.114364E+01
26.000000 34.000000 3.291229E+01
26.000000 32.000000 2.492300E+01
26.000000 30.000000 2.387116E+01
26.000000 28.000000 2.614049E+01
26.000000 26.000000 3.020856E+01
26.000000 24.000000 3.493079E+01
26.000000 22.000000 3.701271E+01
26.000000 20.000000 3.624636E+01
26.000000 18.000000 2.702601E+01
26.000000 16.000000 1.568720E+01
26.000000 14.000000 2.278779E+01
26.000000 12.000000 6.945117E+01
26.000000 10.000000 1.439735E+02
26.000000 8.000000 2.020552E+02
26.000000 6.000000 2.224268E+02
26.000000 4.000000 2.015472E+02
26.000000 2.000000 1.536430E+02
26.000000 0.000000 8.939691E+01
26.000000 -2.000000 1.933369E+01
26.000000 -4.000000 -4.026615E+01
26.000000 -6.000000 -8.727660E+01
26.000000 -8.000000 -1.216184E+02
26.000000 -10.000000 -1.411530E+02
26.000000 -12.000000 -1.400499E+02
26.000000 -14.000000 -1.222486E+02
26.000000 -16.000000 -9.393524E+01
26.000000 -18.000000 -7.179358E+01
26.000000 -20.000000 -6.721678E+01
26.000000 -22.000000 -7.277443E+01
26.000000 -24.000000 -7.530427E+01
26.000000 -26.000000 -7.214138E+01
26.000000 -28.000000 -6.335073E+01
26.000000 -30.000000 -5.860646E+01
26.000000 -32.000000 -5.759509E+01
26.000000 -34.000000 -5.352423E+01
26.000000 -36.000000 -3.440212E+01
26.000000 -38.000000 -8.556175E+00
26.000000 -40.000000 2.838965E+01
28.000000 40.000000 -5.788421E+01
28.000000 38.000000 -1.439986E+01
28.000000 36.000000 1.806281E+01
28.000000 34.000000 3.644083E+01
28.000000 32.000000 3.455444E+01
28.000000 30.000000 3.639768E+01
28.000000 28.000000 3.945217E+01
28.000000 26.000000 4.497432E+01
28.000000 24.000000 5.495520E+01
28.000000 22.000000 5.897404E+01
28.000000 20.000000 5.949467E+01
28.000000 18.000000 4.756555E+01
28.000000 16.000000 2.759279E+01
28.000000 14.000000 1.942755E+01
28.000000 12.000000 4.655273E+01
28.000000 10.000000 1.069943E+02
28.000000 8.000000 1.596547E+02
28.000000 6.000000 1.774110E+02
28.000000 4.000000 1.647329E+02
28.000000 2.000000 1.320657E+02
28.000000 0.000000 8.184577E+01
28.000000 -2.000000 2.168080E+01
28.000000 -4.000000 -3.251524E+01
28.000000 -6.000000 -7.740720E+01
28.000000 -8.000000 -1.099894E+02
28.000000 -10.000000 -1.278363E+02
28.000000 -12.000000 -1.266729E+02
28.000000 -14.000000 -1.103944E+02
28.000000 -16.000000 -8.715702E+01
28.000000 -18.000000 -6.953922E+01
28.000000 -20.000000 -6.771459E+01
28.000000 -22.000000 -7.559985E+01
28.000000 -24.000000 -8.032827E+01
28.000000 -26.000000 -7.918010E+01
28.000000 -28.000000 -6.886842E+01
28.000000 -30.000000 -6.060823E+01
28.000000 -32.000000 -5.549544E+01
28.000000 -34.000000 -5.025161E+01
28.000000 -36.000000 -2.992993E+01
28.000000 -38.000000 -3.724213E+00
28.000000 -40.000000 3.246572E+01
30.000000 40.000000 -6.640882E+01
30.000000 38.000000 -2.186901E+01
30.000000 36.000000 1.321270E+01
30.000000 34.000000 3.689341E+01
30.000000 32.000000 4.056247E+01
30.000000 30.000000 4.353512E+01
30.000000 28.000000 4.531100E+01
30.000000 26.000000 4.982349E+01
30.000000 24.000000 5.871552E+01
30.000000 22.000000 6.042068E+01
30.000000 20.000000 6.128972E+01
30.000000 18.000000 5.336745E+01
30.000000 16.000000 3.617457E+01
30.000000 14.000000 2.365754E+01
30.000000 12.000000 3.721398E+01
30.000000 10.000000 8.030890E+01
30.000000 8.000000 1.205986E+02
30.000000 6.000000 1.320626E+02
30.000000 4.000000 1.226183E+02
30.000000 2.000000 1.014551E+02
30.000000 0.000000 6.496598E+01
30.000000 -2.000000 1.635804E+01
30.000000 -4.000000 -3.135655E+01
30.000000 -6.000000 -7.380459E+01
30.000000 -8.000000 -1.041984E+02
30.000000 -10.000000 -1.208131E+02
30.000000 -12.000000 -1.186441E+02
30.000000 -14.000000 -1.014641E+02
30.000000 -16.000000 -7.805953E+01
30.000000 -18.000000 -5.948023E+01
30.000000 -20.000000 -5.455198E+01
30.000000 -22.000000 -6.019349E+01
30.000000 -24.000000 -6.647161E+01
30.000000 -26.000000 -6.746967E+01
30.000000 -28.000000 -5.925042E+01
30.000000 -30.000000 -5.240825E+01
30.000000 -32.000000 -4.698153E+01
30.000000 -34.000000 -4.253418E+01
30.000000 -36.000000 -2.427309E+01
30.000000 -38.000000 -1.444748E+00
30.000000 -40.000000 3.107327E+01
32.000000 40.000000 -7.153546E+01
32.000000 38.000000 -2.924037E+01
32.000000 36.000000 5.842516E+00
32.000000 34.000000 3.237131E+01
32.000000 32.000000 4.096818E+01
32.000000 30.000000 4.514453E+01
32.000000 28.000000 4.406099E+01
32.000000 26.000000 4.403032E+01
32.000000 24.000000 4.432171E+01
32.000000 22.000000 3.802961E+01
32.000000 20.000000 3.537400E+01
32.000000 18.000000 3.363714E+01
32.000000 16.000000 2.961010E+01
32.000000 14.000000 2.721593E+01
32.000000 12.000000 4.123160E+01
32.000000 10.000000 7.092082E+01
32.000000 8.000000 9.360603E+01
32.000000 6.000000 9.366219E+01
32.000000 4.000000 8.205310E+01
32.000000 2.000000 6.923421E+01
32.000000 0.000000 4.651197E+01
32.000000 -2.000000 9.772993E+00
32.000000 -4.000000 -3.206314E+01
32.000000 -6.000000 -7.221652E+01
32.000000 -8.000000 -1.019649E+02
32.000000 -10.000000 -1.191395E+02
32.000000 -12.000000 -1.145797E+02
32.000000 -14.000000 -9.357000E+01
32.000000 -16.000000 -6.516858E+01
32.000000 -18.000000 -4.101967E+01
32.000000 -20.000000 -2.930704E+01
32.000000 -22.000000 -3.020964E+01
32.000000 -24.000000 -3.713447E+01
32.000000 -26.000000 -4.160944E+01
32.000000 -28.000000 -3.925559E+01
32.000000 -30.000000 -3.740174E+01
32.000000 -32.000000 -3.553072E+01
32.000000 -34.000000 -3.439707E+01
32.000000 -36.000000 -2.130463E+01
32.000000 -38.000000 -3.730114E+00
32.000000 -40.000000 2.345219E+01
34.000000 40.000000 -7.499532E+01
34.000000 38.000000 -3.699224E+01
34.000000 36.000000 -3.965700E+00
34.000000 34.000000 2.397009E+01
34.000000 32.000000 3.724480E+01
34.000000 30.000000 4.319162E+01
34.000000 28.000000 3.897779E+01
34.000000 26.000000 3.187337E+01
34.000000 24.000000 1.902172E+01
34.000000 22.000000 2.180430E+00
34.000000 20.000000 -6.574023E+00
34.000000 18.000000 -3.514751E+00
34.000000 16.000000 8.245323E+00
34.000000 14.000000 2.339030E+01
34.000000 12.000000 4.797216E+01
34.000000 10.000000 7.513333E+01
34.000000 8.000000 8.298313E+01
34.000000 6.000000 6.909209E+01
34.000000 4.000000 5.016186E+01
34.000000 2.000000 4.069648E+01
34.000000 0.000000 2.832231E+01
34.000000 -2.000000 2.642397E+00
34.000000 -4.000000 -3.236518E+01
34.000000 -6.000000 -6.981465E+01
34.000000 -8.000000 -9.955192E+01
34.000000 -10.000000 -1.167507E+02
34.000000 -12.000000 -1.089264E+02
34.000000 -14.000000 -8.464226E+01
34.000000 -16.000000 -5.172674E+01
34.000000 -18.000000 -2.205041E+01
34.000000 -20.000000 -3.822977E+00
34.000000 -22.000000 -8.183060E-01
34.000000 -24.000000 -7.848381E+00
34.000000 -26.000000 -1.564067E+01
34.000000 -28.000000 -1.928590E+01
34.000000 -30.000000 -2.253378E+01
34.000000 -32.000000 -2.607132E+01
34.000000 -34.000000 -3.034378E+01
34.000000 -36.000000 -2.314496E+01
34.000000 -38.000000 -1.001409E+01
34.000000 -40.000000 1.263934E+01
36.000000 40.000000 -7.927317E+01
36.000000 38.000000 -4.476507E+01
36.000000 36.000000 -1.408467E+01
36.000000 34.000000 1.397233E+01
36.000000 32.000000 3.021034E+01
36.000000 30.000000 3.753713E+01
36.000000 28.000000 3.227404E+01
36.000000 26.000000 1.999861E+01
36.000000 24.000000 -5.681457E+00
36.000000 22.000000 -3.230762E+01
36.000000 20.000000 -4.671008E+01
36.000000 18.000000 -3.928920E+01
36.000000 16.000000 -1.364186E+01
36.000000 14.000000 1.937168E+01
36.000000 12.000000 5.666597E+01
36.000000 10.000000 8.493073E+01
36.000000 8.000000 8.157308E+01
36.000000 6.000000 5.695020E+01
36.000000 4.000000 2.881317E+01
36.000000 2.000000 1.571963E+01
36.000000 0.000000 6.533950E+00
36.000000 -2.000000 -9.496175E+00
36.000000 -4.000000 -3.335319E+01
36.000000 -6.000000 -6.281888E+01
36.000000 -8.000000 -8.913043E+01
36.000000 -10.000000 -1.047760E+02
36.000000 -12.000000 -9.711400E+01
36.000000 -14.000000 -7.472683E+01
36.000000 -16.000000 -4.284427E+01
36.000000 -18.000000 -1.420925E+01
36.000000 -20.000000 3.824554E+00
36.000000 -22.000000 8.339916E+00
36.000000 -24.000000 4.079140E+00
36.000000 -26.000000 -1.961094E+00
36.000000 -28.000000 -7.491264E+00
36.000000 -30.000000 -1.422564E+01
36.000000 -32.000000 -2.330530E+01
36.000000 -34.000000 -3.241273E+01
36.000000 -36.000000 -2.877846E+01
36.000000 -38.000000 -1.838961E+01
36.000000 -40.000000 1.575066E+00
38.000000 40.000000 -8.525427E+01
38.000000 38.000000 -5.320680E+01
38.000000 36.000000 -2.445495E+01
38.000000 34.000000 3.167326E+00
38.000000 32.000000 2.162681E+01
38.000000 30.000000 3.137145E+01
38.000000 28.000000 2.835138E+01
38.000000 26.000000 1.502243E+01
38.000000 24.000000 -1.784844E+01
38.000000 22.000000 -5.092293E+01
38.000000 20.000000 -6.874522E+01
38.000000 18.000000 -5.889015E+01
38.000000 16.000000 -2.685207E+01
38.000000 14.000000 1.543728E+01
38.000000 12.000000 5.997435E+01
38.000000 10.000000 8.898637E+01
38.000000 8.000000 7.917956E+01
38.000000 6.000000 4.823237E+01
38.000000 4.000000 1.279839E+01
38.000000 2.000000 -5.204755E+00
38.000000 0.000000 -1.419651E+01
38.000000 -2.000000 -2.096301E+01
38.000000 -4.000000 -3.038707E+01
38.000000 -6.000000 -4.631340E+01
38.000000 -8.000000 -6.461179E+01
38.000000 -10.000000 -7.848915E+01
38.000000 -12.000000 -7.799590E+01
38.000000 -14.000000 -6.506026E+01
38.000000 -16.000000 -4.342785E+01
38.000000 -18.000000 -2.492775E+01
38.000000 -20.000000 -1.515974E+01
38.000000 -22.000000 -1.097548E+01
38.000000 -24.000000 -7.961300E+00
38.000000 -26.000000 -6.065151E+00
38.000000 -28.000000 -8.056076E+00
38.000000 -30.000000 -1.616898E+01
38.000000 -32.000000 -2.979882E+01
38.000000 -34.000000 -4.203349E+01
38.000000 -36.000000 -3.881998E+01
38.000000 -38.000000 -2.736620E+01
38.000000 -40.000000 -6.467606E+00
40.000000 40.000000 -9.129311E+01
40.000000 38.000000 -6.274433E+01
40.000000 36.000000 -3.646659E+01
40.000000 34.000000 -9.012019E+00
40.000000 32.000000 1.180334E+01
40.000000 30.000000 2.587445E+01
40.000000 28.000000 2.817047E+01
40.000000 26.000000 1.824384E+01
40.000000 24.000000 -1.178594E+01
40.000000 22.000000 -4.312817E+01
40.000000 20.000000 -5.999964E+01
40.000000 18.000000 -5.346737E+01
40.000000 16.000000 -2.917822E+01
40.000000 14.000000 6.194190E+00
40.000000 12.000000 4.739175E+01
40.000000 10.000000 7.638545E+01
40.000000 8.000000 6.807445E+01
40.000000 6.000000 3.730735E+01
40.000000 4.000000 -4.403300E-01
40.000000 2.000000 -2.029811E+01
40.000000 0.000000 -2.660287E+01
40.000000 -2.000000 -2.308750E+01
40.000000 -4.000000 -1.815180E+01
40.000000 -6.000000 -2.119816E+01
40.000000 -8.000000 -3.303377E+01
40.000000 -10.000000 -4.660542E+01
40.000000 -12.000000 -5.690507E+01
40.000000 -14.000000 -5.912253E+01
40.000000 -16.000000 -5.391759E+01
40.000000 -18.000000 -4.986652E+01
40.000000 -20.000000 -5.038361E+01
40.000000 -22.000000 -4.721442E+01
40.000000 -24.000000 -3.561448E+01
40.000000 -26.000000 -2.363944E+01
40.000000 -28.000000 -1.887894E+01
40.000000 -30.000000 -2.668566E+01
40.000000 -32.000000 -4.358988E+01
40.000000 -34.000000 -5.755395E+01
40.000000 -36.000000 -5.226387E+01
40.000000 -38.000000 -3.659178E+01
40.000000 -40.000000 -1.202682E+01
42.000000 40.000000 -9.530719E+01
42.000000 38.000000 -7.129495E+01
42.000000 36.000000 -4.875221E+01
42.000000 34.000000 -2.293157E+01
42.000000 32.000000 -1.103386E+00
42.000000 30.000000 1.777631E+01
42.000000 28.000000 2.799631E+01
42.000000 26.000000 2.681449E+01
42.000000 24.000000 9.582763E+00
42.000000 22.000000 -1.157320E+01
42.000000 20.000000 -2.336844E+01
42.000000 18.000000 -2.555382E+01
42.000000 16.000000 -2.045148E+01
42.000000 14.000000 -4.637460E+00
42.000000 12.000000 2.375607E+01
42.000000 10.000000 4.735821E+01
42.000000 8.000000 4.244811E+01
42.000000 6.000000 1.590835E+01
42.000000 4.000000 -1.566552E+01
42.000000 2.000000 -2.812733E+01
42.000000 0.000000 -2.417991E+01
42.000000 -2.000000 -8.998352E+00
42.000000 -4.000000 5.430870E+00
42.000000 -6.000000 7.766609E+00
42.000000 -8.000000 -2.470293E+00
42.000000 -10.000000 -1.736693E+01
42.000000 -12.000000 -3.839536E+01
42.000000 -14.000000 -5.748038E+01
42.000000 -16.000000 -7.079207E+01
42.000000 -18.000000 -8.006203E+01
42.000000 -20.000000 -8.573946E+01
42.000000 -22.000000 -8.120115E+01
42.000000 -24.000000 -6.224182E+01
42.000000 -26.000000 -4.261168E+01
42.000000 -28.000000 -3.335105E+01
42.000000 -30.000000 -4.124389E+01
42.000000 -32.000000 -6.038530E+01
42.000000 -34.000000 -7.431966E+01
42.000000 -36.000000 -6.567271E+01
42.000000 -38.000000 -4.600507E+01
42.000000 -40.000000 -1.912095E+01
44.000000 40.000000 -9.654245E+01
44.000000 38.000000 -7.646004E+01
44.000000 36.000000 -5.802264E+01
44.000000 34.000000 -3.678166E+01
44.000000 32.000000 -1.734835E+01
44.000000 30.000000 4.575906E+00
44.000000 28.000000 2.400942E+01
44.000000 26.000000 3.549087E+01
44.000000 24.000000 3.589872E+01
44.000000 22.000000 2.844416E+01
44.000000 20.000000 2.320203E+01
44.000000 18.000000 1.204909E+01
44.000000 16.000000 -2.528127E+00
44.000000 14.000000 -7.163937E+00
44.000000 12.000000 4.636804E+00
44.000000 10.000000 1.719606E+01
44.000000 8.000000 1.122267E+01
44.000000 6.000000 -1.306485E+01
44.000000 4.000000 -3.236588E+01
44.000000 2.000000 -2.733512E+01
44.000000 0.000000 -7.308002E+00
44.000000 -2.000000 1.617785E+01
44.000000 -4.000000 3.244717E+01
44.000000 -6.000000 3.329559E+01
44.000000 -8.000000 2.143491E+01
44.000000 -10.000000 4.156641E+00
44.000000 -12.000000 -2.666700E+01
44.000000 -14.000000 -6.032111E+01
44.000000 -16.000000 -8.918471E+01
44.000000 -18.000000 -1.058725E+02
44.000000 -20.000000 -1.089278E+02
44.000000 -22.000000 -9.910477E+01
44.000000 -24.000000 -7.567391E+01
44.000000 -26.000000 -5.378532E+01
44.000000 -28.000000 -4.561273E+01
44.000000 -30.000000 -5.533973E+01
44.000000 -32.000000 -7.646537E+01
44.000000 -34.000000 -8.933014E+01
44.000000 -36.000000 -7.808203E+01
44.000000 -38.000000 -5.572916E+01
44.000000 -40.000000 -2.860941E+01
46.000000 40.000000 -9.475335E+01
46.000000 38.000000 -7.682481E+01
46.000000 36.000000 -6.210264E+01
46.000000 34.000000 -4.730873E+01
46.000000 32.000000 -3.331430E+01
46.000000 30.000000 -1.129616E+01
46.000000 28.000000 1.566593E+01
46.000000 26.000000 3.877238E+01
46.000000 24.000000 5.474769E+01
46.000000 22.000000 5.910704E+01
46.000000 20.000000 5.860183E+01
46.000000 18.000000 4.238894E+01
46.000000 16.000000 1.696361E+01
46.000000 14.000000 2.023582E-01
46.000000 12.000000 -4.185047E-01
46.000000 10.000000 2.780205E+00
46.000000 8.000000 -4.519538E+00
46.000000 6.000000 -2.485320E+01
46.000000 4.000000 -3.161504E+01
46.000000 2.000000 -1.285399E+01
46.000000 0.000000 1.502967E+01
46.000000 -2.000000 3.805368E+01
46.000000 -4.000000 5.066551E+01
46.000000 -6.000000 4.798323E+01
46.000000 -8.000000 3.306845E+01
46.000000 -10.000000 1.224263E+01
46.000000 -12.000000 -2.627292E+01
46.000000 -14.000000 -6.903618E+01
46.000000 -16.000000 -1.040797E+02
46.000000 -18.000000 -1.196310E+02
46.000000 -20.000000 -1.165718E+02
46.000000 -22.000000 -1.027764E+02
46.000000 -24.000000 -8.009647E+01
46.000000 -26.000000 -6.048076E+01
46.000000 -28.000000 -5.488229E+01
46.000000 -30.000000 -6.608840E+01
46.000000 -32.000000 -8.757747E+01
46.000000 -34.000000 -9.904798E+01
46.000000 -36.000000 -8.716446E+01
46.000000 -38.000000 -6.393878E+01
46.000000 -40.000000 -3.784038E+01
48.000000 40.000000 -9.088382E+01
48.000000 38.000000 -7.243020E+01
48.000000 36.000000 -6.006916E+01
48.000000 34.000000 -5.147290E+01
48.000000 32.000000 -4.414082E+01
48.000000 30.000000 -2.509192E+01
48.000000 28.000000 5.352370E+00
48.000000 26.000000 3.500924E+01
48.000000 24.000000 5.868521E+01
48.000000 22.000000 7.010333E+01
48.000000 20.000000 7.321181E+01
48.000000 18.000000 5.810400E+01
48.000000 16.000000 3.136365E+01
48.000000 14.000000 1.223197E+01
48.000000 12.000000 1.000531E+01
48.000000 10.000000 1.266959E+01
48.000000 8.000000 6.386492E+00
48.000000 6.000000 -7.210516E+00
48.000000 4.000000 -7.244269E+00
48.000000 2.000000 1.203376E+01
48.000000 0.000000 3.410215E+01
48.000000 -2.000000 4.818240E+01
48.000000 -4.000000 5.378755E+01
48.000000 -6.000000 4.733490E+01
48.000000 -8.000000 2.905173E+01
48.000000 -10.000000 3.504767E+00
48.000000 -12.000000 -3.709295E+01
48.000000 -14.000000 -7.966081E+01
48.000000 -16.000000 -1.100313E+02
48.000000 -18.000000 -1.199328E+02
48.000000 -20.000000 -1.138438E+02
48.000000 -22.000000 -1.006737E+02
48.000000 -24.000000 -8.274555E+01
48.000000 -26.000000 -6.782593E+01
48.000000 -28.000000 -6.421914E+01
48.000000 -30.000000 -7.450252E+01
48.000000 -32.000000 -9.243817E+01
48.000000 -34.000000 -1.016828E+02
48.000000 -36.000000 -9.027814E+01
48.000000 -38.000000 -6.777278E+01
48.000000 -40.000000 -4.299896E+01
50.000000 40.000000 -8.650908E+01
50.000000 38.000000 -6.541131E+01
50.000000 36.000000 -5.291616E+01
50.000000 34.000000 -4.830915E+01
50.000000 32.000000 -4.686352E+01
50.000000 30.000000 -3.271398E+01
50.000000 28.000000 -3.664632E+00
50.000000 26.000000 2.631640E+01
50.000000 24.000000 5.046024E+01
50.000000 22.000000 6.463562E+01
50.000000 20.000000 7.046995E+01
50.000000 18.000000 6.120932E+01
50.000000 16.000000 4.058181E+01
50.000000 14.000000 2.703998E+01
50.000000 12.000000 3.046288E+01
50.000000 10.000000 3.810504E+01
50.000000 8.000000 3.195215E+01
50.000000 6.000000 2.012986E+01
50.000000 4.000000 1.955166E+01
50.000000 2.000000 3.342925E+01
50.000000 0.000000 4.547642E+01
50.000000 -2.000000 4.805130E+01
50.000000 -4.000000 4.531169E+01
50.000000 -6.000000 3.437573E+01
50.000000 -8.000000 1.376838E+01
50.000000 -10.000000 -1.407929E+01
50.000000 -12.000000 -5.065040E+01
50.000000 -14.000000 -8.525936E+01
50.000000 -16.000000 -1.053334E+02
50.000000 -18.000000 -1.103542E+02
50.000000 -20.000000 -1.065436E+02
50.000000 -22.000000 -9.683654E+01
50.000000 -24.000000 -8.323654E+01
50.000000 -26.000000 -7.378414E+01
50.000000 -28.000000 -7.267441E+01
50.000000 -30.000000 -8.129703E+01
50.000000 -32.000000 -9.432228E+01
50.000000 -34.000000 -9.986116E+01
50.000000 -36.000000 -8.720528E+01
50.000000 -38.000000 -6.580595E+01
50.000000 -40.000000 -4.188976E+01
52.000000 40.000000 -8.181195E+01
52.000000 38.000000 -5.862870E+01
52.000000 36.000000 -4.447883E+01
52.000000 34.000000 -4.073562E+01
52.000000 32.000000 -4.262731E+01
