-14.000000 -32.000000 6.680211E+00
-14.000000 -34.000000 6.290523E+00
-14.000000 -36.000000 2.774859E+00
-14.000000 -38.000000 7.216091E-01
-14.000000 -40.000000 1.336356E+00
-12.000000 40.000000 -2.401395E+01
-12.000000 38.000000 -1.855670E+01
-12.000000 36.000000 -5.581669E+00
-12.000000 34.000000 1.491628E+01
-12.000000 32.000000 2.949862E+01
-12.000000 30.000000 3.061323E+01
-12.000000 28.000000 2.658399E+01
-12.000000 26.000000 2.502122E+01
-12.000000 24.000000 1.922741E+01
-12.000000 22.000000 1.418940E+01
-12.000000 20.000000 1.550345E+01
-12.000000 18.000000 3.743344E+01
-12.000000 16.000000 8.613736E+01
-12.000000 14.000000 1.397908E+02
-12.000000 12.000000 1.703530E+02
-12.000000 10.000000 1.608411E+02
-12.000000 8.000000 1.086436E+02
-12.000000 6.000000 5.111090E+01
-12.000000 4.000000 1.423712E+01
-12.000000 2.000000 5.084831E+00
-12.000000 0.000000 1.036179E+01
-12.000000 -2.000000 1.887517E+01
-12.000000 -4.000000 2.546713E+01
-12.000000 -6.000000 2.826898E+01
-12.000000 -8.000000 2.683389E+01
-12.000000 -10.000000 2.335466E+01
-12.000000 -12.000000 2.039184E+01
-12.000000 -14.000000 1.710274E+01
-12.000000 -16.000000 1.472055E+01
-12.000000 -18.000000 1.211899E+01
-12.000000 -20.000000 8.869386E+00
-12.000000 -22.000000 3.684732E+00
-12.000000 -24.000000 -6.551886E-01
-12.000000 -26.000000 -1.907337E+00
-12.000000 -28.000000 -3.975723E+00
-12.000000 -30.000000 -3.727518E+00
-12.000000 -32.000000 -1.049118E+00
-12.000000 -34.000000 1.099881E+00
-12.000000 -36.000000 -1.661996E-01
-12.000000 -38.000000 -8.447157E-01
-12.000000 -40.000000 1.168851E-01
-10.000000 40.000000 -3.038550E+01
-10.000000 38.000000 -2.353771E+01
-10.000000 36.000000 -6.269497E+00
-10.000000 34.000000 1.818532E+01
-10.000000 32.000000 3.433528E+01
-10.000000 30.000000 3.455310E+01
-10.000000 28.000000 2.743018E+01
-10.000000 26.000000 2.226869E+01
-10.000000 24.000000 1.409032E+01
-10.000000 22.000000 7.016846E+00
-10.000000 20.000000 7.394516E+00
-10.000000 18.000000 3.162978E+01
-10.000000 16.000000 8.559982E+01
-10.000000 14.000000 1.471038E+02
-10.000000 12.000000 1.870025E+02
-10.000000 10.000000 1.832097E+02
-10.000000 8.000000 1.265479E+02
-10.000000 6.000000 6.043928E+01
-10.000000 4.000000 1.498944E+01
-10.000000 2.000000 2.427189E+00
-10.000000 0.000000 7.807041E+00
-10.000000 -2.000000 1.736864E+01
-10.000000 -4.000000 2.293129E+01
-10.000000 -6.000000 2.364657E+01
-10.000000 -8.000000 2.029937E+01
-10.000000 -10.000000 1.485015E+01
-10.000000 -12.000000 1.243907E+01
-10.000000 -14.000000 1.121260E+01
-10.000000 -16.000000 1.264865E+01
-10.000000 -18.000000 1.332085E+01
-10.000000 -20.000000 1.016082E+01
-10.000000 -22.000000 2.555840E+00
-10.000000 -24.000000 -4.728385E+00
-10.000000 -26.000000 -7.537468E+00
-10.000000 -28.000000 -1.046490E+01
-10.000000 -30.000000 -1.081047E+01
-10.000000 -32.000000 -7.263834E+00
-10.000000 -34.000000 -2.942652E+00
-10.000000 -36.000000 -2.911707E+00
-10.000000 -38.000000 -3.384976E+00
-10.000000 -40.000000 -2.793880E+00
-8.000000 40.000000 -3.437957E+01
-8.000000 38.000000 -2.537339E+01
-8.000000 36.000000 -3.392239E+00
-8.000000 34.000000 2.354153E+01
-8.000000 32.000000 4.000042E+01
-8.000000 30.000000 3.916283E+01
-8.000000 28.000000 2.894799E+01
-8.000000 26.000000 2.022365E+01
-8.000000 24.000000 1.042232E+01
-8.000000 22.000000 1.808544E+00
-8.000000 20.000000 1.239597E+00
-8.000000 18.000000 2.697685E+01
-8.000000 16.000000 8.282449E+01
-8.000000 14.000000 1.466827E+02
-8.000000 12.000000 1.912038E+02
-8.000000 10.000000 1.912355E+02
-8.000000 8.000000 1.352542E+02
-8.000000 6.000000 6.606650E+01
-8.000000 4.000000 1.552196E+01
-8.000000 2.000000 1.320923E+00
-8.000000 0.000000 6.979649E+00
-8.000000 -2.000000 1.712999E+01
-8.000000 -4.000000 2.243364E+01
-8.000000 -6.000000 2.242052E+01
-8.000000 -8.000000 1.755179E+01
-8.000000 -10.000000 1.136284E+01
-8.000000 -12.000000 8.876572E+00
-8.000000 -14.000000 9.078545E+00
-8.000000 -16.000000 1.372505E+01
-8.000000 -18.000000 1.722399E+01
-8.000000 -20.000000 1.314075E+01
-8.000000 -22.000000 3.461502E+00
-8.000000 -24.000000 -5.479729E+00
-8.000000 -26.000000 -8.456589E+00
-8.000000 -28.000000 -1.222637E+01
-8.000000 -30.000000 -1.435867E+01
-8.000000 -32.000000 -1.144767E+01
-8.000000 -34.000000 -6.048540E+00
-8.000000 -36.000000 -5.129411E+00
-8.000000 -38.000000 -5.424093E+00
-8.000000 -40.000000 -5.367468E+00
-6.000000 40.000000 -3.539295E+01
-6.000000 38.000000 -2.369711E+01
-6.000000 36.000000 1.742846E+00
-6.000000 34.000000 3.027902E+01
-6.000000 32.000000 4.560796E+01
-6.000000 30.000000 4.237099E+01
-6.000000 28.000000 2.855335E+01
-6.000000 26.000000 1.730200E+01
-6.000000 24.000000 7.690018E+00
-6.000000 22.000000 -1.410110E+00
-6.000000 20.000000 -3.395355E+00
-6.000000 18.000000 2.058983E+01
-6.000000 16.000000 7.294435E+01
-6.000000 14.000000 1.350864E+02
-6.000000 12.000000 1.826011E+02
-6.000000 10.000000 1.890954E+02
-6.000000 8.000000 1.413142E+02
-6.000000 6.000000 7.524199E+01
-6.000000 4.000000 2.151806E+01
-6.000000 2.000000 2.979954E+00
-6.000000 0.000000 6.895939E+00
-6.000000 -2.000000 1.688707E+01
-6.000000 -4.000000 2.317997E+01
-6.000000 -6.000000 2.398528E+01
-6.000000 -8.000000 1.824334E+01
-6.000000 -10.000000 1.172996E+01
-6.000000 -12.000000 7.721935E+00
-6.000000 -14.000000 7.579880E+00
-6.000000 -16.000000 1.318627E+01
-6.000000 -18.000000 1.720015E+01
-6.000000 -20.000000 1.209953E+01
-6.000000 -22.000000 2.002024E+00
-6.000000 -24.000000 -6.007576E+00
-6.000000 -26.000000 -7.679335E+00
-6.000000 -28.000000 -1.128074E+01
-6.000000 -30.000000 -1.490768E+01
-6.000000 -32.000000 -1.331893E+01
-6.000000 -34.000000 -8.279980E+00
-6.000000 -36.000000 -5.841298E+00
-6.000000 -38.000000 -4.881982E+00
-6.000000 -40.000000 -5.161614E+00
-4.000000 40.000000 -3.487878E+01
-4.000000 38.000000 -2.019742E+01
-4.000000 36.000000 7.104344E+00
-4.000000 34.000000 3.491540E+01
-4.000000 32.000000 4.789864E+01
-4.000000 30.000000 4.222184E+01
-4.000000 28.000000 2.639992E+01
-4.000000 26.000000 1.520940E+01
-4.000000 24.000000 7.667507E+00
-4.000000 22.000000 -1.503029E-01
-4.000000 20.000000 -4.258614E+00
-4.000000 18.000000 1.286051E+01
-4.000000 16.000000 5.774759E+01
-4.000000 14.000000 1.180096E+02
-4.000000 12.000000 1.699329E+02
-4.000000 10.000000 1.866659E+02
-4.000000 8.000000 1.511219E+02
-4.000000 6.000000 9.068495E+01
-4.000000 4.000000 3.175358E+01
-4.000000 2.000000 3.355667E+00
-4.000000 0.000000 2.661243E+00
-4.000000 -2.000000 1.176252E+01
-4.000000 -4.000000 1.934167E+01
-4.000000 -6.000000 2.122253E+01
-4.000000 -8.000000 1.607016E+01
-4.000000 -10.000000 1.006545E+01
-4.000000 -12.000000 4.703426E+00
-4.000000 -14.000000 4.022398E+00
-4.000000 -16.000000 8.466892E+00
-4.000000 -18.000000 1.083042E+01
-4.000000 -20.000000 6.490469E+00
-4.000000 -22.000000 -5.262184E-01
-4.000000 -24.000000 -5.284697E+00
-4.000000 -26.000000 -5.162018E+00
-4.000000 -28.000000 -7.611130E+00
-4.000000 -30.000000 -1.127056E+01
-4.000000 -32.000000 -1.185812E+01
-4.000000 -34.000000 -8.652110E+00
-4.000000 -36.000000 -5.208133E+00
-4.000000 -38.000000 -2.961539E+00
-4.000000 -40.000000 -2.771856E+00
-2.000000 40.000000 -3.375267E+01
-2.000000 38.000000 -1.659844E+01
-2.000000 36.000000 9.880373E+00
-2.000000 34.000000 3.445620E+01
-2.000000 32.000000 4.520969E+01
-2.000000 30.000000 3.868003E+01
-2.000000 28.000000 2.297020E+01
-2.000000 26.000000 1.375224E+01
-2.000000 24.000000 9.104221E+00
-2.000000 22.000000 3.376015E+00
-2.000000 20.000000 -2.627533E+00
-2.000000 18.000000 6.713886E+00
-2.000000 16.000000 4.444640E+01
-2.000000 14.000000 1.037853E+02
-2.000000 12.000000 1.621101E+02
-2.000000 10.000000 1.913047E+02
-2.000000 8.000000 1.657882E+02
-2.000000 6.000000 1.071207E+02
-2.000000 4.000000 4.016824E+01
-2.000000 2.000000 5.812263E-01
-2.000000 0.000000 -6.297638E+00
-2.000000 -2.000000 1.479107E+00
-2.000000 -4.000000 7.968784E+00
-2.000000 -6.000000 9.153347E+00
-2.000000 -8.000000 6.422581E+00
-2.000000 -10.000000 2.261543E+00
-2.000000 -12.000000 -3.588638E-01
-2.000000 -14.000000 3.012886E-01
-2.000000 -16.000000 2.334579E+00
-2.000000 -18.000000 2.007200E+00
-2.000000 -20.000000 -2.613869E-01
-2.000000 -22.000000 -1.652807E+00
-2.000000 -24.000000 -1.570354E+00
-2.000000 -26.000000 1.510773E-01
-2.000000 -28.000000 -6.914291E-01
-2.000000 -30.000000 -3.050031E+00
-2.000000 -32.000000 -6.239423E+00
-2.000000 -34.000000 -6.140620E+00
-2.000000 -36.000000 -3.443234E+00
-2.000000 -38.000000 -1.012204E+00
-2.000000 -40.000000 7.457638E-02
0.000000 40.000000 -3.239652E+01
0.000000 38.000000 -1.497756E+01
0.000000 36.000000 6.742779E+00
0.000000 34.000000 2.751260E+01
0.000000 32.000000 3.788702E+01
0.000000 30.000000 3.291014E+01
0.000000 28.000000 1.916946E+01
0.000000 26.000000 1.136386E+01
0.000000 24.000000 8.861866E+00
0.000000 22.000000 4.154999E+00
0.000000 20.000000 -1.345791E+00
0.000000 18.000000 5.036472E+00
0.000000 16.000000 3.815597E+01
0.000000 14.000000 9.631393E+01
0.000000 12.000000 1.608762E+02
0.000000 10.000000 2.012359E+02
0.000000 8.000000 1.817668E+02
0.000000 6.000000 1.205437E+02
0.000000 4.000000 4.384414E+01
0.000000 2.000000 -6.178978E+00
0.000000 0.000000 -1.948882E+01
0.000000 -2.000000 -1.261277E+01
0.000000 -4.000000 -7.421818E+00
0.000000 -6.000000 -6.448925E+00
0.000000 -8.000000 -5.267841E+00
0.000000 -10.000000 -6.339931E+00
0.000000 -12.000000 -4.477333E+00
0.000000 -14.000000 -1.674007E+00
0.000000 -16.000000 -1.080986E+00
0.000000 -18.000000 -3.351625E+00
0.000000 -20.000000 -3.138191E+00
0.000000 -22.000000 -7.086563E-02
0.000000 -24.000000 4.295967E+00
0.000000 -26.000000 8.658875E+00
0.000000 -28.000000 8.973946E+00
0.000000 -30.000000 7.405509E+00
0.000000 -32.000000 3.012757E+00
0.000000 -34.000000 -2.564220E-01
0.000000 -36.000000 -5.867929E-01
0.000000 -38.000000 7.269545E-01
0.000000 -40.000000 1.985237E+00
2.000000 40.000000 -3.228167E+01
2.000000 38.000000 -1.662275E+01
2.000000 36.000000 -1.523117E+00
2.000000 34.000000 1.566619E+01
2.000000 32.000000 2.705296E+01
2.000000 30.000000 2.462632E+01
2.000000 28.000000 1.365048E+01
2.000000 26.000000 6.821831E+00
2.000000 24.000000 4.852495E+00
2.000000 22.000000 1.505295E+00
2.000000 20.000000 -1.312675E+00
2.000000 18.000000 5.128277E+00
2.000000 16.000000 3.578151E+01
2.000000 14.000000 9.160268E+01
2.000000 12.000000 1.609640E+02
2.000000 10.000000 2.104828E+02
2.000000 8.000000 1.951803E+02
2.000000 6.000000 1.320119E+02
2.000000 4.000000 4.562103E+01
2.000000 2.000000 -1.340221E+01
2.000000 0.000000 -3.320652E+01
2.000000 -2.000000 -2.785019E+01
2.000000 -4.000000 -1.938090E+01
2.000000 -6.000000 -1.322918E+01
2.000000 -8.000000 -8.657967E+00
2.000000 -10.000000 -6.568962E+00
2.000000 -12.000000 -4.152744E+00
2.000000 -14.000000 -9.090080E-01
2.000000 -16.000000 7.032928E-01
2.000000 -18.000000 -1.389103E+00
2.000000 -20.000000 -6.677418E-01
2.000000 -22.000000 3.053146E+00
2.000000 -24.000000 9.758873E+00
2.000000 -26.000000 1.717795E+01
2.000000 -28.000000 1.970737E+01
2.000000 -30.000000 1.854037E+01
2.000000 -32.000000 1.355314E+01
2.000000 -34.000000 7.308574E+00
2.000000 -36.000000 3.252493E+00
2.000000 -38.000000 2.335415E+00
2.000000 -40.000000 2.635995E+00
4.000000 40.000000 -3.351480E+01
4.000000 38.000000 -2.088541E+01
4.000000 36.000000 -1.179607E+01
4.000000 34.000000 1.409080E+00
4.000000 32.000000 1.318135E+01
4.000000 30.000000 1.234529E+01
4.000000 28.000000 4.223892E+00
4.000000 26.000000 -8.486080E-01
4.000000 24.000000 -3.028370E+00
4.000000 22.000000 -4.002785E+00
4.000000 20.000000 -4.296730E+00
4.000000 18.000000 2.267567E+00
4.000000 16.000000 3.089007E+01
4.000000 14.000000 8.314206E+01
4.000000 12.000000 1.568706E+02
4.000000 10.000000 2.170821E+02
4.000000 8.000000 2.088300E+02
4.000000 6.000000 1.473536E+02
4.000000 4.000000 5.370255E+01
4.000000 2.000000 -1.469760E+01
4.000000 0.000000 -4.254435E+01
4.000000 -2.000000 -3.968629E+01
4.000000 -4.000000 -2.633516E+01
4.000000 -6.000000 -1.237696E+01
4.000000 -8.000000 -3.603390E+00
4.000000 -10.000000 1.385662E+00
4.000000 -12.000000 2.275375E+00
4.000000 -14.000000 4.781351E+00
4.000000 -16.000000 7.409445E+00
4.000000 -18.000000 6.664131E+00
4.000000 -20.000000 6.340214E+00
4.000000 -22.000000 8.753454E+00
4.000000 -24.000000 1.506414E+01
4.000000 -26.000000 2.336165E+01
4.000000 -28.000000 2.897275E+01
4.000000 -30.000000 2.856965E+01
4.000000 -32.000000 2.232555E+01
4.000000 -34.000000 1.377980E+01
4.000000 -36.000000 7.148592E+00
4.000000 -38.000000 3.941811E+00
4.000000 -40.000000 3.044306E+00
6.000000 40.000000 -3.436407E+01
6.000000 38.000000 -2.582397E+01
6.000000 36.000000 -2.153670E+01
6.000000 34.000000 -1.320562E+01
6.000000 32.000000 -3.652183E+00
6.000000 30.000000 -3.595287E+00
6.000000 28.000000 -8.556150E+00
6.000000 26.000000 -1.093767E+01
6.000000 24.000000 -1.176227E+01
6.000000 22.000000 -1.104357E+01
6.000000 20.000000 -1.145743E+01
6.000000 18.000000 -6.018829E+00
6.000000 16.000000 1.975528E+01
6.000000 14.000000 7.010006E+01
6.000000 12.000000 1.464088E+02
6.000000 10.000000 2.168683E+02
6.000000 8.000000 2.210146E+02
6.000000 6.000000 1.670525E+02
6.000000 4.000000 7.166901E+01
6.000000 2.000000 -6.532940E+00
6.000000 0.000000 -4.483075E+01
6.000000 -2.000000 -4.532922E+01
6.000000 -4.000000 -2.778913E+01
6.000000 -6.000000 -7.146805E+00
6.000000 -8.000000 5.704441E+00
6.000000 -10.000000 1.249612E+01
6.000000 -12.000000 1.142240E+01
6.000000 -14.000000 1.177908E+01
6.000000 -16.000000 1.483080E+01
6.000000 -18.000000 1.680690E+01
6.000000 -20.000000 1.714214E+01
6.000000 -22.000000 1.824526E+01
6.000000 -24.000000 2.192596E+01
6.000000 -26.000000 2.860564E+01
6.000000 -28.000000 3.474471E+01
6.000000 -30.000000 3.444942E+01
6.000000 -32.000000 2.715595E+01
6.000000 -34.000000 1.754919E+01
6.000000 -36.000000 9.732418E+00
6.000000 -38.000000 5.579542E+00
6.000000 -40.000000 5.010809E+00
8.000000 40.000000 -3.451904E+01
8.000000 38.000000 -3.009735E+01
8.000000 36.000000 -2.868870E+01
8.000000 34.000000 -2.501372E+01
8.000000 32.000000 -1.934963E+01
8.000000 30.000000 -1.861648E+01
8.000000 28.000000 -2.063862E+01
8.000000 26.000000 -1.972781E+01
8.000000 24.000000 -1.759471E+01
8.000000 22.000000 -1.497344E+01
8.000000 20.000000 -1.564471E+01
8.000000 18.000000 -1.297426E+01
8.000000 16.000000 7.376358E+00
8.000000 14.000000 5.384253E+01
8.000000 12.000000 1.280447E+02
8.000000 10.000000 2.021574E+02
8.000000 8.000000 2.200272E+02
8.000000 6.000000 1.800820E+02
8.000000 4.000000 8.876537E+01
8.000000 2.000000 4.145348E+00
8.000000 0.000000 -4.244013E+01
8.000000 -2.000000 -4.504367E+01
8.000000 -4.000000 -2.418048E+01
8.000000 -6.000000 1.634594E+00
8.000000 -8.000000 1.615966E+01
8.000000 -10.000000 2.205148E+01
8.000000 -12.000000 1.733027E+01
8.000000 -14.000000 1.497502E+01
8.000000 -16.000000 2.156968E+01
8.000000 -18.000000 2.887170E+01
8.000000 -20.000000 3.021341E+01
8.000000 -22.000000 2.867261E+01
8.000000 -24.000000 2.867463E+01
8.000000 -26.000000 3.213402E+01
8.000000 -28.000000 3.632036E+01
8.000000 -30.000000 3.536140E+01
8.000000 -32.000000 2.769816E+01
8.000000 -34.000000 1.848843E+01
8.000000 -36.000000 1.121518E+01
8.000000 -38.000000 7.963357E+00
8.000000 -40.000000 9.349947E+00
10.000000 40.000000 -3.517253E+01
10.000000 38.000000 -3.225633E+01
10.000000 36.000000 -3.112295E+01
10.000000 34.000000 -2.962755E+01
10.000000 32.000000 -2.679168E+01
10.000000 30.000000 -2.629314E+01
10.000000 28.000000 -2.670923E+01
10.000000 26.000000 -2.333160E+01
10.000000 24.000000 -1.803282E+01
10.000000 22.000000 -1.211676E+01
10.000000 20.000000 -1.143163E+01
10.000000 18.000000 -1.213820E+01
10.000000 16.000000 -1.011675E+00
10.000000 14.000000 3.589057E+01
10.000000 12.000000 1.031254E+02
10.000000 10.000000 1.729504E+02
10.000000 8.000000 2.022661E+02
10.000000 6.000000 1.788763E+02
10.000000 4.000000 9.690001E+01
10.000000 2.000000 1.247111E+01
10.000000 0.000000 -3.731094E+01
10.000000 -2.000000 -4.011535E+01
10.000000 -4.000000 -1.763632E+01
10.000000 -6.000000 9.245955E+00
10.000000 -8.000000 2.067720E+01
10.000000 -10.000000 2.145682E+01
10.000000 -12.000000 1.412101E+01
10.000000 -14.000000 1.391914E+01
10.000000 -16.000000 2.764881E+01
10.000000 -18.000000 4.086171E+01
10.000000 -20.000000 4.171663E+01
10.000000 -22.000000 3.555245E+01
10.000000 -24.000000 3.082382E+01
10.000000 -26.000000 3.120772E+01
10.000000 -28.000000 3.444815E+01
10.000000 -30.000000 3.301578E+01
10.000000 -32.000000 2.555777E+01
10.000000 -34.000000 1.785293E+01
10.000000 -36.000000 1.329029E+01
10.000000 -38.000000 1.276762E+01
10.000000 -40.000000 1.584243E+01
12.000000 40.000000 -3.774270E+01
12.000000 38.000000 -3.277884E+01
12.000000 36.000000 -2.784886E+01
12.000000 34.000000 -2.399755E+01
12.000000 32.000000 -2.154754E+01
12.000000 30.000000 -2.222661E+01
12.000000 28.000000 -2.322890E+01
12.000000 26.000000 -1.908274E+01
12.000000 24.000000 -1.095599E+01
12.000000 22.000000 -1.640535E+00
12.000000 20.000000 6.420631E-01
12.000000 18.000000 -4.387156E+00
12.000000 16.000000 -2.673407E+00
12.000000 14.000000 2.232242E+01
12.000000 12.000000 7.854284E+01
12.000000 10.000000 1.409849E+02
12.000000 8.000000 1.732685E+02
12.000000 6.000000 1.596431E+02
12.000000 4.000000 9.312846E+01
12.000000 2.000000 1.790172E+01
12.000000 0.000000 -2.887193E+01
12.000000 -2.000000 -3.257488E+01
12.000000 -4.000000 -1.183102E+01
12.000000 -6.000000 9.312733E+00
12.000000 -8.000000 1.029975E+01
12.000000 -10.000000 2.672384E+00
12.000000 -12.000000 -1.265261E+00
12.000000 -14.000000 1.061422E+01
12.000000 -16.000000 3.396339E+01
12.000000 -18.000000 5.095575E+01
12.000000 -20.000000 4.931271E+01
12.000000 -22.000000 3.719879E+01
12.000000 -24.000000 2.756844E+01
12.000000 -26.000000 2.606583E+01
12.000000 -28.000000 2.926819E+01
12.000000 -30.000000 2.791596E+01
12.000000 -32.000000 2.169340E+01
12.000000 -34.000000 1.685609E+01
12.000000 -36.000000 1.661077E+01
12.000000 -38.000000 1.962740E+01
12.000000 -40.000000 2.412632E+01
14.000000 40.000000 -4.273188E+01
14.000000 38.000000 -3.273566E+01
14.000000 36.000000 -1.936585E+01
14.000000 34.000000 -8.416925E+00
14.000000 32.000000 -3.781003E+00
14.000000 30.000000 -6.518183E+00
14.000000 28.000000 -1.039863E+01
14.000000 26.000000 -7.122415E+00
14.000000 24.000000 2.164232E+00
14.000000 22.000000 1.337908E+01
14.000000 20.000000 1.613612E+01
14.000000 18.000000 6.906166E+00
14.000000 16.000000 3.480934E+00
14.000000 14.000000 2.003277E+01
14.000000 12.000000 6.314536E+01
14.000000 10.000000 1.141228E+02
14.000000 8.000000 1.405695E+02
14.000000 6.000000 1.299036E+02
14.000000 4.000000 8.072258E+01
14.000000 2.000000 2.134539E+01
14.000000 0.000000 -1.825590E+01
14.000000 -2.000000 -2.458670E+01
14.000000 -4.000000 -1.149355E+01
14.000000 -6.000000 -4.051788E+00
14.000000 -8.000000 -1.740515E+01
14.000000 -10.000000 -3.179163E+01
14.000000 -12.000000 -2.488571E+01
14.000000 -14.000000 5.675425E+00
14.000000 -16.000000 4.227479E+01
14.000000 -18.000000 6.151019E+01
14.000000 -20.000000 5.366156E+01
14.000000 -22.000000 3.423605E+01
14.000000 -24.000000 2.079785E+01
14.000000 -26.000000 1.775159E+01
14.000000 -28.000000 2.003083E+01
14.000000 -30.000000 1.978247E+01
14.000000 -32.000000 1.609405E+01
14.000000 -34.000000 1.578669E+01
14.000000 -36.000000 2.068480E+01
14.000000 -38.000000 2.706351E+01
14.000000 -40.000000 3.357841E+01
16.000000 40.000000 -4.761172E+01
16.000000 38.000000 -3.138040E+01
16.000000 36.000000 -8.849947E+00
16.000000 34.000000 1.117275E+01
16.000000 32.000000 1.931651E+01
16.000000 30.000000 1.470333E+01
16.000000 28.000000 7.538228E+00
16.000000 26.000000 8.382106E+00
16.000000 24.000000 1.671070E+01
16.000000 22.000000 2.755657E+01
16.000000 20.000000 2.986035E+01
16.000000 18.000000 2.059968E+01
16.000000 16.000000 1.791312E+01
16.000000 14.000000 3.100784E+01
16.000000 12.000000 6.230361E+01
16.000000 10.000000 9.751001E+01
16.000000 8.000000 1.133556E+02
16.000000 6.000000 1.023314E+02
16.000000 4.000000 6.754084E+01
16.000000 2.000000 2.663545E+01
16.000000 0.000000 -5.015730E+00
16.000000 -2.000000 -1.839734E+01
16.000000 -4.000000 -2.004743E+01
16.000000 -6.000000 -3.279098E+01
16.000000 -8.000000 -5.927259E+01
16.000000 -10.000000 -7.524062E+01
16.000000 -12.000000 -5.096236E+01
16.000000 -14.000000 3.089607E+00
16.000000 -16.000000 5.490742E+01
16.000000 -18.000000 7.311670E+01
16.000000 -20.000000 5.565124E+01
16.000000 -22.000000 2.785792E+01
16.000000 -24.000000 1.029192E+01
16.000000 -26.000000 6.340448E+00
16.000000 -28.000000 8.091496E+00
16.000000 -30.000000 8.845921E+00
16.000000 -32.000000 8.664849E+00
16.000000 -34.000000 1.413449E+01
16.000000 -36.000000 2.527594E+01
16.000000 -38.000000 3.552357E+01
16.000000 -40.000000 4.372916E+01
18.000000 40.000000 -5.083756E+01
18.000000 38.000000 -2.959170E+01
18.000000 36.000000 -4.484558E-02
18.000000 34.000000 2.850926E+01
18.000000 32.000000 4.076439E+01
18.000000 30.000000 3.526715E+01
18.000000 28.000000 2.532139E+01
18.000000 26.000000 2.269714E+01
18.000000 24.000000 2.836475E+01
18.000000 22.000000 3.724769E+01
18.000000 20.000000 4.026671E+01
18.000000 18.000000 3.438916E+01
18.000000 16.000000 3.567196E+01
18.000000 14.000000 4.932411E+01
18.000000 12.000000 7.355096E+01
18.000000 10.000000 9.498842E+01
18.000000 8.000000 9.823336E+01
18.000000 6.000000 8.533695E+01
18.000000 4.000000 6.167643E+01
18.000000 2.000000 3.486665E+01
18.000000 0.000000 8.480396E+00
18.000000 -2.000000 -1.652005E+01
18.000000 -4.000000 -3.962880E+01
18.000000 -6.000000 -7.349227E+01
18.000000 -8.000000 -1.075220E+02
18.000000 -10.000000 -1.194074E+02
18.000000 -12.000000 -7.267428E+01
18.000000 -14.000000 5.544494E+00
18.000000 -16.000000 6.996922E+01
18.000000 -18.000000 8.422980E+01
18.000000 -20.000000 5.628702E+01
18.000000 -22.000000 1.986885E+01
18.000000 -24.000000 -2.082329E+00
18.000000 -26.000000 -5.362392E+00
18.000000 -28.000000 -3.589868E+00
18.000000 -30.000000 -2.948371E+00
18.000000 -32.000000 7.354498E-01
18.000000 -34.000000 1.227645E+01
18.000000 -36.000000 3.009985E+01
18.000000 -38.000000 4.440138E+01
18.000000 -40.000000 5.327080E+01
20.000000 40.000000 -5.338432E+01
20.000000 38.000000 -2.937715E+01
20.000000 36.000000 5.799763E+00
20.000000 34.000000 4.103363E+01
20.000000 32.000000 5.730269E+01
20.000000 30.000000 5.172075E+01
20.000000 28.000000 3.850104E+01
20.000000 26.000000 3.204766E+01
20.000000 24.000000 3.504400E+01
20.000000 22.000000 4.138952E+01
20.000000 20.000000 4.552019E+01
20.000000 18.000000 4.349255E+01
20.000000 16.000000 4.933228E+01
20.000000 14.000000 6.586752E+01
20.000000 12.000000 8.800671E+01
20.000000 10.000000 1.013329E+02
20.000000 8.000000 9.403518E+01
20.000000 6.000000 7.928012E+01
20.000000 4.000000 6.289933E+01
20.000000 2.000000 4.318160E+01
20.000000 0.000000 1.756438E+01
20.000000 -2.000000 -2.107630E+01
20.000000 -4.000000 -6.560740E+01
20.000000 -6.000000 -1.144872E+02
20.000000 -8.000000 -1.480375E+02
20.000000 -10.000000 -1.507216E+02
20.000000 -12.000000 -8.247763E+01
20.000000 -14.000000 1.392566E+01
20.000000 -16.000000 8.426006E+01
20.000000 -18.000000 9.232115E+01
20.000000 -20.000000 5.572302E+01
20.000000 -22.000000 1.296633E+01
20.000000 -24.000000 -1.192963E+01
20.000000 -26.000000 -1.526948E+01
20.000000 -28.000000 -1.315053E+01
20.000000 -30.000000 -1.170660E+01
20.000000 -32.000000 -5.369740E+00
20.000000 -34.000000 1.138776E+01
20.000000 -36.000000 3.461106E+01
20.000000 -38.000000 5.116559E+01
20.000000 -40.000000 6.006028E+01
22.000000 40.000000 -5.579206E+01
22.000000 38.000000 -3.128747E+01
22.000000 36.000000 6.941669E+00
22.000000 34.000000 4.601817E+01
22.000000 32.000000 6.559963E+01
22.000000 30.000000 6.124457E+01
22.000000 28.000000 4.587019E+01
22.000000 26.000000 3.654445E+01
22.000000 24.000000 3.786051E+01
22.000000 22.000000 4.161071E+01
22.000000 20.000000 4.521209E+01
22.000000 18.000000 4.644835E+01
22.000000 16.000000 5.624137E+01
22.000000 14.000000 7.434788E+01
22.000000 12.000000 9.463167E+01
22.000000 10.000000 1.047492E+02
22.000000 8.000000 9.378768E+01
22.000000 6.000000 7.887570E+01
22.000000 4.000000 6.564682E+01
22.000000 2.000000 4.584715E+01
22.000000 0.000000 1.394234E+01
22.000000 -2.000000 -3.488474E+01
22.000000 -4.000000 -8.947001E+01
22.000000 -6.000000 -1.407160E+02
22.000000 -8.000000 -1.660921E+02
22.000000 -10.000000 -1.551581E+02
22.000000 -12.000000 -7.447484E+01
22.000000 -14.000000 2.836502E+01
22.000000 -16.000000 9.683674E+01
22.000000 -18.000000 9.700473E+01
22.000000 -20.000000 5.289123E+01
22.000000 -22.000000 7.774787E+00
22.000000 -24.000000 -1.790540E+01
22.000000 -26.000000 -2.216493E+01
22.000000 -28.000000 -1.909806E+01
22.000000 -30.000000 -1.605153E+01
22.000000 -32.000000 -8.669618E+00
22.000000 -34.000000 1.125863E+01
22.000000 -36.000000 3.776340E+01
22.000000 -38.000000 5.460954E+01
22.000000 -40.000000 6.261264E+01
24.000000 40.000000 -5.814295E+01
24.000000 38.000000 -3.537344E+01
24.000000 36.000000 1.134214E+00
24.000000 34.000000 4.098174E+01
24.000000 32.000000 6.313938E+01
24.000000 30.000000 6.144668E+01
24.000000 28.000000 4.710981E+01
24.000000 26.000000 3.596286E+01
24.000000 24.000000 3.638897E+01
24.000000 22.000000 3.931868E+01
24.000000 20.000000 4.260733E+01
24.000000 18.000000 4.662197E+01
24.000000 16.000000 5.794456E+01
24.000000 14.000000 7.476931E+01
24.000000 12.000000 9.238778E+01
24.000000 10.000000 1.005355E+02
24.000000 8.000000 9.139168E+01
24.000000 6.000000 7.854431E+01
24.000000 4.000000 6.463225E+01
24.000000 2.000000 3.912514E+01
24.000000 0.000000 -9.025946E-01
24.000000 -2.000000 -5.273364E+01
24.000000 -4.000000 -1.036720E+02
24.000000 -6.000000 -1.441826E+02
24.000000 -8.000000 -1.577800E+02
24.000000 -10.000000 -1.358700E+02
24.000000 -12.000000 -5.282883E+01
24.000000 -14.000000 4.578663E+01
24.000000 -16.000000 1.050913E+02
24.000000 -18.000000 9.551836E+01
24.000000 -20.000000 4.526268E+01
24.000000 -22.000000 8.230219E-01
24.000000 -24.000000 -2.163563E+01
24.000000 -26.000000 -2.369690E+01
24.000000 -28.000000 -2.051513E+01
24.000000 -30.000000 -1.636496E+01
24.000000 -32.000000 -8.540467E+00
24.000000 -34.000000 1.195781E+01
24.000000 -36.000000 3.923451E+01
24.000000 -38.000000 5.484226E+01
24.000000 -40.000000 6.059816E+01
26.000000 40.000000 -6.081903E+01
26.000000 38.000000 -4.141913E+01
26.000000 36.000000 -1.015281E+01
26.000000 34.000000 2.745673E+01
26.000000 32.000000 5.128125E+01
26.000000 30.000000 5.104408E+01
26.000000 28.000000 3.727850E+01
26.000000 26.000000 2.583846E+01
26.000000 24.000000 2.720137E+01
26.000000 22.000000 3.215585E+01
26.000000 20.000000 3.878476E+01
26.000000 18.000000 4.630921E+01
26.000000 16.000000 5.878215E+01
26.000000 14.000000 7.374184E+01
26.000000 12.000000 8.817021E+01
26.000000 10.000000 9.283669E+01
26.000000 8.000000 8.563352E+01
26.000000 6.000000 7.516657E+01
26.000000 4.000000 5.726672E+01
26.000000 2.000000 2.406839E+01
26.000000 0.000000 -1.967864E+01
26.000000 -2.000000 -6.569783E+01
26.000000 -4.000000 -1.021230E+02
26.000000 -6.000000 -1.238340E+02
26.000000 -8.000000 -1.271033E+02
26.000000 -10.000000 -1.012586E+02
26.000000 -12.000000 -2.683375E+01
26.000000 -14.000000 5.753372E+01
26.000000 -16.000000 1.025288E+02
26.000000 -18.000000 8.353672E+01
26.000000 -20.000000 3.085127E+01
26.000000 -22.000000 -1.027269E+01
26.000000 -24.000000 -2.585739E+01
26.000000 -26.000000 -2.314695E+01
26.000000 -28.000000 -1.919566E+01
26.000000 -30.000000 -1.340657E+01
26.000000 -32.000000 -4.453531E+00
26.000000 -34.000000 1.514635E+01
26.000000 -36.000000 3.950711E+01
26.000000 -38.000000 5.214013E+01
26.000000 -40.000000 5.532020E+01
28.000000 40.000000 -6.418172E+01
28.000000 38.000000 -4.880681E+01
28.000000 36.000000 -2.385643E+01
28.000000 34.000000 8.862051E+00
28.000000 32.000000 3.286256E+01
28.000000 30.000000 3.145986E+01
28.000000 28.000000 1.559773E+01
28.000000 26.000000 4.199312E+00
28.000000 24.000000 7.047368E+00
28.000000 22.000000 1.637160E+01
28.000000 20.000000 3.044975E+01
28.000000 18.000000 4.499734E+01
28.000000 16.000000 6.084453E+01
28.000000 14.000000 7.565861E+01
28.000000 12.000000 8.713364E+01
28.000000 10.000000 8.828912E+01
28.000000 8.000000 7.886210E+01
28.000000 6.000000 6.605960E+01
28.000000 4.000000 4.330634E+01
28.000000 2.000000 5.597852E+00
28.000000 0.000000 -3.429894E+01
28.000000 -2.000000 -6.632269E+01
28.000000 -4.000000 -8.353733E+01
28.000000 -6.000000 -8.817062E+01
28.000000 -8.000000 -8.461909E+01
28.000000 -10.000000 -6.151480E+01
28.000000 -12.000000 -6.610524E+00
28.000000 -14.000000 5.531507E+01
28.000000 -16.000000 8.468777E+01
28.000000 -18.000000 6.147842E+01
28.000000 -20.000000 1.139077E+01
28.000000 -22.000000 -2.479972E+01
28.000000 -24.000000 -3.159167E+01
28.000000 -26.000000 -2.218759E+01
28.000000 -28.000000 -1.526384E+01
28.000000 -30.000000 -7.444988E+00
28.000000 -32.000000 3.316835E+00
28.000000 -34.000000 2.116899E+01
28.000000 -36.000000 3.860346E+01
28.000000 -38.000000 4.653226E+01
28.000000 -40.000000 4.756172E+01
30.000000 40.000000 -6.877159E+01
30.000000 38.000000 -5.841036E+01
30.000000 36.000000 -3.846941E+01
30.000000 34.000000 -1.167226E+01
30.000000 32.000000 9.978889E+00
30.000000 30.000000 7.706768E+00
30.000000 28.000000 -1.031870E+01
30.000000 26.000000 -2.405020E+01
30.000000 24.000000 -2.367946E+01
30.000000 22.000000 -8.367146E+00
30.000000 20.000000 1.513133E+01
30.000000 18.000000 4.014255E+01
30.000000 16.000000 6.222670E+01
30.000000 14.000000 8.044029E+01
30.000000 12.000000 9.141723E+01
30.000000 10.000000 9.080321E+01
30.000000 8.000000 7.502164E+01
30.000000 6.000000 5.397103E+01
30.000000 4.000000 2.605478E+01
30.000000 2.000000 -1.164612E+01
30.000000 0.000000 -4.181721E+01
30.000000 -2.000000 -5.614013E+01
30.000000 -4.000000 -5.559706E+01
30.000000 -6.000000 -4.997103E+01
30.000000 -8.000000 -4.550031E+01
30.000000 -10.000000 -3.131798E+01
30.000000 -12.000000 -6.298060E-01
30.000000 -14.000000 3.724049E+01
30.000000 -16.000000 5.364150E+01
30.000000 -18.000000 3.188083E+01
30.000000 -20.000000 -1.081789E+01
30.000000 -22.000000 -3.876498E+01
30.000000 -24.000000 -3.603289E+01
30.000000 -26.000000 -1.764559E+01
30.000000 -28.000000 -6.310701E+00
30.000000 -30.000000 2.740139E+00
30.000000 -32.000000 1.392342E+01
30.000000 -34.000000 2.837780E+01
30.000000 -36.000000 3.667611E+01
30.000000 -38.000000 3.809963E+01
30.000000 -40.000000 3.656486E+01
32.000000 40.000000 -7.554345E+01
32.000000 38.000000 -7.053554E+01
32.000000 36.000000 -5.423392E+01
32.000000 34.000000 -3.198212E+01
32.000000 32.000000 -1.223219E+01
32.000000 30.000000 -1.340159E+01
32.000000 28.000000 -3.184261E+01
32.000000 26.000000 -4.893731E+01
32.000000 24.000000 -5.512792E+01
32.000000 22.000000 -3.755373E+01
32.000000 20.000000 -8.256358E+00
32.000000 18.000000 2.628876E+01
32.000000 16.000000 5.800910E+01
32.000000 14.000000 8.494425E+01
32.000000 12.000000 1.001727E+02
32.000000 10.000000 9.861557E+01
32.000000 8.000000 7.522093E+01
32.000000 6.000000 4.388747E+01
32.000000 4.000000 9.114516E+00
32.000000 2.000000 -2.462216E+01
32.000000 0.000000 -4.363279E+01
32.000000 -2.000000 -4.400823E+01
32.000000 -4.000000 -3.176349E+01
32.000000 -6.000000 -2.093630E+01
32.000000 -8.000000 -2.135021E+01
32.000000 -10.000000 -1.972013E+01
32.000000 -12.000000 -9.094447E+00
32.000000 -14.000000 9.568340E+00
32.000000 -16.000000 1.657387E+01
32.000000 -18.000000 -6.621339E-01
32.000000 -20.000000 -3.107773E+01
32.000000 -22.000000 -4.746281E+01
32.000000 -24.000000 -3.618198E+01
32.000000 -26.000000 -1.009853E+01
32.000000 -28.000000 4.927755E+00
32.000000 -30.000000 1.430620E+01
32.000000 -32.000000 2.423319E+01
32.000000 -34.000000 3.424843E+01
32.000000 -36.000000 3.375726E+01
32.000000 -38.000000 2.864572E+01
32.000000 -40.000000 2.418712E+01
34.000000 40.000000 -8.530968E+01
34.000000 38.000000 -8.426588E+01
34.000000 36.000000 -7.105147E+01
34.000000 34.000000 -4.983021E+01
34.000000 32.000000 -2.762384E+01
34.000000 30.000000 -2.544345E+01
34.000000 28.000000 -4.223564E+01
34.000000 26.000000 -6.162188E+01
34.000000 24.000000 -7.556872E+01
34.000000 22.000000 -6.388086E+01
34.000000 20.000000 -3.739306E+01
34.000000 18.000000 2.384355E+00
34.000000 16.000000 4.527924E+01
34.000000 14.000000 8.398925E+01
34.000000 12.000000 1.065140E+02
34.000000 10.000000 1.060195E+02
34.000000 8.000000 7.631151E+01
34.000000 6.000000 3.538351E+01
34.000000 4.000000 -6.500845E+00
34.000000 2.000000 -3.615125E+01
34.000000 0.000000 -4.628374E+01
34.000000 -2.000000 -3.788290E+01
34.000000 -4.000000 -1.980419E+01
34.000000 -6.000000 -8.085539E+00
34.000000 -8.000000 -1.487121E+01
34.000000 -10.000000 -2.419494E+01
34.000000 -12.000000 -2.561486E+01
34.000000 -14.000000 -1.859253E+01
34.000000 -16.000000 -1.654901E+01
34.000000 -18.000000 -2.749377E+01
34.000000 -20.000000 -4.401993E+01
34.000000 -22.000000 -4.838121E+01
34.000000 -24.000000 -2.996722E+01
34.000000 -26.000000 -2.353773E+00
34.000000 -28.000000 1.291816E+01
34.000000 -30.000000 2.212533E+01
34.000000 -32.000000 3.008378E+01
34.000000 -34.000000 3.580408E+01
34.000000 -36.000000 2.932675E+01
34.000000 -38.000000 2.031494E+01
34.000000 -40.000000 1.341652E+01
36.000000 40.000000 -9.771762E+01
36.000000 38.000000 -1.000003E+02
36.000000 36.000000 -8.880001E+01
36.000000 34.000000 -6.412777E+01
36.000000 32.000000 -3.447765E+01
36.000000 30.000000 -2.513831E+01
36.000000 28.000000 -3.741274E+01
36.000000 26.000000 -5.771707E+01
36.000000 24.000000 -7.850234E+01
36.000000 22.000000 -7.888776E+01
36.000000 20.000000 -6.322134E+01
36.000000 18.000000 -2.616122E+01
36.000000 16.000000 2.424345E+01
36.000000 14.000000 7.345742E+01
36.000000 12.000000 1.041867E+02
36.000000 10.000000 1.072365E+02
36.000000 8.000000 7.350760E+01
36.000000 6.000000 2.487651E+01
36.000000 4.000000 -2.242269E+01
36.000000 2.000000 -4.900155E+01
36.000000 0.000000 -5.459954E+01
36.000000 -2.000000 -4.173644E+01
36.000000 -4.000000 -2.153469E+01
36.000000 -6.000000 -1.250869E+01
36.000000 -8.000000 -2.329942E+01
36.000000 -10.000000 -3.793574E+01
36.000000 -12.000000 -4.377633E+01
36.000000 -14.000000 -4.174172E+01
36.000000 -16.000000 -3.967980E+01
36.000000 -18.000000 -4.272986E+01
36.000000 -20.000000 -4.696320E+01
36.000000 -22.000000 -4.221263E+01
36.000000 -24.000000 -1.959278E+01
36.000000 -26.000000 5.762063E+00
36.000000 -28.000000 1.818780E+01
36.000000 -30.000000 2.592546E+01
36.000000 -32.000000 3.105823E+01
36.000000 -34.000000 3.302659E+01
36.000000 -36.000000 2.329204E+01
36.000000 -38.000000 1.253919E+01
36.000000 -40.000000 3.426093E+00
38.000000 40.000000 -1.109031E+02
38.000000 38.000000 -1.166946E+02
38.000000 36.000000 -1.068394E+02
38.000000 34.000000 -7.615669E+01
38.000000 32.000000 -3.581778E+01
38.000000 30.000000 -1.575282E+01
38.000000 28.000000 -1.987353E+01
38.000000 26.000000 -3.849274E+01
38.000000 24.000000 -6.330848E+01
38.000000 22.000000 -7.652296E+01
38.000000 20.000000 -7.496761E+01
38.000000 18.000000 -4.870705E+01
38.000000 16.000000 5.991049E-01
38.000000 14.000000 5.389300E+01
38.000000 12.000000 8.990689E+01
38.000000 10.000000 9.607289E+01
38.000000 8.000000 6.166702E+01
38.000000 6.000000 1.042779E+01
38.000000 4.000000 -3.752463E+01
38.000000 2.000000 -6.108081E+01
38.000000 0.000000 -6.437689E+01
38.000000 -2.000000 -5.070464E+01
38.000000 -4.000000 -3.262770E+01
38.000000 -6.000000 -2.671987E+01
38.000000 -8.000000 -3.734271E+01
38.000000 -10.000000 -5.174678E+01
38.000000 -12.000000 -5.810207E+01
38.000000 -14.000000 -5.791781E+01
38.000000 -16.000000 -5.353984E+01
38.000000 -18.000000 -4.922316E+01
38.000000 -20.000000 -4.427429E+01
38.000000 -22.000000 -3.407449E+01
38.000000 -24.000000 -1.135785E+01
38.000000 -26.000000 1.205980E+01
38.000000 -28.000000 2.141289E+01
38.000000 -30.000000 2.659716E+01
38.000000 -32.000000 2.799276E+01
38.000000 -34.000000 2.695647E+01
38.000000 -36.000000 1.627899E+01
38.000000 -38.000000 5.033395E+00
38.000000 -40.000000 -6.441566E+00
40.000000 40.000000 -1.216280E+02
40.000000 38.000000 -1.306880E+02
40.000000 36.000000 -1.231182E+02
40.000000 34.000000 -8.878949E+01
40.000000 32.000000 -3.786757E+01
40.000000 30.000000 -4.830030E+00
40.000000 28.000000 2.076330E+00
40.000000 26.000000 -1.153134E+01
40.000000 24.000000 -3.592265E+01
40.000000 22.000000 -5.717832E+01
40.000000 20.000000 -6.640796E+01
40.000000 18.000000 -5.458640E+01
40.000000 16.000000 -1.723569E+01
40.000000 14.000000 2.898215E+01
40.000000 12.000000 6.410517E+01
40.000000 10.000000 7.189542E+01
40.000000 8.000000 4.147339E+01
40.000000 6.000000 -4.597511E+00
40.000000 4.000000 -4.590072E+01
40.000000 2.000000 -6.533953E+01
40.000000 0.000000 -6.725166E+01
40.000000 -2.000000 -5.565739E+01
40.000000 -4.000000 -4.268603E+01
40.000000 -6.000000 -3.886968E+01
40.000000 -8.000000 -4.641282E+01
40.000000 -10.000000 -5.740333E+01
40.000000 -12.000000 -6.390595E+01
40.000000 -14.000000 -6.651043E+01
40.000000 -16.000000 -6.257891E+01
40.000000 -18.000000 -5.478927E+01
40.000000 -20.000000 -4.522715E+01
40.000000 -22.000000 -3.256758E+01
40.000000 -24.000000 -1.098099E+01
40.000000 -26.000000 1.217748E+01
40.000000 -28.000000 1.994170E+01
40.000000 -30.000000 2.198745E+01
40.000000 -32.000000 1.991409E+01
40.000000 -34.000000 1.761398E+01
40.000000 -36.000000 8.830464E+00
40.000000 -38.000000 -9.674141E-01
40.000000 -40.000000 -1.386594E+01
42.000000 40.000000 -1.258451E+02
42.000000 38.000000 -1.385105E+02
42.000000 36.000000 -1.359563E+02
42.000000 34.000000 -1.035691E+02
42.000000 32.000000 -4.544184E+01
42.000000 30.000000 5.531635E-01
42.000000 28.000000 1.917200E+01
42.000000 26.000000 1.258845E+01
42.000000 24.000000 -7.054067E+00
42.000000 22.000000 -2.985757E+01
42.000000 20.000000 -4.357950E+01
42.000000 18.000000 -4.331083E+01
42.000000 16.000000 -2.255132E+01
42.000000 14.000000 7.742809E+00
42.000000 12.000000 3.481235E+01
42.000000 10.000000 4.219664E+01
42.000000 8.000000 2.121902E+01
42.000000 6.000000 -1.216118E+01
42.000000 4.000000 -4.190522E+01
42.000000 2.000000 -5.567617E+01
42.000000 0.000000 -5.758641E+01
42.000000 -2.000000 -5.033044E+01
42.000000 -4.000000 -4.295493E+01
42.000000 -6.000000 -4.135351E+01
42.000000 -8.000000 -4.651725E+01
42.000000 -10.000000 -5.376233E+01
42.000000 -12.000000 -6.081589E+01
42.000000 -14.000000 -6.952821E+01
42.000000 -16.000000 -7.197945E+01
42.000000 -18.000000 -6.558074E+01
42.000000 -20.000000 -5.524344E+01
42.000000 -22.000000 -4.181699E+01
42.000000 -24.000000 -1.962200E+01
42.000000 -26.000000 4.977132E+00
42.000000 -28.000000 1.231690E+01
42.000000 -30.000000 1.122966E+01
42.000000 -32.000000 7.234097E+00
42.000000 -34.000000 6.170124E+00
42.000000 -36.000000 1.636079E+00
42.000000 -38.000000 -5.135511E+00
42.000000 -40.000000 -1.743003E+01
44.000000 40.000000 -1.210552E+02
44.000000 38.000000 -1.380139E+02
44.000000 36.000000 -1.429872E+02
44.000000 34.000000 -1.182458E+02
44.000000 32.000000 -5.879947E+01
44.000000 30.000000 -3.525251E+00
44.000000 28.000000 2.495807E+01
44.000000 26.000000 2.584452E+01
44.000000 24.000000 1.436034E+01
44.000000 22.000000 -5.425752E+00
44.000000 20.000000 -1.810945E+01
44.000000 18.000000 -2.292519E+01
44.000000 16.000000 -1.508673E+01
44.000000 14.000000 -1.642365E+00
44.000000 12.000000 1.295973E+01
44.000000 10.000000 1.763966E+01
44.000000 8.000000 6.873219E+00
44.000000 6.000000 -1.121206E+01
44.000000 4.000000 -2.748100E+01
44.000000 2.000000 -3.437766E+01
44.000000 0.000000 -3.598144E+01
44.000000 -2.000000 -3.385276E+01
44.000000 -4.000000 -3.201286E+01
44.000000 -6.000000 -3.304103E+01
44.000000 -8.000000 -3.712633E+01
44.000000 -10.000000 -4.218385E+01
44.000000 -12.000000 -5.183903E+01
44.000000 -14.000000 -6.828459E+01
44.000000 -16.000000 -8.048835E+01
44.000000 -18.000000 -8.064932E+01
44.000000 -20.000000 -7.251193E+01
44.000000 -22.000000 -5.785873E+01
44.000000 -24.000000 -3.284827E+01
44.000000 -26.000000 -7.834432E+00
44.000000 -28.000000 -8.704959E-01
44.000000 -30.000000 -3.701614E+00
44.000000 -32.000000 -7.471274E+00
44.000000 -34.000000 -4.526175E+00
44.000000 -36.000000 -3.923490E+00
44.000000 -38.000000 -7.793931E+00
44.000000 -40.000000 -1.761340E+01
46.000000 40.000000 -1.094351E+02
46.000000 38.000000 -1.288239E+02
46.000000 36.000000 -1.394059E+02
46.000000 34.000000 -1.252584E+02
46.000000 32.000000 -7.317354E+01
46.000000 30.000000 -1.665734E+01
46.000000 28.000000 1.861562E+01
46.000000 26.000000 2.694323E+01
46.000000 24.000000 2.433047E+01
46.000000 22.000000 1.158168E+01
46.000000 20.000000 2.092117E+00
46.000000 18.000000 -3.370885E+00
46.000000 16.000000 -1.738049E+00
46.000000 14.000000 8.875227E-01
46.000000 12.000000 4.194370E+00
46.000000 10.000000 4.538029E+00
46.000000 8.000000 -1.054966E+00
46.000000 6.000000 -7.414925E+00
46.000000 4.000000 -1.092845E+01
46.000000 2.000000 -1.113339E+01
46.000000 0.000000 -1.082823E+01
46.000000 -2.000000 -1.357298E+01
46.000000 -4.000000 -1.663038E+01
46.000000 -6.000000 -2.045811E+01
46.000000 -8.000000 -2.366149E+01
46.000000 -10.000000 -2.787705E+01
46.000000 -12.000000 -4.148703E+01
46.000000 -14.000000 -6.258503E+01
46.000000 -16.000000 -8.210040E+01
46.000000 -18.000000 -9.076830E+01
46.000000 -20.000000 -8.562430E+01
46.000000 -22.000000 -6.950609E+01
46.000000 -24.000000 -4.301612E+01
46.000000 -26.000000 -1.984286E+01
46.000000 -28.000000 -1.440337E+01
46.000000 -30.000000 -1.833941E+01
46.000000 -32.000000 -2.100999E+01
46.000000 -34.000000 -1.325674E+01
46.000000 -36.000000 -7.301148E+00
46.000000 -38.000000 -9.042843E+00
46.000000 -40.000000 -1.679809E+01
48.000000 40.000000 -9.408682E+01
48.000000 38.000000 -1.121855E+02
48.000000 36.000000 -1.234087E+02
48.000000 34.000000 -1.189239E+02
48.000000 32.000000 -8.248806E+01
48.000000 30.000000 -3.445119E+01
48.000000 28.000000 4.378788E+00
48.000000 26.000000 2.082840E+01
48.000000 24.000000 2.664532E+01
48.000000 22.000000 2.183308E+01
48.000000 20.000000 1.491978E+01
48.000000 18.000000 1.086696E+01
48.000000 16.000000 1.114080E+01
48.000000 14.000000 9.255362E+00
48.000000 12.000000 5.006670E+00
48.000000 10.000000 -8.529568E-02
48.000000 8.000000 -5.357045E+00
48.000000 6.000000 -6.501709E+00
48.000000 4.000000 -2.602273E+00
48.000000 2.000000 1.719862E+00
48.000000 0.000000 4.206825E+00
48.000000 -2.000000 -2.047896E-01
48.000000 -4.000000 -4.837764E+00
48.000000 -6.000000 -9.499447E+00
48.000000 -8.000000 -1.290865E+01
48.000000 -10.000000 -1.728921E+01
48.000000 -12.000000 -3.149781E+01
48.000000 -14.000000 -5.223105E+01
48.000000 -16.000000 -7.347578E+01
48.000000 -18.000000 -8.612377E+01
48.000000 -20.000000 -8.287946E+01
48.000000 -22.000000 -6.692860E+01
48.000000 -24.000000 -4.400490E+01
48.000000 -26.000000 -2.525352E+01
48.000000 -28.000000 -2.336508E+01
48.000000 -30.000000 -2.871206E+01
48.000000 -32.000000 -3.065622E+01
48.000000 -34.000000 -1.959674E+01
48.000000 -36.000000 -9.243124E+00
48.000000 -38.000000 -9.377618E+00
48.000000 -40.000000 -1.649769E+01
50.000000 40.000000 -7.694524E+01
50.000000 38.000000 -9.119823E+01
50.000000 36.000000 -9.931513E+01
50.000000 34.000000 -1.006313E+02
50.000000 32.000000 -8.128914E+01
50.000000 30.000000 -4.864129E+01
50.000000 28.000000 -1.171003E+01
50.000000 26.000000 1.290080E+01
50.000000 24.000000 2.712178E+01
50.000000 22.000000 2.672178E+01
50.000000 20.000000 2.059048E+01
50.000000 18.000000 1.909640E+01
50.000000 16.000000 2.062836E+01
50.000000 14.000000 1.639793E+01
50.000000 12.000000 8.243018E+00
50.000000 10.000000 -1.070967E+00
50.000000 8.000000 -9.843149E+00
50.000000 6.000000 -1.216594E+01
50.000000 4.000000 -6.435630E+00
50.000000 2.000000 -6.152534E-02
50.000000 0.000000 3.804924E+00
50.000000 -2.000000 9.361310E-01
50.000000 -4.000000 -1.609820E+00
50.000000 -6.000000 -3.251643E+00
50.000000 -8.000000 -6.509787E+00
50.000000 -10.000000 -1.058834E+01
50.000000 -12.000000 -2.240675E+01
50.000000 -14.000000 -3.780542E+01
50.000000 -16.000000 -5.429148E+01
50.000000 -18.000000 -6.525928E+01
50.000000 -20.000000 -6.405469E+01
50.000000 -22.000000 -5.199950E+01
50.000000 -24.000000 -3.648960E+01
50.000000 -26.000000 -2.556558E+01
50.000000 -28.000000 -2.839747E+01
50.000000 -30.000000 -3.449952E+01
50.000000 -32.000000 -3.473536E+01
50.000000 -34.000000 -2.196814E+01
50.000000 -36.000000 -9.972780E+00
50.000000 -38.000000 -8.856338E+00
50.000000 -40.000000 -1.525340E+01
52.000000 40.000000 -5.876666E+01
52.000000 38.000000 -6.806907E+01
52.000000 36.000000 -7.246183E+01
52.000000 34.000000 -7.694470E+01
52.000000 32.000000 -7.167528E+01
52.000000 30.000000 -5.495774E+01
52.000000 28.000000 -2.375863E+01
52.000000 26.000000 6.414698E+00
52.000000 24.000000 2.714587E+01
52.000000 22.000000 2.846219E+01
52.000000 20.000000 2.250572E+01
52.000000 18.000000 2.231296E+01
52.000000 16.000000 2.518283E+01
52.000000 14.000000 2.150663E+01
52.000000 12.000000 1.260252E+01
52.000000 10.000000 9.184470E-01
52.000000 8.000000 -1.275427E+01
52.000000 6.000000 -2.003293E+01
52.000000 4.000000 -1.743451E+01
52.000000 2.000000 -1.139190E+01
52.000000 0.000000 -7.633749E+00
52.000000 -2.000000 -9.699854E+00
52.000000 -4.000000 -9.521022E+00
52.000000 -6.000000 -6.566004E+00
52.000000 -8.000000 -6.742848E+00
52.000000 -10.000000 -8.530026E+00
52.000000 -12.000000 -1.645190E+01
52.000000 -14.000000 -2.425835E+01
52.000000 -16.000000 -3.152049E+01
52.000000 -18.000000 -3.697925E+01
52.000000 -20.000000 -3.740446E+01
52.000000 -22.000000 -3.173896E+01
52.000000 -24.000000 -2.474617E+01
52.000000 -26.000000 -2.179843E+01
52.000000 -28.000000 -2.778596E+01
52.000000 -30.000000 -3.394420E+01
52.000000 -32.000000 -3.187505E+01
52.000000 -34.000000 -1.895705E+01
52.000000 -36.000000 -8.812561E+00
52.000000 -38.000000 -7.859646E+00
52.000000 -40.000000 -1.379146E+01
54.000000 40.000000 -4.006995E+01
54.000000 38.000000 -4.473267E+01
54.000000 36.000000 -4.815467E+01
54.000000 34.000000 -5.645847E+01
54.000000 32.000000 -6.029587E+01
54.000000 30.000000 -5.272889E+01
54.000000 28.000000 -2.673446E+01
54.000000 26.000000 3.596439E+00
54.000000 24.000000 2.677836E+01
54.000000 22.000000 3.062073E+01
54.000000 20.000000 2.577500E+01
54.000000 18.000000 2.417805E+01
54.000000 16.000000 2.632125E+01
54.000000 14.000000 2.446410E+01
54.000000 12.000000 1.702830E+01
54.000000 10.000000 4.877522E+00
54.000000 8.000000 -1.262617E+01
54.000000 6.000000 -2.546933E+01
54.000000 4.000000 -2.846486E+01
54.000000 2.000000 -2.558026E+01
54.000000 0.000000 -2.423038E+01
54.000000 -2.000000 -2.750021E+01
54.000000 -4.000000 -2.645497E+01
54.000000 -6.000000 -2.014431E+01
54.000000 -8.000000 -1.569591E+01
54.000000 -10.000000 -1.338764E+01
54.000000 -12.000000 -1.517295E+01
54.000000 -14.000000 -1.494936E+01
54.000000 -16.000000 -1.286859E+01
54.000000 -18.000000 -1.237942E+01
54.000000 -20.000000 -1.316608E+01
54.000000 -22.000000 -1.160925E+01
54.000000 -24.000000 -1.082667E+01
54.000000 -26.000000 -1.224331E+01
54.000000 -28.000000 -1.863876E+01
54.000000 -30.000000 -2.456060E+01
54.000000 -32.000000 -2.249621E+01
54.000000 -34.000000 -1.201270E+01
54.000000 -36.000000 -5.927085E+00
54.000000 -38.000000 -7.322929E+00
54.000000 -40.000000 -1.424913E+01
56.000000 40.000000 -2.773246E+01
56.000000 38.000000 -3.062663E+01
56.000000 36.000000 -3.334710E+01
56.000000 34.000000 -4.325254E+01
56.000000 32.000000 -4.865236E+01
56.000000 30.000000 -4.407514E+01
56.000000 28.000000 -2.202116E+01
56.000000 26.000000 4.874249E+00
56.000000 24.000000 2.841226E+01
56.000000 22.000000 3.455815E+01
56.000000 20.000000 3.013224E+01
56.000000 18.000000 2.559924E+01
56.000000 16.000000 2.475242E+01
56.000000 14.000000 2.273274E+01
56.000000 12.000000 1.797113E+01
56.000000 10.000000 7.724336E+00
56.000000 8.000000 -1.182526E+01
56.000000 6.000000 -2.776800E+01
56.000000 4.000000 -3.487425E+01
56.000000 2.000000 -3.713725E+01
56.000000 0.000000 -3.986787E+01
56.000000 -2.000000 -4.415403E+01
56.000000 -4.000000 -4.437667E+01
56.000000 -6.000000 -3.846649E+01
56.000000 -8.000000 -3.035887E+01
56.000000 -10.000000 -2.238066E+01
