-18.000000 18.000000 -2.560756E+01
-18.000000 16.000000 -3.537013E+01
-18.000000 14.000000 -4.341378E+01
-18.000000 12.000000 -4.777239E+01
-18.000000 10.000000 -4.816466E+01
-18.000000 8.000000 -3.862352E+01
-18.000000 6.000000 -2.131898E+01
-18.000000 4.000000 1.261123E+00
-18.000000 2.000000 1.675093E+01
-18.000000 0.000000 1.772691E+01
-18.000000 -2.000000 9.408749E+00
-18.000000 -4.000000 4.610912E+00
-18.000000 -6.000000 4.296284E+00
-18.000000 -8.000000 -8.619518E-01
-18.000000 -10.000000 -1.201191E+01
-18.000000 -12.000000 -2.242010E+01
-18.000000 -14.000000 -3.146717E+01
-18.000000 -16.000000 -3.200817E+01
-18.000000 -18.000000 -1.762278E+01
-18.000000 -20.000000 4.257350E+00
-18.000000 -22.000000 1.927386E+01
-18.000000 -24.000000 2.388025E+01
-18.000000 -26.000000 2.192939E+01
-18.000000 -28.000000 1.406410E+01
-18.000000 -30.000000 7.286303E+00
-18.000000 -32.000000 4.469820E+00
-18.000000 -34.000000 6.132621E+00
-18.000000 -36.000000 6.799287E+00
-18.000000 -38.000000 1.556783E+00
-18.000000 -40.000000 -9.138249E+00
-16.000000 40.000000 -1.754695E+01
-16.000000 38.000000 -2.920876E+01
-16.000000 36.000000 -4.391224E+01
-16.000000 34.000000 -5.688778E+01
-16.000000 32.000000 -5.825443E+01
-16.000000 30.000000 -4.691427E+01
-16.000000 28.000000 -2.470257E+01
-16.000000 26.000000 -1.141193E+00
-16.000000 24.000000 1.019588E+01
-16.000000 22.000000 2.552050E+00
-16.000000 20.000000 -1.348066E+01
-16.000000 18.000000 -3.261129E+01
-16.000000 16.000000 -4.759456E+01
-16.000000 14.000000 -5.998042E+01
-16.000000 12.000000 -6.460477E+01
-16.000000 10.000000 -5.832425E+01
-16.000000 8.000000 -4.065976E+01
-16.000000 6.000000 -1.569651E+01
-16.000000 4.000000 1.150943E+01
-16.000000 2.000000 2.700854E+01
-16.000000 0.000000 2.616820E+01
-16.000000 -2.000000 1.473041E+01
-16.000000 -4.000000 7.805178E+00
-16.000000 -6.000000 6.939654E+00
-16.000000 -8.000000 1.041268E+00
-16.000000 -10.000000 -9.995560E+00
-16.000000 -12.000000 -1.859978E+01
-16.000000 -14.000000 -2.367182E+01
-16.000000 -16.000000 -2.141782E+01
-16.000000 -18.000000 -6.268564E+00
-16.000000 -20.000000 1.542666E+01
-16.000000 -22.000000 2.857391E+01
-16.000000 -24.000000 3.334331E+01
-16.000000 -26.000000 3.150077E+01
-16.000000 -28.000000 2.228080E+01
-16.000000 -30.000000 1.373329E+01
-16.000000 -32.000000 1.119695E+01
-16.000000 -34.000000 1.449309E+01
-16.000000 -36.000000 1.533539E+01
-16.000000 -38.000000 7.757798E+00
-16.000000 -40.000000 -5.965320E+00
-14.000000 40.000000 -1.479332E+01
-14.000000 38.000000 -2.697708E+01
-14.000000 36.000000 -4.217629E+01
-14.000000 34.000000 -5.609323E+01
-14.000000 32.000000 -6.009886E+01
-14.000000 30.000000 -5.050598E+01
-14.000000 28.000000 -2.475037E+01
-14.000000 26.000000 3.727709E+00
-14.000000 24.000000 1.641055E+01
-14.000000 22.000000 4.962267E+00
-14.000000 20.000000 -1.345473E+01
-14.000000 18.000000 -3.203733E+01
-14.000000 16.000000 -4.731139E+01
-14.000000 14.000000 -6.255487E+01
-14.000000 12.000000 -7.107224E+01
-14.000000 10.000000 -6.642725E+01
-14.000000 8.000000 -4.838124E+01
-14.000000 6.000000 -2.248932E+01
-14.000000 4.000000 4.032346E+00
-14.000000 2.000000 1.927793E+01
-14.000000 0.000000 1.971920E+01
-14.000000 -2.000000 9.803243E+00
-14.000000 -4.000000 5.868301E+00
-14.000000 -6.000000 8.698425E+00
-14.000000 -8.000000 6.760904E+00
-14.000000 -10.000000 -4.547691E-01
-14.000000 -12.000000 -6.631923E+00
-14.000000 -14.000000 -8.509228E+00
-14.000000 -16.000000 -3.990825E+00
-14.000000 -18.000000 9.976807E+00
-14.000000 -20.000000 2.818964E+01
-14.000000 -22.000000 3.807646E+01
-14.000000 -24.000000 4.070234E+01
-14.000000 -26.000000 3.614919E+01
-14.000000 -28.000000 2.352210E+01
-14.000000 -30.000000 1.235881E+01
-14.000000 -32.000000 1.063988E+01
-14.000000 -34.000000 1.579369E+01
-14.000000 -36.000000 1.734597E+01
-14.000000 -38.000000 9.003631E+00
-14.000000 -40.000000 -5.126694E+00
-12.000000 40.000000 -1.602166E+01
-12.000000 38.000000 -2.581131E+01
-12.000000 36.000000 -3.620045E+01
-12.000000 34.000000 -4.814235E+01
-12.000000 32.000000 -5.350700E+01
-12.000000 30.000000 -4.697205E+01
-12.000000 28.000000 -2.273041E+01
-12.000000 26.000000 5.799103E+00
-12.000000 24.000000 1.761307E+01
-12.000000 22.000000 3.182730E+00
-12.000000 20.000000 -1.450793E+01
-12.000000 18.000000 -2.692282E+01
-12.000000 16.000000 -3.909504E+01
-12.000000 14.000000 -5.594755E+01
-12.000000 12.000000 -7.121214E+01
-12.000000 10.000000 -7.398598E+01
-12.000000 8.000000 -6.004077E+01
-12.000000 6.000000 -3.648858E+01
-12.000000 4.000000 -1.232464E+01
-12.000000 2.000000 2.107896E+00
-12.000000 0.000000 3.871855E+00
-12.000000 -2.000000 -1.926730E+00
-12.000000 -4.000000 -4.708319E-01
-12.000000 -6.000000 8.568124E+00
-12.000000 -8.000000 1.273171E+01
-12.000000 -10.000000 9.840689E+00
-12.000000 -12.000000 5.230776E+00
-12.000000 -14.000000 3.721160E+00
-12.000000 -16.000000 8.608617E+00
-12.000000 -18.000000 2.120928E+01
-12.000000 -20.000000 3.704750E+01
-12.000000 -22.000000 4.622041E+01
-12.000000 -24.000000 4.606605E+01
-12.000000 -26.000000 3.751929E+01
-12.000000 -28.000000 2.073055E+01
-12.000000 -30.000000 7.280708E+00
-12.000000 -32.000000 5.231289E+00
-12.000000 -34.000000 1.053088E+01
-12.000000 -36.000000 1.289177E+01
-12.000000 -38.000000 4.629019E+00
-12.000000 -40.000000 -8.542500E+00
-10.000000 40.000000 -1.790972E+01
-10.000000 38.000000 -2.496548E+01
-10.000000 36.000000 -3.088490E+01
-10.000000 34.000000 -3.941430E+01
-10.000000 32.000000 -4.337913E+01
-10.000000 30.000000 -3.851787E+01
-10.000000 28.000000 -1.826138E+01
-10.000000 26.000000 6.035179E+00
-10.000000 24.000000 1.459549E+01
-10.000000 22.000000 -2.410761E+00
-10.000000 20.000000 -1.928051E+01
-10.000000 18.000000 -2.417604E+01
-10.000000 16.000000 -3.074454E+01
-10.000000 14.000000 -4.758113E+01
-10.000000 12.000000 -6.992202E+01
-10.000000 10.000000 -8.095739E+01
-10.000000 8.000000 -7.001483E+01
-10.000000 6.000000 -4.683783E+01
-10.000000 4.000000 -2.267950E+01
-10.000000 2.000000 -1.018598E+01
-10.000000 0.000000 -9.359822E+00
-10.000000 -2.000000 -1.084403E+01
-10.000000 -4.000000 -4.547294E+00
-10.000000 -6.000000 9.078949E+00
-10.000000 -8.000000 1.666925E+01
-10.000000 -10.000000 1.561401E+01
-10.000000 -12.000000 9.956388E+00
-10.000000 -14.000000 6.366016E+00
-10.000000 -16.000000 9.739120E+00
-10.000000 -18.000000 2.194534E+01
-10.000000 -20.000000 3.659557E+01
-10.000000 -22.000000 4.508668E+01
-10.000000 -24.000000 4.312651E+01
-10.000000 -26.000000 3.324961E+01
-10.000000 -28.000000 1.499468E+01
-10.000000 -30.000000 2.767448E-01
-10.000000 -32.000000 -3.819610E+00
-10.000000 -34.000000 -5.633354E-01
-10.000000 -36.000000 2.155033E+00
-10.000000 -38.000000 -3.589853E+00
-10.000000 -40.000000 -1.397033E+01
-8.000000 40.000000 -1.934776E+01
-8.000000 38.000000 -2.439243E+01
-8.000000 36.000000 -2.919020E+01
-8.000000 34.000000 -3.459415E+01
-8.000000 32.000000 -3.468165E+01
-8.000000 30.000000 -2.879020E+01
-8.000000 28.000000 -1.198617E+01
-8.000000 26.000000 7.484314E+00
-8.000000 24.000000 1.181874E+01
-8.000000 22.000000 -7.671267E+00
-8.000000 20.000000 -2.458713E+01
-8.000000 18.000000 -2.659561E+01
-8.000000 16.000000 -3.015315E+01
-8.000000 14.000000 -4.810540E+01
-8.000000 12.000000 -7.564723E+01
-8.000000 10.000000 -9.157639E+01
-8.000000 8.000000 -7.877959E+01
-8.000000 6.000000 -5.067871E+01
-8.000000 4.000000 -2.080852E+01
-8.000000 2.000000 -6.417415E+00
-8.000000 0.000000 -5.957883E+00
-8.000000 -2.000000 -7.227531E+00
-8.000000 -4.000000 -1.486853E+00
-8.000000 -6.000000 9.838502E+00
-8.000000 -8.000000 1.533863E+01
-8.000000 -10.000000 1.309301E+01
-8.000000 -12.000000 4.819267E+00
-8.000000 -14.000000 -7.608318E-01
-8.000000 -16.000000 2.018248E+00
-8.000000 -18.000000 1.409821E+01
-8.000000 -20.000000 2.643231E+01
-8.000000 -22.000000 3.188175E+01
-8.000000 -24.000000 2.925913E+01
-8.000000 -26.000000 2.153588E+01
-8.000000 -28.000000 5.604608E+00
-8.000000 -30.000000 -8.601009E+00
-8.000000 -32.000000 -1.475843E+01
-8.000000 -34.000000 -1.468827E+01
-8.000000 -36.000000 -1.264749E+01
-8.000000 -38.000000 -1.406573E+01
-8.000000 -40.000000 -1.996081E+01
-6.000000 40.000000 -2.212433E+01
-6.000000 38.000000 -2.539866E+01
-6.000000 36.000000 -2.911547E+01
-6.000000 34.000000 -3.149528E+01
-6.000000 32.000000 -2.873138E+01
-6.000000 30.000000 -2.184914E+01
-6.000000 28.000000 -8.107336E+00
-6.000000 26.000000 8.016003E+00
-6.000000 24.000000 1.016435E+01
-6.000000 22.000000 -1.110563E+01
-6.000000 20.000000 -2.948350E+01
-6.000000 18.000000 -3.358488E+01
-6.000000 16.000000 -3.827287E+01
-6.000000 14.000000 -5.947294E+01
-6.000000 12.000000 -8.853856E+01
-6.000000 10.000000 -1.032925E+02
-6.000000 8.000000 -8.248779E+01
-6.000000 6.000000 -4.407854E+01
-6.000000 4.000000 -4.821257E+00
-6.000000 2.000000 1.277134E+01
-6.000000 0.000000 1.179622E+01
-6.000000 -2.000000 5.623812E+00
-6.000000 -4.000000 5.328182E+00
-6.000000 -6.000000 8.765766E+00
-6.000000 -8.000000 7.574037E+00
-6.000000 -10.000000 6.798897E-01
-6.000000 -12.000000 -8.771225E+00
-6.000000 -14.000000 -1.459673E+01
-6.000000 -16.000000 -1.224355E+01
-6.000000 -18.000000 -1.002131E+00
-6.000000 -20.000000 8.526828E+00
-6.000000 -22.000000 1.009026E+01
-6.000000 -24.000000 8.417046E+00
-6.000000 -26.000000 5.797196E+00
-6.000000 -28.000000 -4.331538E+00
-6.000000 -30.000000 -1.602239E+01
-6.000000 -32.000000 -2.414881E+01
-6.000000 -34.000000 -2.707610E+01
-6.000000 -36.000000 -2.660820E+01
-6.000000 -38.000000 -2.579020E+01
-6.000000 -40.000000 -2.807245E+01
-4.000000 40.000000 -2.607941E+01
-4.000000 38.000000 -2.842944E+01
-4.000000 36.000000 -3.109017E+01
-4.000000 34.000000 -3.065640E+01
-4.000000 32.000000 -2.597050E+01
-4.000000 30.000000 -1.860117E+01
-4.000000 28.000000 -8.519018E+00
-4.000000 26.000000 3.404175E+00
-4.000000 24.000000 3.529259E+00
-4.000000 22.000000 -1.766981E+01
-4.000000 20.000000 -3.619474E+01
-4.000000 18.000000 -4.005994E+01
-4.000000 16.000000 -4.379535E+01
-4.000000 14.000000 -6.563102E+01
-4.000000 12.000000 -9.234690E+01
-4.000000 10.000000 -1.027279E+02
-4.000000 8.000000 -7.517967E+01
-4.000000 6.000000 -2.986572E+01
-4.000000 4.000000 1.333321E+01
-4.000000 2.000000 2.941706E+01
-4.000000 0.000000 2.407462E+01
-4.000000 -2.000000 1.404321E+01
-4.000000 -4.000000 1.050356E+01
-4.000000 -6.000000 6.692025E+00
-4.000000 -8.000000 -1.907863E+00
-4.000000 -10.000000 -1.396869E+01
-4.000000 -12.000000 -2.476603E+01
-4.000000 -14.000000 -3.159820E+01
-4.000000 -16.000000 -3.045797E+01
-4.000000 -18.000000 -2.050942E+01
-4.000000 -20.000000 -1.284819E+01
-4.000000 -22.000000 -1.377490E+01
-4.000000 -24.000000 -1.307007E+01
-4.000000 -26.000000 -8.826207E+00
-4.000000 -28.000000 -1.189106E+01
-4.000000 -30.000000 -1.998640E+01
-4.000000 -32.000000 -2.993132E+01
-4.000000 -34.000000 -3.597074E+01
-4.000000 -36.000000 -3.779956E+01
-4.000000 -38.000000 -3.700885E+01
-4.000000 -40.000000 -3.724978E+01
-2.000000 40.000000 -3.087013E+01
-2.000000 38.000000 -3.317166E+01
-2.000000 36.000000 -3.595194E+01
-2.000000 34.000000 -3.441249E+01
-2.000000 32.000000 -2.750526E+01
-2.000000 30.000000 -1.936265E+01
-2.000000 28.000000 -1.145652E+01
-2.000000 26.000000 -4.795240E+00
-2.000000 24.000000 -9.292966E+00
-2.000000 22.000000 -2.803696E+01
-2.000000 20.000000 -4.264830E+01
-2.000000 18.000000 -4.130268E+01
-2.000000 16.000000 -3.906880E+01
-2.000000 14.000000 -5.516786E+01
-2.000000 12.000000 -7.627402E+01
-2.000000 10.000000 -8.316873E+01
-2.000000 8.000000 -5.687938E+01
-2.000000 6.000000 -1.477089E+01
-2.000000 4.000000 2.095481E+01
-2.000000 2.000000 2.961653E+01
-2.000000 0.000000 1.878521E+01
-2.000000 -2.000000 7.953503E+00
-2.000000 -4.000000 5.328856E+00
-2.000000 -6.000000 1.203782E+00
-2.000000 -8.000000 -9.293795E+00
-2.000000 -10.000000 -2.305766E+01
-2.000000 -12.000000 -3.424542E+01
-2.000000 -14.000000 -4.295809E+01
-2.000000 -16.000000 -4.543695E+01
-2.000000 -18.000000 -3.930650E+01
-2.000000 -20.000000 -3.234221E+01
-2.000000 -22.000000 -3.219578E+01
-2.000000 -24.000000 -2.851929E+01
-2.000000 -26.000000 -1.988611E+01
-2.000000 -28.000000 -1.716001E+01
-2.000000 -30.000000 -2.141338E+01
-2.000000 -32.000000 -3.177065E+01
-2.000000 -34.000000 -4.177115E+01
-2.000000 -36.000000 -4.653725E+01
-2.000000 -38.000000 -4.603572E+01
-2.000000 -40.000000 -4.483041E+01
0.000000 40.000000 -3.661377E+01
0.000000 38.000000 -3.998518E+01
0.000000 36.000000 -4.319767E+01
0.000000 34.000000 -4.092753E+01
0.000000 32.000000 -3.237437E+01
0.000000 30.000000 -2.368971E+01
0.000000 28.000000 -1.640180E+01
0.000000 26.000000 -1.385168E+01
0.000000 24.000000 -2.157947E+01
0.000000 22.000000 -3.481010E+01
0.000000 20.000000 -4.239126E+01
0.000000 18.000000 -3.429676E+01
0.000000 16.000000 -2.543552E+01
0.000000 14.000000 -3.263474E+01
0.000000 12.000000 -4.834222E+01
0.000000 10.000000 -5.502978E+01
0.000000 8.000000 -3.706738E+01
0.000000 6.000000 -7.047340E+00
0.000000 4.000000 1.326219E+01
0.000000 2.000000 1.270097E+01
0.000000 0.000000 -6.335449E-02
0.000000 -2.000000 -1.076439E+01
0.000000 -4.000000 -1.194861E+01
0.000000 -6.000000 -9.114939E+00
0.000000 -8.000000 -1.426971E+01
0.000000 -10.000000 -2.463040E+01
0.000000 -12.000000 -3.261145E+01
0.000000 -14.000000 -4.213661E+01
0.000000 -16.000000 -5.015246E+01
0.000000 -18.000000 -4.952074E+01
0.000000 -20.000000 -4.285207E+01
0.000000 -22.000000 -3.982547E+01
0.000000 -24.000000 -3.375937E+01
0.000000 -26.000000 -2.416489E+01
0.000000 -28.000000 -1.920141E+01
0.000000 -30.000000 -2.132537E+01
0.000000 -32.000000 -3.153565E+01
0.000000 -34.000000 -4.462805E+01
0.000000 -36.000000 -5.212239E+01
0.000000 -38.000000 -5.222566E+01
0.000000 -40.000000 -5.040412E+01
2.000000 40.000000 -4.213185E+01
2.000000 38.000000 -4.810538E+01
2.000000 36.000000 -5.186998E+01
2.000000 34.000000 -4.874795E+01
2.000000 32.000000 -3.959878E+01
2.000000 30.000000 -3.079526E+01
2.000000 28.000000 -2.324476E+01
2.000000 26.000000 -2.049921E+01
2.000000 24.000000 -2.560172E+01
2.000000 22.000000 -3.022102E+01
2.000000 20.000000 -2.914570E+01
2.000000 18.000000 -1.698352E+01
2.000000 16.000000 -9.853015E+00
2.000000 14.000000 -1.643931E+01
2.000000 12.000000 -3.141086E+01
2.000000 10.000000 -3.942511E+01
2.000000 8.000000 -2.858090E+01
2.000000 6.000000 -1.093122E+01
2.000000 4.000000 -3.370767E+00
2.000000 2.000000 -8.932429E+00
2.000000 0.000000 -2.076225E+01
2.000000 -2.000000 -2.960426E+01
2.000000 -4.000000 -2.901888E+01
2.000000 -6.000000 -1.932547E+01
2.000000 -8.000000 -1.611872E+01
2.000000 -10.000000 -1.920818E+01
2.000000 -12.000000 -2.389203E+01
2.000000 -14.000000 -3.276314E+01
2.000000 -16.000000 -4.321352E+01
2.000000 -18.000000 -4.621940E+01
2.000000 -20.000000 -4.096098E+01
2.000000 -22.000000 -3.507155E+01
2.000000 -24.000000 -2.822529E+01
2.000000 -26.000000 -2.100633E+01
2.000000 -28.000000 -1.779032E+01
2.000000 -30.000000 -2.024981E+01
2.000000 -32.000000 -3.074038E+01
2.000000 -34.000000 -4.465777E+01
2.000000 -36.000000 -5.385013E+01
2.000000 -38.000000 -5.538375E+01
2.000000 -40.000000 -5.447419E+01
4.000000 40.000000 -4.602742E+01
4.000000 38.000000 -5.373082E+01
4.000000 36.000000 -5.838729E+01
4.000000 34.000000 -5.687635E+01
4.000000 32.000000 -4.900270E+01
4.000000 30.000000 -4.018603E+01
4.000000 28.000000 -3.079483E+01
4.000000 26.000000 -2.312300E+01
4.000000 24.000000 -2.006921E+01
4.000000 22.000000 -1.630239E+01
4.000000 20.000000 -1.000463E+01
4.000000 18.000000 -1.420697E+00
4.000000 16.000000 -4.297546E+00
4.000000 14.000000 -1.837698E+01
4.000000 12.000000 -3.574263E+01
4.000000 10.000000 -4.320475E+01
4.000000 8.000000 -3.180007E+01
4.000000 6.000000 -1.780452E+01
4.000000 4.000000 -1.320426E+01
4.000000 2.000000 -1.831192E+01
4.000000 0.000000 -2.798087E+01
4.000000 -2.000000 -3.421635E+01
4.000000 -4.000000 -3.276376E+01
4.000000 -6.000000 -2.145181E+01
4.000000 -8.000000 -1.251639E+01
4.000000 -10.000000 -1.045444E+01
4.000000 -12.000000 -1.454300E+01
4.000000 -14.000000 -2.252513E+01
4.000000 -16.000000 -3.210014E+01
4.000000 -18.000000 -3.464819E+01
4.000000 -20.000000 -3.043121E+01
4.000000 -22.000000 -2.457931E+01
4.000000 -24.000000 -1.876711E+01
4.000000 -26.000000 -1.486806E+01
4.000000 -28.000000 -1.423081E+01
4.000000 -30.000000 -1.730009E+01
4.000000 -32.000000 -2.783208E+01
4.000000 -34.000000 -4.185242E+01
4.000000 -36.000000 -5.225129E+01
4.000000 -38.000000 -5.541270E+01
4.000000 -40.000000 -5.655566E+01
6.000000 40.000000 -4.796708E+01
6.000000 38.000000 -5.503524E+01
6.000000 36.000000 -5.997001E+01
6.000000 34.000000 -6.265882E+01
6.000000 32.000000 -5.862389E+01
6.000000 30.000000 -5.092972E+01
6.000000 28.000000 -3.866766E+01
6.000000 26.000000 -2.381041E+01
6.000000 24.000000 -1.197024E+01
6.000000 22.000000 -4.586290E+00
6.000000 20.000000 3.580379E-01
6.000000 18.000000 1.078920E+00
6.000000 16.000000 -8.375692E+00
6.000000 14.000000 -2.650187E+01
6.000000 12.000000 -4.425575E+01
6.000000 10.000000 -4.930512E+01
6.000000 8.000000 -3.528269E+01
6.000000 6.000000 -2.052926E+01
6.000000 4.000000 -1.419598E+01
6.000000 2.000000 -1.577769E+01
6.000000 0.000000 -2.044955E+01
6.000000 -2.000000 -2.288088E+01
6.000000 -4.000000 -2.020099E+01
6.000000 -6.000000 -1.070493E+01
6.000000 -8.000000 -3.770544E+00
6.000000 -10.000000 -3.250756E+00
6.000000 -12.000000 -7.458376E+00
6.000000 -14.000000 -1.398296E+01
6.000000 -16.000000 -2.169477E+01
6.000000 -18.000000 -2.326673E+01
6.000000 -20.000000 -1.991466E+01
6.000000 -22.000000 -1.640210E+01
6.000000 -24.000000 -1.265913E+01
6.000000 -26.000000 -1.021096E+01
6.000000 -28.000000 -1.028131E+01
6.000000 -30.000000 -1.359164E+01
6.000000 -32.000000 -2.371357E+01
6.000000 -34.000000 -3.754153E+01
6.000000 -36.000000 -4.859090E+01
6.000000 -38.000000 -5.262690E+01
6.000000 -40.000000 -5.557074E+01
8.000000 40.000000 -4.793364E+01
8.000000 38.000000 -5.376874E+01
8.000000 36.000000 -5.848330E+01
8.000000 34.000000 -6.351621E+01
8.000000 32.000000 -6.331705E+01
8.000000 30.000000 -5.920863E+01
8.000000 28.000000 -4.571677E+01
8.000000 26.000000 -2.462304E+01
8.000000 24.000000 -7.266140E+00
8.000000 22.000000 -1.627397E+00
8.000000 20.000000 -2.289405E+00
8.000000 18.000000 -7.640553E+00
8.000000 16.000000 -1.573285E+01
8.000000 14.000000 -2.971823E+01
8.000000 12.000000 -4.215087E+01
8.000000 10.000000 -4.358164E+01
8.000000 8.000000 -3.153363E+01
8.000000 6.000000 -1.851742E+01
8.000000 4.000000 -1.130715E+01
8.000000 2.000000 -7.447782E+00
8.000000 0.000000 -3.407609E+00
8.000000 -2.000000 -2.282801E-01
8.000000 -4.000000 3.123823E+00
8.000000 -6.000000 8.400069E+00
8.000000 -8.000000 7.524953E+00
8.000000 -10.000000 6.030779E-01
8.000000 -12.000000 -5.345971E+00
8.000000 -14.000000 -9.188439E+00
8.000000 -16.000000 -1.371687E+01
8.000000 -18.000000 -1.514179E+01
8.000000 -20.000000 -1.420423E+01
8.000000 -22.000000 -1.445295E+01
8.000000 -24.000000 -1.231274E+01
8.000000 -26.000000 -8.302406E+00
8.000000 -28.000000 -7.285097E+00
8.000000 -30.000000 -1.185093E+01
8.000000 -32.000000 -2.234361E+01
8.000000 -34.000000 -3.417882E+01
8.000000 -36.000000 -4.379842E+01
8.000000 -38.000000 -4.757134E+01
8.000000 -40.000000 -5.072880E+01
10.000000 40.000000 -4.762189E+01
10.000000 38.000000 -5.208093E+01
10.000000 36.000000 -5.506002E+01
10.000000 34.000000 -5.820765E+01
10.000000 32.000000 -5.814517E+01
10.000000 30.000000 -5.660447E+01
10.000000 28.000000 -4.528211E+01
10.000000 26.000000 -2.476996E+01
10.000000 24.000000 -9.091276E+00
10.000000 22.000000 -8.965493E+00
10.000000 20.000000 -1.486910E+01
10.000000 18.000000 -1.961867E+01
10.000000 16.000000 -2.067119E+01
10.000000 14.000000 -2.613348E+01
10.000000 12.000000 -3.173426E+01
10.000000 10.000000 -3.258827E+01
10.000000 8.000000 -2.727565E+01
10.000000 6.000000 -1.765080E+01
10.000000 4.000000 -8.239148E+00
10.000000 2.000000 3.575629E+00
10.000000 0.000000 1.779797E+01
10.000000 -2.000000 2.696040E+01
10.000000 -4.000000 2.997982E+01
10.000000 -6.000000 2.921914E+01
10.000000 -8.000000 1.824900E+01
10.000000 -10.000000 2.411110E-01
10.000000 -12.000000 -1.060594E+01
10.000000 -14.000000 -1.137451E+01
10.000000 -16.000000 -9.800698E+00
10.000000 -18.000000 -8.821543E+00
10.000000 -20.000000 -1.047498E+01
10.000000 -22.000000 -1.559608E+01
10.000000 -24.000000 -1.497778E+01
10.000000 -26.000000 -8.277021E+00
10.000000 -28.000000 -6.047583E+00
10.000000 -30.000000 -1.248109E+01
10.000000 -32.000000 -2.374848E+01
10.000000 -34.000000 -3.218628E+01
10.000000 -36.000000 -3.806703E+01
10.000000 -38.000000 -4.069777E+01
10.000000 -40.000000 -4.334058E+01
12.000000 40.000000 -4.842612E+01
12.000000 38.000000 -5.043599E+01
12.000000 36.000000 -4.904508E+01
12.000000 34.000000 -4.737456E+01
12.000000 32.000000 -4.369502E+01
12.000000 30.000000 -4.105241E+01
12.000000 28.000000 -3.415968E+01
12.000000 26.000000 -2.173209E+01
12.000000 24.000000 -1.454251E+01
12.000000 22.000000 -2.046139E+01
12.000000 20.000000 -2.847552E+01
12.000000 18.000000 -2.571204E+01
12.000000 16.000000 -1.840111E+01
12.000000 14.000000 -1.765391E+01
12.000000 12.000000 -2.410390E+01
12.000000 10.000000 -3.168260E+01
12.000000 8.000000 -3.457466E+01
12.000000 6.000000 -2.725408E+01
12.000000 4.000000 -1.274395E+01
12.000000 2.000000 7.559447E+00
12.000000 0.000000 3.055951E+01
12.000000 -2.000000 4.609222E+01
12.000000 -4.000000 5.135590E+01
12.000000 -6.000000 4.785474E+01
12.000000 -8.000000 2.889546E+01
12.000000 -10.000000 -8.462639E-02
12.000000 -12.000000 -1.637814E+01
12.000000 -14.000000 -1.458571E+01
12.000000 -16.000000 -5.122090E+00
12.000000 -18.000000 8.994859E-01
12.000000 -20.000000 -3.103509E+00
12.000000 -22.000000 -1.417281E+01
12.000000 -24.000000 -1.677097E+01
12.000000 -26.000000 -8.999555E+00
12.000000 -28.000000 -6.836298E+00
12.000000 -30.000000 -1.435176E+01
12.000000 -32.000000 -2.547975E+01
12.000000 -34.000000 -3.073558E+01
12.000000 -36.000000 -3.193637E+01
12.000000 -38.000000 -3.306367E+01
12.000000 -40.000000 -3.585628E+01
14.000000 40.000000 -4.867137E+01
14.000000 38.000000 -4.783445E+01
14.000000 36.000000 -4.237914E+01
14.000000 34.000000 -3.507515E+01
14.000000 32.000000 -2.544380E+01
14.000000 30.000000 -2.076710E+01
14.000000 28.000000 -1.861130E+01
14.000000 26.000000 -1.451003E+01
14.000000 24.000000 -1.563779E+01
14.000000 22.000000 -2.565481E+01
14.000000 20.000000 -3.196809E+01
14.000000 18.000000 -2.198832E+01
14.000000 16.000000 -1.037797E+01
14.000000 14.000000 -1.042374E+01
14.000000 12.000000 -2.607257E+01
14.000000 10.000000 -4.695439E+01
14.000000 8.000000 -5.771200E+01
14.000000 6.000000 -5.121333E+01
14.000000 4.000000 -3.041621E+01
14.000000 2.000000 -3.465270E+00
14.000000 0.000000 2.484403E+01
14.000000 -2.000000 4.734151E+01
14.000000 -4.000000 6.130442E+01
14.000000 -6.000000 6.194200E+01
14.000000 -8.000000 4.129860E+01
14.000000 -10.000000 7.223160E+00
14.000000 -12.000000 -1.164895E+01
14.000000 -14.000000 -7.017598E+00
14.000000 -16.000000 8.690764E+00
14.000000 -18.000000 1.776531E+01
14.000000 -20.000000 9.221994E+00
14.000000 -22.000000 -8.516676E+00
14.000000 -24.000000 -1.530805E+01
14.000000 -26.000000 -8.899268E+00
14.000000 -28.000000 -8.218571E+00
14.000000 -30.000000 -1.639554E+01
14.000000 -32.000000 -2.701274E+01
14.000000 -34.000000 -3.007152E+01
14.000000 -36.000000 -2.736318E+01
14.000000 -38.000000 -2.677341E+01
14.000000 -40.000000 -2.978153E+01
16.000000 40.000000 -4.745038E+01
16.000000 38.000000 -4.440074E+01
16.000000 36.000000 -3.623136E+01
16.000000 34.000000 -2.404193E+01
16.000000 32.000000 -8.839024E+00
16.000000 30.000000 -2.758354E+00
16.000000 28.000000 -3.107926E+00
16.000000 26.000000 -3.943363E+00
16.000000 24.000000 -9.714023E+00
16.000000 22.000000 -2.220176E+01
16.000000 20.000000 -2.718990E+01
16.000000 18.000000 -1.589269E+01
16.000000 16.000000 -5.605412E+00
16.000000 14.000000 -1.228181E+01
16.000000 12.000000 -3.900382E+01
16.000000 10.000000 -7.200786E+01
16.000000 8.000000 -8.553138E+01
16.000000 6.000000 -7.682961E+01
16.000000 4.000000 -5.171794E+01
16.000000 2.000000 -2.321710E+01
16.000000 0.000000 4.436407E+00
16.000000 -2.000000 3.136689E+01
16.000000 -4.000000 5.632365E+01
16.000000 -6.000000 6.739805E+01
16.000000 -8.000000 5.259134E+01
16.000000 -10.000000 2.328756E+01
16.000000 -12.000000 7.664701E+00
16.000000 -14.000000 1.681953E+01
16.000000 -16.000000 3.487147E+01
16.000000 -18.000000 4.072918E+01
16.000000 -20.000000 2.377574E+01
16.000000 -22.000000 -1.826429E+00
16.000000 -24.000000 -1.303373E+01
16.000000 -26.000000 -8.105422E+00
16.000000 -28.000000 -8.270310E+00
16.000000 -30.000000 -1.704219E+01
16.000000 -32.000000 -2.788615E+01
16.000000 -34.000000 -2.986816E+01
16.000000 -36.000000 -2.518974E+01
16.000000 -38.000000 -2.353895E+01
16.000000 -40.000000 -2.658348E+01
18.000000 40.000000 -4.593459E+01
18.000000 38.000000 -4.151713E+01
18.000000 36.000000 -2.987027E+01
18.000000 34.000000 -1.369157E+01
18.000000 32.000000 2.825126E+00
18.000000 30.000000 9.365682E+00
18.000000 28.000000 9.535546E+00
18.000000 26.000000 7.750481E+00
18.000000 24.000000 6.657028E-02
18.000000 22.000000 -1.599415E+01
18.000000 20.000000 -2.424487E+01
18.000000 18.000000 -1.541464E+01
18.000000 16.000000 -6.664330E+00
18.000000 14.000000 -1.861631E+01
18.000000 12.000000 -5.214455E+01
18.000000 10.000000 -9.077017E+01
18.000000 8.000000 -1.029403E+02
18.000000 6.000000 -9.090388E+01
18.000000 4.000000 -6.482314E+01
18.000000 2.000000 -4.080262E+01
18.000000 0.000000 -2.016921E+01
18.000000 -2.000000 5.323871E+00
18.000000 -4.000000 3.661880E+01
18.000000 -6.000000 5.916654E+01
18.000000 -8.000000 5.517579E+01
18.000000 -10.000000 3.790151E+01
18.000000 -12.000000 3.284509E+01
18.000000 -14.000000 4.997560E+01
18.000000 -16.000000 6.861324E+01
18.000000 -18.000000 6.565956E+01
18.000000 -20.000000 3.595081E+01
18.000000 -22.000000 6.797440E-01
18.000000 -24.000000 -1.350202E+01
18.000000 -26.000000 -7.238743E+00
18.000000 -28.000000 -6.329133E+00
18.000000 -30.000000 -1.531216E+01
18.000000 -32.000000 -2.720310E+01
18.000000 -34.000000 -2.920147E+01
18.000000 -36.000000 -2.476960E+01
18.000000 -38.000000 -2.377619E+01
18.000000 -40.000000 -2.754259E+01
20.000000 40.000000 -4.615708E+01
20.000000 38.000000 -4.034152E+01
20.000000 36.000000 -2.504119E+01
20.000000 34.000000 -5.809323E+00
20.000000 32.000000 1.072150E+01
20.000000 30.000000 1.714434E+01
20.000000 28.000000 1.796213E+01
20.000000 26.000000 1.678058E+01
20.000000 24.000000 7.704043E+00
20.000000 22.000000 -1.175096E+01
20.000000 20.000000 -2.264874E+01
20.000000 18.000000 -1.534313E+01
20.000000 16.000000 -5.726722E+00
20.000000 14.000000 -1.772894E+01
20.000000 12.000000 -5.246686E+01
20.000000 10.000000 -9.290758E+01
20.000000 8.000000 -1.061684E+02
20.000000 6.000000 -9.465653E+01
20.000000 4.000000 -6.850117E+01
20.000000 2.000000 -4.966337E+01
20.000000 0.000000 -3.752565E+01
20.000000 -2.000000 -1.826333E+01
20.000000 -4.000000 1.087645E+01
20.000000 -6.000000 3.791931E+01
20.000000 -8.000000 4.331703E+01
20.000000 -10.000000 3.870060E+01
20.000000 -12.000000 4.881355E+01
20.000000 -14.000000 7.751554E+01
20.000000 -16.000000 9.769279E+01
20.000000 -18.000000 8.363807E+01
20.000000 -20.000000 4.011225E+01
20.000000 -22.000000 -3.407287E+00
20.000000 -24.000000 -1.775197E+01
20.000000 -26.000000 -7.133420E+00
20.000000 -28.000000 -3.441268E+00
20.000000 -30.000000 -1.235921E+01
20.000000 -32.000000 -2.586094E+01
20.000000 -34.000000 -2.883436E+01
20.000000 -36.000000 -2.594350E+01
20.000000 -38.000000 -2.669801E+01
20.000000 -40.000000 -3.200186E+01
22.000000 40.000000 -5.038084E+01
22.000000 38.000000 -4.262217E+01
22.000000 36.000000 -2.421050E+01
22.000000 34.000000 -1.623130E+00
22.000000 32.000000 1.800433E+01
22.000000 30.000000 2.494001E+01
22.000000 28.000000 2.431564E+01
22.000000 26.000000 2.105869E+01
22.000000 24.000000 9.720117E+00
22.000000 22.000000 -9.726712E+00
22.000000 20.000000 -1.809488E+01
22.000000 18.000000 -8.416596E+00
22.000000 16.000000 3.218977E+00
22.000000 14.000000 -5.943039E+00
22.000000 12.000000 -3.904862E+01
22.000000 10.000000 -8.126698E+01
22.000000 8.000000 -9.863233E+01
22.000000 6.000000 -9.084124E+01
22.000000 4.000000 -6.670939E+01
22.000000 2.000000 -5.180090E+01
22.000000 0.000000 -4.555529E+01
22.000000 -2.000000 -3.170682E+01
22.000000 -4.000000 -7.134765E+00
22.000000 -6.000000 1.638274E+01
22.000000 -8.000000 2.371469E+01
22.000000 -10.000000 2.556933E+01
22.000000 -12.000000 4.822658E+01
22.000000 -14.000000 8.741996E+01
22.000000 -16.000000 1.090070E+02
22.000000 -18.000000 8.509929E+01
22.000000 -20.000000 3.149437E+01
22.000000 -22.000000 -1.518036E+01
22.000000 -24.000000 -2.564256E+01
22.000000 -26.000000 -9.890588E+00
22.000000 -28.000000 -2.569131E+00
22.000000 -30.000000 -1.091997E+01
22.000000 -32.000000 -2.589795E+01
22.000000 -34.000000 -3.056575E+01
22.000000 -36.000000 -2.949838E+01
22.000000 -38.000000 -3.123398E+01
22.000000 -40.000000 -3.778631E+01
24.000000 40.000000 -5.819406E+01
24.000000 38.000000 -4.956937E+01
24.000000 36.000000 -2.854734E+01
24.000000 34.000000 -1.058417E+00
24.000000 32.000000 2.324205E+01
24.000000 30.000000 3.185537E+01
24.000000 28.000000 2.909929E+01
24.000000 26.000000 2.126236E+01
24.000000 24.000000 6.768259E+00
24.000000 22.000000 -1.027600E+01
24.000000 20.000000 -1.310935E+01
24.000000 18.000000 2.046016E+00
24.000000 16.000000 1.722381E+01
24.000000 14.000000 1.346111E+01
24.000000 12.000000 -1.476705E+01
24.000000 10.000000 -5.562488E+01
24.000000 8.000000 -7.887528E+01
24.000000 6.000000 -7.897657E+01
24.000000 4.000000 -6.274634E+01
24.000000 2.000000 -5.279077E+01
24.000000 0.000000 -4.878475E+01
24.000000 -2.000000 -3.588985E+01
24.000000 -4.000000 -1.156474E+01
24.000000 -6.000000 6.863048E+00
24.000000 -8.000000 9.578229E+00
24.000000 -10.000000 1.016544E+01
24.000000 -12.000000 3.630662E+01
24.000000 -14.000000 7.720212E+01
24.000000 -16.000000 9.531058E+01
24.000000 -18.000000 6.485682E+01
24.000000 -20.000000 7.921420E+00
24.000000 -22.000000 -3.511598E+01
24.000000 -24.000000 -3.718720E+01
24.000000 -26.000000 -1.518293E+01
24.000000 -28.000000 -4.924332E+00
24.000000 -30.000000 -1.216186E+01
24.000000 -32.000000 -2.882375E+01
24.000000 -34.000000 -3.622938E+01
24.000000 -36.000000 -3.663329E+01
24.000000 -38.000000 -3.720162E+01
24.000000 -40.000000 -4.306416E+01
26.000000 40.000000 -6.773859E+01
26.000000 38.000000 -6.075144E+01
26.000000 36.000000 -3.869820E+01
26.000000 34.000000 -6.618482E+00
26.000000 32.000000 2.212996E+01
26.000000 30.000000 3.386140E+01
26.000000 28.000000 3.098031E+01
26.000000 26.000000 1.959389E+01
26.000000 24.000000 2.904278E+00
26.000000 22.000000 -1.092771E+01
26.000000 20.000000 -9.366574E+00
26.000000 18.000000 1.002035E+01
26.000000 16.000000 2.871535E+01
26.000000 14.000000 3.276316E+01
26.000000 12.000000 1.357924E+01
26.000000 10.000000 -2.107834E+01
26.000000 8.000000 -4.912063E+01
26.000000 6.000000 -5.925435E+01
26.000000 4.000000 -5.613484E+01
26.000000 2.000000 -5.291458E+01
26.000000 0.000000 -5.034789E+01
26.000000 -2.000000 -3.517112E+01
26.000000 -4.000000 -7.014585E+00
26.000000 -6.000000 1.106051E+01
26.000000 -8.000000 8.426033E+00
26.000000 -10.000000 2.157985E+00
26.000000 -12.000000 2.133483E+01
26.000000 -14.000000 5.240058E+01
26.000000 -16.000000 6.079699E+01
26.000000 -18.000000 2.751919E+01
26.000000 -20.000000 -2.521686E+01
26.000000 -22.000000 -5.889314E+01
26.000000 -24.000000 -5.091517E+01
26.000000 -26.000000 -2.203236E+01
26.000000 -28.000000 -9.477907E+00
26.000000 -30.000000 -1.575635E+01
26.000000 -32.000000 -3.466388E+01
26.000000 -34.000000 -4.521435E+01
26.000000 -36.000000 -4.660757E+01
26.000000 -38.000000 -4.462705E+01
26.000000 -40.000000 -4.812253E+01
28.000000 40.000000 -7.766532E+01
28.000000 38.000000 -7.422767E+01
28.000000 36.000000 -5.281341E+01
28.000000 34.000000 -1.892983E+01
28.000000 32.000000 1.334493E+01
28.000000 30.000000 2.841501E+01
28.000000 28.000000 2.774539E+01
28.000000 26.000000 1.712620E+01
28.000000 24.000000 2.627908E+00
28.000000 22.000000 -8.376489E+00
28.000000 20.000000 -6.963210E+00
28.000000 18.000000 1.028762E+01
28.000000 16.000000 2.982971E+01
28.000000 14.000000 4.063674E+01
28.000000 12.000000 3.227717E+01
28.000000 10.000000 7.796504E+00
28.000000 8.000000 -2.021148E+01
28.000000 6.000000 -3.649010E+01
28.000000 4.000000 -4.529244E+01
28.000000 2.000000 -4.871310E+01
28.000000 0.000000 -4.805418E+01
28.000000 -2.000000 -2.990950E+01
28.000000 -4.000000 2.948173E+00
28.000000 -6.000000 2.462621E+01
28.000000 -8.000000 1.887856E+01
28.000000 -10.000000 3.980275E+00
28.000000 -12.000000 9.084244E+00
28.000000 -14.000000 2.423869E+01
28.000000 -16.000000 2.175765E+01
28.000000 -18.000000 -1.111193E+01
28.000000 -20.000000 -5.547098E+01
28.000000 -22.000000 -7.891460E+01
28.000000 -24.000000 -6.341818E+01
28.000000 -26.000000 -3.079776E+01
28.000000 -28.000000 -1.688549E+01
28.000000 -30.000000 -2.279889E+01
28.000000 -32.000000 -4.282692E+01
28.000000 -34.000000 -5.501104E+01
28.000000 -36.000000 -5.657898E+01
28.000000 -38.000000 -5.230989E+01
28.000000 -40.000000 -5.381486E+01
30.000000 40.000000 -8.429352E+01
30.000000 38.000000 -8.691714E+01
30.000000 36.000000 -6.917762E+01
30.000000 34.000000 -3.697080E+01
30.000000 32.000000 -3.756684E+00
30.000000 30.000000 1.327873E+01
30.000000 28.000000 1.688767E+01
30.000000 26.000000 1.295856E+01
30.000000 24.000000 6.648997E+00
30.000000 22.000000 -1.573492E+00
30.000000 20.000000 -3.954814E+00
30.000000 18.000000 3.933794E+00
30.000000 16.000000 1.935154E+01
30.000000 14.000000 3.264545E+01
30.000000 12.000000 3.193196E+01
30.000000 10.000000 1.734569E+01
30.000000 8.000000 -5.614100E+00
30.000000 6.000000 -2.188751E+01
30.000000 4.000000 -3.399789E+01
30.000000 2.000000 -3.993788E+01
30.000000 0.000000 -3.810407E+01
30.000000 -2.000000 -1.809216E+01
30.000000 -4.000000 1.617523E+01
30.000000 -6.000000 4.150797E+01
30.000000 -8.000000 3.558940E+01
30.000000 -10.000000 1.483733E+01
30.000000 -12.000000 4.453239E+00
30.000000 -14.000000 3.198108E+00
30.000000 -16.000000 -7.755435E+00
30.000000 -18.000000 -3.779403E+01
30.000000 -20.000000 -7.304807E+01
30.000000 -22.000000 -8.843093E+01
30.000000 -24.000000 -6.973547E+01
30.000000 -26.000000 -3.810947E+01
30.000000 -28.000000 -2.525621E+01
30.000000 -30.000000 -3.174628E+01
30.000000 -32.000000 -5.163038E+01
30.000000 -34.000000 -6.388926E+01
30.000000 -36.000000 -6.530925E+01
30.000000 -38.000000 -5.965981E+01
30.000000 -40.000000 -6.019535E+01
32.000000 40.000000 -8.500474E+01
32.000000 38.000000 -9.596954E+01
32.000000 36.000000 -8.619685E+01
32.000000 34.000000 -5.847507E+01
32.000000 32.000000 -2.647492E+01
32.000000 30.000000 -8.903206E+00
32.000000 28.000000 1.053729E-01
32.000000 26.000000 5.806407E+00
32.000000 24.000000 9.954160E+00
32.000000 22.000000 4.840992E+00
32.000000 20.000000 -1.558904E+00
32.000000 18.000000 -4.295205E+00
32.000000 16.000000 3.090294E+00
32.000000 14.000000 1.336531E+01
32.000000 12.000000 1.557886E+01
32.000000 10.000000 8.997999E+00
32.000000 8.000000 -5.679888E+00
32.000000 6.000000 -1.789447E+01
32.000000 4.000000 -2.612660E+01
32.000000 2.000000 -2.999724E+01
32.000000 0.000000 -2.540567E+01
32.000000 -2.000000 -5.435673E+00
32.000000 -4.000000 2.776248E+01
32.000000 -6.000000 5.673761E+01
32.000000 -8.000000 5.381348E+01
32.000000 -10.000000 3.055237E+01
32.000000 -12.000000 7.648855E+00
32.000000 -14.000000 -6.504795E+00
32.000000 -16.000000 -2.240338E+01
32.000000 -18.000000 -4.804901E+01
32.000000 -20.000000 -7.438959E+01
32.000000 -22.000000 -8.303605E+01
32.000000 -24.000000 -6.570979E+01
32.000000 -26.000000 -4.027516E+01
32.000000 -28.000000 -3.160242E+01
32.000000 -30.000000 -3.984522E+01
32.000000 -32.000000 -5.927498E+01
32.000000 -34.000000 -7.061289E+01
32.000000 -36.000000 -7.196651E+01
32.000000 -38.000000 -6.632053E+01
32.000000 -40.000000 -6.669129E+01
34.000000 40.000000 -8.374593E+01
34.000000 38.000000 -1.002960E+02
34.000000 36.000000 -9.817149E+01
34.000000 34.000000 -7.703493E+01
34.000000 32.000000 -4.741660E+01
34.000000 30.000000 -2.961368E+01
34.000000 28.000000 -1.642569E+01
34.000000 26.000000 -3.812448E+00
34.000000 24.000000 6.382526E+00
34.000000 22.000000 3.285843E+00
34.000000 20.000000 -5.237534E+00
34.000000 18.000000 -1.301031E+01
34.000000 16.000000 -1.132506E+01
34.000000 14.000000 -5.282018E+00
34.000000 12.000000 -3.439195E+00
34.000000 10.000000 -5.401469E+00
34.000000 8.000000 -1.218882E+01
34.000000 6.000000 -1.978491E+01
34.000000 4.000000 -2.339969E+01
34.000000 2.000000 -2.445941E+01
34.000000 0.000000 -1.904820E+01
34.000000 -2.000000 -2.976255E-01
34.000000 -4.000000 3.381133E+01
34.000000 -6.000000 6.789076E+01
34.000000 -8.000000 6.985546E+01
34.000000 -10.000000 4.648967E+01
34.000000 -12.000000 1.563566E+01
34.000000 -14.000000 -5.413986E+00
34.000000 -16.000000 -2.265200E+01
34.000000 -18.000000 -4.133854E+01
34.000000 -20.000000 -5.868415E+01
34.000000 -22.000000 -6.383623E+01
34.000000 -24.000000 -5.341737E+01
34.000000 -26.000000 -3.889259E+01
34.000000 -28.000000 -3.754503E+01
34.000000 -30.000000 -4.887534E+01
34.000000 -32.000000 -6.691466E+01
34.000000 -34.000000 -7.534304E+01
34.000000 -36.000000 -7.503173E+01
34.000000 -38.000000 -6.948935E+01
34.000000 -40.000000 -7.101102E+01
36.000000 40.000000 -8.263915E+01
36.000000 38.000000 -1.014223E+02
36.000000 36.000000 -1.032490E+02
36.000000 34.000000 -8.704876E+01
36.000000 32.000000 -5.953313E+01
36.000000 30.000000 -4.161666E+01
36.000000 28.000000 -2.808851E+01
36.000000 26.000000 -1.529006E+01
36.000000 24.000000 -6.166821E+00
36.000000 22.000000 -9.057312E+00
36.000000 20.000000 -1.845955E+01
36.000000 18.000000 -2.367486E+01
36.000000 16.000000 -1.984607E+01
36.000000 14.000000 -1.381923E+01
36.000000 12.000000 -1.182815E+01
36.000000 10.000000 -1.326849E+01
36.000000 8.000000 -1.721948E+01
36.000000 6.000000 -2.249167E+01
36.000000 4.000000 -2.396604E+01
36.000000 2.000000 -2.341063E+01
36.000000 0.000000 -1.872796E+01
36.000000 -2.000000 -4.159698E-01
36.000000 -4.000000 3.603958E+01
36.000000 -6.000000 7.395718E+01
36.000000 -8.000000 7.860878E+01
36.000000 -10.000000 5.569226E+01
36.000000 -12.000000 2.234073E+01
36.000000 -14.000000 -6.801224E-01
36.000000 -16.000000 -1.602714E+01
36.000000 -18.000000 -2.587982E+01
36.000000 -20.000000 -3.412867E+01
36.000000 -22.000000 -3.825558E+01
36.000000 -24.000000 -3.736206E+01
36.000000 -26.000000 -3.633200E+01
36.000000 -28.000000 -4.389771E+01
36.000000 -30.000000 -5.840078E+01
36.000000 -32.000000 -7.343599E+01
36.000000 -34.000000 -7.697203E+01
36.000000 -36.000000 -7.319804E+01
36.000000 -38.000000 -6.763240E+01
36.000000 -40.000000 -7.174231E+01
38.000000 40.000000 -7.882631E+01
38.000000 38.000000 -9.923417E+01
38.000000 36.000000 -1.040932E+02
38.000000 34.000000 -8.839004E+01
38.000000 32.000000 -5.962912E+01
38.000000 30.000000 -4.276548E+01
38.000000 28.000000 -3.429416E+01
38.000000 26.000000 -2.868313E+01
38.000000 24.000000 -2.676263E+01
38.000000 22.000000 -3.015263E+01
38.000000 20.000000 -3.813442E+01
38.000000 18.000000 -3.594214E+01
38.000000 16.000000 -2.366133E+01
38.000000 14.000000 -1.212286E+01
38.000000 12.000000 -7.425695E+00
38.000000 10.000000 -9.708715E+00
38.000000 8.000000 -1.459894E+01
38.000000 6.000000 -1.893839E+01
38.000000 4.000000 -1.991404E+01
38.000000 2.000000 -1.895404E+01
38.000000 0.000000 -1.594738E+01
38.000000 -2.000000 5.160818E-01
38.000000 -4.000000 3.587416E+01
38.000000 -6.000000 7.227752E+01
38.000000 -8.000000 7.574985E+01
38.000000 -10.000000 5.293813E+01
38.000000 -12.000000 2.110039E+01
38.000000 -14.000000 -1.146922E+00
38.000000 -16.000000 -1.293911E+01
38.000000 -18.000000 -1.472279E+01
38.000000 -20.000000 -1.434508E+01
38.000000 -22.000000 -1.665504E+01
38.000000 -24.000000 -2.301331E+01
38.000000 -26.000000 -3.274227E+01
38.000000 -28.000000 -4.754582E+01
38.000000 -30.000000 -6.327275E+01
38.000000 -32.000000 -7.415219E+01
38.000000 -34.000000 -7.260015E+01
38.000000 -36.000000 -6.622087E+01
38.000000 -38.000000 -6.255293E+01
38.000000 -40.000000 -6.967843E+01
40.000000 40.000000 -7.267082E+01
40.000000 38.000000 -9.323884E+01
40.000000 36.000000 -1.003498E+02
40.000000 34.000000 -8.308155E+01
40.000000 32.000000 -5.170673E+01
40.000000 30.000000 -3.592260E+01
40.000000 28.000000 -3.357973E+01
40.000000 26.000000 -3.694849E+01
40.000000 24.000000 -4.406055E+01
40.000000 22.000000 -4.936944E+01
40.000000 20.000000 -5.425208E+01
40.000000 18.000000 -4.553662E+01
40.000000 16.000000 -2.596498E+01
40.000000 14.000000 -8.484338E+00
40.000000 12.000000 -3.410730E-01
40.000000 10.000000 -9.043446E-01
40.000000 8.000000 -5.325019E+00
40.000000 6.000000 -7.181971E+00
40.000000 4.000000 -6.310503E+00
40.000000 2.000000 -6.286941E+00
40.000000 0.000000 -6.708411E+00
40.000000 -2.000000 2.405525E+00
40.000000 -4.000000 2.871280E+01
40.000000 -6.000000 5.765063E+01
40.000000 -8.000000 5.993623E+01
40.000000 -10.000000 4.016369E+01
40.000000 -12.000000 1.344811E+01
40.000000 -14.000000 -6.247018E+00
40.000000 -16.000000 -1.582792E+01
40.000000 -18.000000 -1.323952E+01
40.000000 -20.000000 -6.735217E+00
40.000000 -22.000000 -6.151868E+00
40.000000 -24.000000 -1.521945E+01
40.000000 -26.000000 -2.927674E+01
40.000000 -28.000000 -4.634439E+01
40.000000 -30.000000 -6.073999E+01
40.000000 -32.000000 -6.715677E+01
40.000000 -34.000000 -6.199368E+01
40.000000 -36.000000 -5.574309E+01
40.000000 -38.000000 -5.558480E+01
40.000000 -40.000000 -6.536810E+01
42.000000 40.000000 -6.658513E+01
42.000000 38.000000 -8.488916E+01
42.000000 36.000000 -9.159016E+01
42.000000 34.000000 -7.359019E+01
42.000000 32.000000 -4.092045E+01
42.000000 30.000000 -2.477137E+01
42.000000 28.000000 -2.557229E+01
42.000000 26.000000 -3.303518E+01
42.000000 24.000000 -4.497985E+01
42.000000 22.000000 -5.445160E+01
42.000000 20.000000 -5.819648E+01
42.000000 18.000000 -4.657384E+01
42.000000 16.000000 -2.498112E+01
42.000000 14.000000 -5.996072E+00
42.000000 12.000000 3.765006E+00
42.000000 10.000000 4.762401E+00
42.000000 8.000000 6.533298E-01
42.000000 6.000000 5.317059E-01
42.000000 4.000000 5.210073E+00
42.000000 2.000000 6.849400E+00
42.000000 0.000000 3.825781E+00
42.000000 -2.000000 3.722620E+00
42.000000 -4.000000 1.714462E+01
42.000000 -6.000000 3.563699E+01
42.000000 -8.000000 3.760517E+01
42.000000 -10.000000 2.356316E+01
42.000000 -12.000000 4.122529E+00
42.000000 -14.000000 -1.200288E+01
42.000000 -16.000000 -2.115603E+01
42.000000 -18.000000 -1.926238E+01
42.000000 -20.000000 -1.096300E+01
42.000000 -22.000000 -7.412358E+00
42.000000 -24.000000 -1.515310E+01
42.000000 -26.000000 -2.807270E+01
42.000000 -28.000000 -4.222788E+01
42.000000 -30.000000 -5.266570E+01
42.000000 -32.000000 -5.412544E+01
42.000000 -34.000000 -4.711084E+01
42.000000 -36.000000 -4.357667E+01
42.000000 -38.000000 -4.717879E+01
42.000000 -40.000000 -5.936509E+01
44.000000 40.000000 -5.939551E+01
44.000000 38.000000 -7.534667E+01
44.000000 36.000000 -8.112233E+01
44.000000 34.000000 -6.438914E+01
44.000000 32.000000 -3.156483E+01
44.000000 30.000000 -1.327156E+01
44.000000 28.000000 -1.205122E+01
44.000000 26.000000 -1.740463E+01
44.000000 24.000000 -2.895771E+01
44.000000 22.000000 -4.245898E+01
44.000000 20.000000 -4.752372E+01
44.000000 18.000000 -3.648655E+01
44.000000 16.000000 -1.682772E+01
44.000000 14.000000 5.197630E-01
44.000000 12.000000 9.639043E+00
44.000000 10.000000 7.925172E+00
44.000000 8.000000 -1.033507E+00
44.000000 6.000000 -4.601900E+00
44.000000 4.000000 2.895180E+00
44.000000 2.000000 1.031286E+01
44.000000 0.000000 8.925855E+00
44.000000 -2.000000 4.204648E+00
44.000000 -4.000000 6.826783E+00
44.000000 -6.000000 1.570326E+01
44.000000 -8.000000 1.746408E+01
44.000000 -10.000000 8.729822E+00
44.000000 -12.000000 -4.276678E+00
44.000000 -14.000000 -1.723492E+01
44.000000 -16.000000 -2.843630E+01
44.000000 -18.000000 -3.087158E+01
44.000000 -20.000000 -2.381241E+01
44.000000 -22.000000 -1.784140E+01
44.000000 -24.000000 -2.122718E+01
44.000000 -26.000000 -2.898310E+01
44.000000 -28.000000 -3.726797E+01
44.000000 -30.000000 -4.188596E+01
44.000000 -32.000000 -3.870565E+01
44.000000 -34.000000 -3.095824E+01
44.000000 -36.000000 -3.058255E+01
44.000000 -38.000000 -3.794538E+01
44.000000 -40.000000 -5.272602E+01
46.000000 40.000000 -4.911492E+01
46.000000 38.000000 -6.417502E+01
46.000000 36.000000 -7.055489E+01
46.000000 34.000000 -5.838147E+01
46.000000 32.000000 -2.864684E+01
46.000000 30.000000 -7.522698E+00
46.000000 28.000000 1.969500E+00
46.000000 26.000000 4.366276E+00
46.000000 24.000000 -4.342118E+00
46.000000 22.000000 -2.076459E+01
46.000000 20.000000 -2.702939E+01
46.000000 18.000000 -1.565627E+01
46.000000 16.000000 3.193124E+00
46.000000 14.000000 1.908178E+01
46.000000 12.000000 2.511979E+01
46.000000 10.000000 1.573159E+01
46.000000 8.000000 -3.893567E+00
46.000000 6.000000 -1.576508E+01
46.000000 4.000000 -9.949056E+00
46.000000 2.000000 1.932265E+00
46.000000 0.000000 5.012882E+00
46.000000 -2.000000 6.955051E-01
46.000000 -4.000000 -1.413472E+00
46.000000 -6.000000 1.368009E+00
46.000000 -8.000000 1.730969E+00
46.000000 -10.000000 -4.367689E+00
46.000000 -12.000000 -1.392101E+01
46.000000 -14.000000 -2.503503E+01
46.000000 -16.000000 -3.859241E+01
46.000000 -18.000000 -4.475989E+01
46.000000 -20.000000 -3.955605E+01
46.000000 -22.000000 -3.223644E+01
46.000000 -24.000000 -3.003577E+01
46.000000 -26.000000 -3.097078E+01
46.000000 -28.000000 -3.287589E+01
46.000000 -30.000000 -3.152901E+01
46.000000 -32.000000 -2.472378E+01
46.000000 -34.000000 -1.678111E+01
46.000000 -36.000000 -1.845009E+01
46.000000 -38.000000 -2.891318E+01
46.000000 -40.000000 -4.582796E+01
48.000000 40.000000 -3.586077E+01
48.000000 38.000000 -5.127206E+01
48.000000 36.000000 -5.910957E+01
48.000000 34.000000 -5.389488E+01
48.000000 32.000000 -3.166968E+01
48.000000 30.000000 -9.631025E+00
48.000000 28.000000 1.046985E+01
48.000000 26.000000 2.338987E+01
48.000000 24.000000 2.078200E+01
48.000000 22.000000 3.108159E+00
48.000000 20.000000 -3.321549E+00
48.000000 18.000000 9.824092E+00
48.000000 16.000000 2.960259E+01
48.000000 14.000000 4.524770E+01
48.000000 12.000000 4.795129E+01
48.000000 10.000000 3.177558E+01
48.000000 8.000000 1.388006E+00
48.000000 6.000000 -1.969501E+01
48.000000 4.000000 -2.035008E+01
48.000000 2.000000 -9.917533E+00
48.000000 0.000000 -4.446757E+00
48.000000 -2.000000 -7.403365E+00
48.000000 -4.000000 -1.115453E+01
48.000000 -6.000000 -1.259216E+01
48.000000 -8.000000 -1.426378E+01
48.000000 -10.000000 -1.939786E+01
48.000000 -12.000000 -2.663759E+01
48.000000 -14.000000 -3.544508E+01
48.000000 -16.000000 -4.778857E+01
48.000000 -18.000000 -5.480208E+01
48.000000 -20.000000 -5.092926E+01
48.000000 -22.000000 -4.202076E+01
48.000000 -24.000000 -3.522222E+01
48.000000 -26.000000 -3.153904E+01
48.000000 -28.000000 -2.967456E+01
48.000000 -30.000000 -2.490588E+01
48.000000 -32.000000 -1.573112E+01
48.000000 -34.000000 -7.920401E+00
48.000000 -36.000000 -1.016791E+01
48.000000 -38.000000 -2.170897E+01
48.000000 -40.000000 -3.876478E+01
50.000000 40.000000 -2.189039E+01
50.000000 38.000000 -3.801713E+01
50.000000 36.000000 -4.671464E+01
50.000000 34.000000 -4.860253E+01
50.000000 32.000000 -3.548358E+01
50.000000 30.000000 -1.541402E+01
50.000000 28.000000 1.297666E+01
50.000000 26.000000 3.634429E+01
50.000000 24.000000 4.169032E+01
50.000000 22.000000 2.391373E+01
50.000000 20.000000 1.644654E+01
50.000000 18.000000 2.767555E+01
50.000000 16.000000 4.698827E+01
50.000000 14.000000 6.366946E+01
50.000000 12.000000 6.564970E+01
50.000000 10.000000 4.796121E+01
50.000000 8.000000 1.427299E+01
50.000000 6.000000 -9.852062E+00
50.000000 4.000000 -1.637208E+01
50.000000 2.000000 -1.245308E+01
50.000000 0.000000 -1.137287E+01
50.000000 -2.000000 -1.722538E+01
50.000000 -4.000000 -2.473573E+01
50.000000 -6.000000 -2.896200E+01
50.000000 -8.000000 -3.007707E+01
50.000000 -10.000000 -3.396616E+01
50.000000 -12.000000 -3.706795E+01
50.000000 -14.000000 -4.267354E+01
50.000000 -16.000000 -5.091290E+01
