-24.000000 -30.000000 3.215129E+01
-24.000000 -32.000000 2.985919E+01
-24.000000 -34.000000 3.034909E+01
-24.000000 -36.000000 3.276512E+01
-24.000000 -38.000000 3.213968E+01
-24.000000 -40.000000 2.707877E+01
-22.000000 40.000000 2.950965E+01
-22.000000 38.000000 3.000671E+01
-22.000000 36.000000 2.988356E+01
-22.000000 34.000000 2.481557E+01
-22.000000 32.000000 1.575386E+01
-22.000000 30.000000 1.406398E+01
-22.000000 28.000000 2.200744E+01
-22.000000 26.000000 2.981118E+01
-22.000000 24.000000 2.829056E+01
-22.000000 22.000000 1.841615E+01
-22.000000 20.000000 1.662596E+01
-22.000000 18.000000 1.963666E+01
-22.000000 16.000000 2.055962E+01
-22.000000 14.000000 1.336577E+01
-22.000000 12.000000 4.627142E-01
-22.000000 10.000000 -8.018550E+00
-22.000000 8.000000 -2.229475E+00
-22.000000 6.000000 1.070548E+01
-22.000000 4.000000 2.475308E+01
-22.000000 2.000000 3.525451E+01
-22.000000 0.000000 3.953094E+01
-22.000000 -2.000000 3.739451E+01
-22.000000 -4.000000 3.199140E+01
-22.000000 -6.000000 2.547186E+01
-22.000000 -8.000000 1.850974E+01
-22.000000 -10.000000 1.167709E+01
-22.000000 -12.000000 1.782843E+01
-22.000000 -14.000000 2.724702E+01
-22.000000 -16.000000 3.485907E+01
-22.000000 -18.000000 4.545611E+01
-22.000000 -20.000000 5.169359E+01
-22.000000 -22.000000 5.133155E+01
-22.000000 -24.000000 4.838163E+01
-22.000000 -26.000000 4.262214E+01
-22.000000 -28.000000 3.599367E+01
-22.000000 -30.000000 3.194681E+01
-22.000000 -32.000000 3.050328E+01
-22.000000 -34.000000 3.139538E+01
-22.000000 -36.000000 3.419190E+01
-22.000000 -38.000000 3.187282E+01
-22.000000 -40.000000 2.479048E+01
-20.000000 40.000000 2.352014E+01
-20.000000 38.000000 2.363185E+01
-20.000000 36.000000 2.205895E+01
-20.000000 34.000000 1.521191E+01
-20.000000 32.000000 6.670570E+00
-20.000000 30.000000 8.532084E+00
-20.000000 28.000000 1.948320E+01
-20.000000 26.000000 2.723919E+01
-20.000000 24.000000 2.159255E+01
-20.000000 22.000000 6.949839E+00
-20.000000 20.000000 3.884260E+00
-20.000000 18.000000 6.968229E+00
-20.000000 16.000000 7.693576E+00
-20.000000 14.000000 -1.779011E+00
-20.000000 12.000000 -1.736481E+01
-20.000000 10.000000 -2.474485E+01
-20.000000 8.000000 -1.298315E+01
-20.000000 6.000000 5.820738E+00
-20.000000 4.000000 2.234560E+01
-20.000000 2.000000 2.744777E+01
-20.000000 0.000000 2.610158E+01
-20.000000 -2.000000 2.347310E+01
-20.000000 -4.000000 2.357870E+01
-20.000000 -6.000000 2.787694E+01
-20.000000 -8.000000 2.844823E+01
-20.000000 -10.000000 2.715938E+01
-20.000000 -12.000000 3.215365E+01
-20.000000 -14.000000 3.789874E+01
-20.000000 -16.000000 4.176694E+01
-20.000000 -18.000000 4.889144E+01
-20.000000 -20.000000 5.136473E+01
-20.000000 -22.000000 4.800356E+01
-20.000000 -24.000000 4.524277E+01
-20.000000 -26.000000 4.012557E+01
-20.000000 -28.000000 3.343772E+01
-20.000000 -30.000000 2.919034E+01
-20.000000 -32.000000 2.788739E+01
-20.000000 -34.000000 2.898255E+01
-20.000000 -36.000000 3.126929E+01
-20.000000 -38.000000 2.812065E+01
-20.000000 -40.000000 2.106515E+01
-18.000000 40.000000 1.929671E+01
-18.000000 38.000000 1.899613E+01
-18.000000 36.000000 1.536451E+01
-18.000000 34.000000 6.260918E+00
-18.000000 32.000000 -3.307353E+00
-18.000000 30.000000 3.352175E-01
-18.000000 28.000000 1.470397E+01
-18.000000 26.000000 2.032179E+01
-18.000000 24.000000 6.565135E+00
-18.000000 22.000000 -1.349570E+01
-18.000000 20.000000 -1.753897E+01
-18.000000 18.000000 -1.143662E+01
-18.000000 16.000000 -5.877121E+00
-18.000000 14.000000 -1.280698E+01
-18.000000 12.000000 -2.761524E+01
-18.000000 10.000000 -3.088995E+01
-18.000000 8.000000 -1.448026E+01
-18.000000 6.000000 7.244146E+00
-18.000000 4.000000 2.239921E+01
-18.000000 2.000000 2.070615E+01
-18.000000 0.000000 1.359651E+01
-18.000000 -2.000000 1.072732E+01
-18.000000 -4.000000 1.877421E+01
-18.000000 -6.000000 3.593735E+01
-18.000000 -8.000000 4.540280E+01
-18.000000 -10.000000 5.017820E+01
-18.000000 -12.000000 5.120046E+01
-18.000000 -14.000000 5.082952E+01
-18.000000 -16.000000 4.995830E+01
-18.000000 -18.000000 5.165474E+01
-18.000000 -20.000000 5.082339E+01
-18.000000 -22.000000 4.662337E+01
-18.000000 -24.000000 4.346269E+01
-18.000000 -26.000000 3.965643E+01
-18.000000 -28.000000 3.259985E+01
-18.000000 -30.000000 2.666149E+01
-18.000000 -32.000000 2.424159E+01
-18.000000 -34.000000 2.371220E+01
-18.000000 -36.000000 2.380776E+01
-18.000000 -38.000000 2.172645E+01
-18.000000 -40.000000 1.739445E+01
-16.000000 40.000000 1.444011E+01
-16.000000 38.000000 1.283596E+01
-16.000000 36.000000 8.214952E+00
-16.000000 34.000000 -6.999302E-01
-16.000000 32.000000 -9.647117E+00
-16.000000 30.000000 -5.942562E+00
-16.000000 28.000000 7.879241E+00
-16.000000 26.000000 1.100662E+01
-16.000000 24.000000 -7.116899E+00
-16.000000 22.000000 -2.850232E+01
-16.000000 20.000000 -3.142999E+01
-16.000000 18.000000 -1.919596E+01
-16.000000 16.000000 -8.989964E+00
-16.000000 14.000000 -1.416026E+01
-16.000000 12.000000 -2.652107E+01
-16.000000 10.000000 -2.497338E+01
-16.000000 8.000000 -7.186565E+00
-16.000000 6.000000 1.226543E+01
-16.000000 4.000000 2.210376E+01
-16.000000 2.000000 1.589384E+01
-16.000000 0.000000 4.797570E+00
-16.000000 -2.000000 2.028543E+00
-16.000000 -4.000000 1.671015E+01
-16.000000 -6.000000 4.191664E+01
-16.000000 -8.000000 5.682525E+01
-16.000000 -10.000000 6.293364E+01
-16.000000 -12.000000 6.152663E+01
-16.000000 -14.000000 5.778934E+01
-16.000000 -16.000000 5.275600E+01
-16.000000 -18.000000 5.256617E+01
-16.000000 -20.000000 5.137338E+01
-16.000000 -22.000000 4.669337E+01
-16.000000 -24.000000 4.169305E+01
-16.000000 -26.000000 3.978255E+01
-16.000000 -28.000000 3.271226E+01
-16.000000 -30.000000 2.529485E+01
-16.000000 -32.000000 2.100398E+01
-16.000000 -34.000000 1.806975E+01
-16.000000 -36.000000 1.594030E+01
-16.000000 -38.000000 1.466443E+01
-16.000000 -40.000000 1.257794E+01
-14.000000 40.000000 7.790329E+00
-14.000000 38.000000 4.682383E+00
-14.000000 36.000000 1.150995E+00
-14.000000 34.000000 -4.534882E+00
-14.000000 32.000000 -1.089501E+01
-14.000000 30.000000 -7.407800E+00
-14.000000 28.000000 3.367422E+00
-14.000000 26.000000 5.977832E+00
-14.000000 24.000000 -8.760952E+00
-14.000000 22.000000 -2.499495E+01
-14.000000 20.000000 -2.351792E+01
-14.000000 18.000000 -7.853740E+00
-14.000000 16.000000 -4.881649E-01
-14.000000 14.000000 -9.211654E+00
-14.000000 12.000000 -2.211326E+01
-14.000000 10.000000 -1.985158E+01
-14.000000 8.000000 -3.041461E+00
-14.000000 6.000000 1.526879E+01
-14.000000 4.000000 2.299030E+01
-14.000000 2.000000 1.541907E+01
-14.000000 0.000000 3.955009E+00
-14.000000 -2.000000 4.515200E+00
-14.000000 -4.000000 2.319601E+01
-14.000000 -6.000000 4.865522E+01
-14.000000 -8.000000 5.980844E+01
-14.000000 -10.000000 6.028727E+01
-14.000000 -12.000000 5.617394E+01
-14.000000 -14.000000 5.223598E+01
-14.000000 -16.000000 4.796872E+01
-14.000000 -18.000000 4.905111E+01
-14.000000 -20.000000 4.856561E+01
-14.000000 -22.000000 4.404106E+01
-14.000000 -24.000000 3.732263E+01
-14.000000 -26.000000 3.691283E+01
-14.000000 -28.000000 3.090312E+01
-14.000000 -30.000000 2.341157E+01
-14.000000 -32.000000 1.834098E+01
-14.000000 -34.000000 1.425349E+01
-14.000000 -36.000000 1.126746E+01
-14.000000 -38.000000 9.487715E+00
-14.000000 -40.000000 7.804592E+00
-12.000000 40.000000 -1.391602E-01
-12.000000 38.000000 -2.636399E+00
-12.000000 36.000000 -2.549098E+00
-12.000000 34.000000 -2.866395E+00
-12.000000 32.000000 -6.560565E+00
-12.000000 30.000000 -3.446353E+00
-12.000000 28.000000 6.452217E+00
-12.000000 26.000000 1.091959E+01
-12.000000 24.000000 3.868994E+00
-12.000000 22.000000 -3.428040E+00
-12.000000 20.000000 2.796452E+00
-12.000000 18.000000 1.549736E+01
-12.000000 16.000000 1.240765E+01
-12.000000 14.000000 -6.059918E+00
-12.000000 12.000000 -2.523277E+01
-12.000000 10.000000 -2.600485E+01
-12.000000 8.000000 -8.710648E+00
-12.000000 6.000000 1.260805E+01
-12.000000 4.000000 2.371348E+01
-12.000000 2.000000 1.904803E+01
-12.000000 0.000000 1.144620E+01
-12.000000 -2.000000 1.780923E+01
-12.000000 -4.000000 3.889205E+01
-12.000000 -6.000000 5.926075E+01
-12.000000 -8.000000 6.061588E+01
-12.000000 -10.000000 5.146039E+01
-12.000000 -12.000000 4.069224E+01
-12.000000 -14.000000 3.641755E+01
-12.000000 -16.000000 3.606624E+01
-12.000000 -18.000000 3.868297E+01
-12.000000 -20.000000 3.896257E+01
-12.000000 -22.000000 3.531160E+01
-12.000000 -24.000000 2.986685E+01
-12.000000 -26.000000 2.930010E+01
-12.000000 -28.000000 2.478421E+01
-12.000000 -30.000000 1.881838E+01
-12.000000 -32.000000 1.548309E+01
-12.000000 -34.000000 1.224556E+01
-12.000000 -36.000000 9.573452E+00
-12.000000 -38.000000 7.703298E+00
-12.000000 -40.000000 6.162235E+00
-10.000000 40.000000 -8.785997E+00
-10.000000 38.000000 -7.984758E+00
-10.000000 36.000000 -1.903910E+00
-10.000000 34.000000 4.924336E+00
-10.000000 32.000000 5.128369E+00
-10.000000 30.000000 8.895602E+00
-10.000000 28.000000 1.923272E+01
-10.000000 26.000000 2.541180E+01
-10.000000 24.000000 2.594467E+01
-10.000000 22.000000 2.540964E+01
-10.000000 20.000000 3.261749E+01
-10.000000 18.000000 3.722141E+01
-10.000000 16.000000 2.142925E+01
-10.000000 14.000000 -1.013934E+01
-10.000000 12.000000 -3.758814E+01
-10.000000 10.000000 -4.169203E+01
-10.000000 8.000000 -2.097831E+01
-10.000000 6.000000 4.343842E+00
-10.000000 4.000000 2.002564E+01
-10.000000 2.000000 2.091741E+01
-10.000000 0.000000 1.990948E+01
-10.000000 -2.000000 3.005680E+01
-10.000000 -4.000000 5.098571E+01
-10.000000 -6.000000 6.592969E+01
-10.000000 -8.000000 6.016405E+01
-10.000000 -10.000000 4.333809E+01
-10.000000 -12.000000 2.603971E+01
-10.000000 -14.000000 1.995420E+01
-10.000000 -16.000000 2.197524E+01
-10.000000 -18.000000 2.563455E+01
-10.000000 -20.000000 2.743593E+01
-10.000000 -22.000000 2.573244E+01
-10.000000 -24.000000 2.286405E+01
-10.000000 -26.000000 2.088019E+01
-10.000000 -28.000000 1.671367E+01
-10.000000 -30.000000 1.306022E+01
-10.000000 -32.000000 1.330091E+01
-10.000000 -34.000000 1.220175E+01
-10.000000 -36.000000 9.743034E+00
-10.000000 -38.000000 7.691495E+00
-10.000000 -40.000000 6.103905E+00
-8.000000 40.000000 -1.742264E+01
-8.000000 38.000000 -1.160042E+01
-8.000000 36.000000 1.768431E+00
-8.000000 34.000000 1.689088E+01
-8.000000 32.000000 2.309887E+01
-8.000000 30.000000 2.840986E+01
-8.000000 28.000000 3.714918E+01
-8.000000 26.000000 4.291961E+01
-8.000000 24.000000 4.809273E+01
-8.000000 22.000000 4.988898E+01
-8.000000 20.000000 5.417438E+01
-8.000000 18.000000 4.976374E+01
-8.000000 16.000000 2.400617E+01
-8.000000 14.000000 -1.708679E+01
-8.000000 12.000000 -4.970526E+01
-8.000000 10.000000 -5.630531E+01
-8.000000 8.000000 -3.182091E+01
-8.000000 6.000000 -3.881609E+00
-8.000000 4.000000 1.333286E+01
-8.000000 2.000000 1.636385E+01
-8.000000 0.000000 1.848256E+01
-8.000000 -2.000000 2.951541E+01
-8.000000 -4.000000 4.835188E+01
-8.000000 -6.000000 5.972588E+01
-8.000000 -8.000000 5.310794E+01
-8.000000 -10.000000 3.552119E+01
-8.000000 -12.000000 1.664832E+01
-8.000000 -14.000000 9.650551E+00
-8.000000 -16.000000 1.127464E+01
-8.000000 -18.000000 1.494054E+01
-8.000000 -20.000000 1.900072E+01
-8.000000 -22.000000 2.120884E+01
-8.000000 -24.000000 2.132753E+01
-8.000000 -26.000000 1.708517E+01
-8.000000 -28.000000 1.152926E+01
-8.000000 -30.000000 9.750408E+00
-8.000000 -32.000000 1.316987E+01
-8.000000 -34.000000 1.422875E+01
-8.000000 -36.000000 1.111547E+01
-8.000000 -38.000000 7.550430E+00
-8.000000 -40.000000 4.646697E+00
-6.000000 40.000000 -2.466870E+01
-6.000000 38.000000 -1.391613E+01
-6.000000 36.000000 6.675642E+00
-6.000000 34.000000 3.114527E+01
-6.000000 32.000000 4.347349E+01
-6.000000 30.000000 4.797591E+01
-6.000000 28.000000 5.144456E+01
-6.000000 26.000000 5.361317E+01
-6.000000 24.000000 5.949218E+01
-6.000000 22.000000 6.050301E+01
-6.000000 20.000000 6.147624E+01
-6.000000 18.000000 5.060677E+01
-6.000000 16.000000 2.061444E+01
-6.000000 14.000000 -1.966629E+01
-6.000000 12.000000 -5.038017E+01
-6.000000 10.000000 -5.737496E+01
-6.000000 8.000000 -3.009753E+01
-6.000000 6.000000 -2.412909E+00
-6.000000 4.000000 9.574327E+00
-6.000000 2.000000 6.063419E+00
-6.000000 0.000000 3.975811E+00
-6.000000 -2.000000 1.269808E+01
-6.000000 -4.000000 2.842943E+01
-6.000000 -6.000000 3.926052E+01
-6.000000 -8.000000 3.740997E+01
-6.000000 -10.000000 2.618206E+01
-6.000000 -12.000000 1.264813E+01
-6.000000 -14.000000 6.344902E+00
-6.000000 -16.000000 6.271988E+00
-6.000000 -18.000000 1.019522E+01
-6.000000 -20.000000 1.663250E+01
-6.000000 -22.000000 2.269402E+01
-6.000000 -24.000000 2.506899E+01
-6.000000 -26.000000 2.003421E+01
-6.000000 -28.000000 1.297350E+01
-6.000000 -30.000000 1.077970E+01
-6.000000 -32.000000 1.388117E+01
-6.000000 -34.000000 1.500741E+01
-6.000000 -36.000000 1.131717E+01
-6.000000 -38.000000 6.273972E+00
-6.000000 -40.000000 1.720553E+00
-4.000000 40.000000 -2.900392E+01
-4.000000 38.000000 -1.490124E+01
-4.000000 36.000000 1.079953E+01
-4.000000 34.000000 4.277191E+01
-4.000000 32.000000 5.863297E+01
-4.000000 30.000000 5.932653E+01
-4.000000 28.000000 5.546175E+01
-4.000000 26.000000 5.193294E+01
-4.000000 24.000000 5.475298E+01
-4.000000 22.000000 5.337198E+01
-4.000000 20.000000 5.158615E+01
-4.000000 18.000000 3.955896E+01
-4.000000 16.000000 1.376666E+01
-4.000000 14.000000 -1.636252E+01
-4.000000 12.000000 -3.628578E+01
-4.000000 10.000000 -3.593871E+01
-4.000000 8.000000 -7.755293E+00
-4.000000 6.000000 1.380437E+01
-4.000000 4.000000 1.193096E+01
-4.000000 2.000000 -4.802242E+00
-4.000000 0.000000 -1.540169E+01
-4.000000 -2.000000 -1.191757E+01
-4.000000 -4.000000 1.205666E+00
-4.000000 -6.000000 1.400379E+01
-4.000000 -8.000000 1.910083E+01
-4.000000 -10.000000 1.662886E+01
-4.000000 -12.000000 9.632475E+00
-4.000000 -14.000000 5.068800E+00
-4.000000 -16.000000 4.996807E+00
-4.000000 -18.000000 9.861382E+00
-4.000000 -20.000000 1.815643E+01
-4.000000 -22.000000 2.678971E+01
-4.000000 -24.000000 3.081695E+01
-4.000000 -26.000000 2.742056E+01
-4.000000 -28.000000 1.995072E+01
-4.000000 -30.000000 1.481825E+01
-4.000000 -32.000000 1.374508E+01
-4.000000 -34.000000 1.261739E+01
-4.000000 -36.000000 8.749809E+00
-4.000000 -38.000000 3.323279E+00
-4.000000 -40.000000 -2.209807E+00
-2.000000 40.000000 -2.935902E+01
-2.000000 38.000000 -1.422794E+01
-2.000000 36.000000 1.194448E+01
-2.000000 34.000000 4.445836E+01
-2.000000 32.000000 5.931615E+01
-2.000000 30.000000 5.577888E+01
-2.000000 28.000000 4.686820E+01
-2.000000 26.000000 3.931327E+01
-2.000000 24.000000 3.718876E+01
-2.000000 22.000000 3.275187E+01
-2.000000 20.000000 2.944613E+01
-2.000000 18.000000 2.193621E+01
-2.000000 16.000000 7.472696E+00
-2.000000 14.000000 -6.768296E+00
-2.000000 12.000000 -8.963808E+00
-2.000000 10.000000 6.606645E+00
-2.000000 8.000000 3.282728E+01
-2.000000 6.000000 4.284537E+01
-2.000000 4.000000 2.152592E+01
-2.000000 2.000000 -1.116276E+01
-2.000000 0.000000 -3.131754E+01
-2.000000 -2.000000 -3.341647E+01
-2.000000 -4.000000 -2.197837E+01
-2.000000 -6.000000 -7.305973E+00
-2.000000 -8.000000 3.782648E+00
-2.000000 -10.000000 8.769925E+00
-2.000000 -12.000000 6.151117E+00
-2.000000 -14.000000 3.456449E+00
-2.000000 -16.000000 4.007244E+00
-2.000000 -18.000000 9.312519E+00
-2.000000 -20.000000 1.839385E+01
-2.000000 -22.000000 2.893747E+01
-2.000000 -24.000000 3.484152E+01
-2.000000 -26.000000 3.434737E+01
-2.000000 -28.000000 2.651093E+01
-2.000000 -30.000000 1.759969E+01
-2.000000 -32.000000 1.217869E+01
-2.000000 -34.000000 8.532810E+00
-2.000000 -36.000000 4.388014E+00
-2.000000 -38.000000 -8.728743E-01
-2.000000 -40.000000 -6.775491E+00
0.000000 40.000000 -2.686251E+01
0.000000 38.000000 -1.310742E+01
0.000000 36.000000 9.480927E+00
0.000000 34.000000 3.566121E+01
0.000000 32.000000 4.535394E+01
0.000000 30.000000 3.828095E+01
0.000000 28.000000 2.778183E+01
0.000000 26.000000 1.940539E+01
0.000000 24.000000 1.320341E+01
0.000000 22.000000 6.050681E+00
0.000000 20.000000 3.510898E+00
0.000000 18.000000 3.893173E+00
0.000000 16.000000 2.424812E+00
0.000000 14.000000 5.216690E+00
0.000000 12.000000 2.216205E+01
0.000000 10.000000 5.424776E+01
0.000000 8.000000 7.926204E+01
0.000000 6.000000 7.850418E+01
0.000000 4.000000 3.842965E+01
0.000000 2.000000 -9.479757E+00
0.000000 0.000000 -3.900931E+01
0.000000 -2.000000 -4.268520E+01
0.000000 -4.000000 -3.288283E+01
0.000000 -6.000000 -1.859725E+01
0.000000 -8.000000 -4.304821E+00
0.000000 -10.000000 4.456277E+00
0.000000 -12.000000 4.403744E+00
0.000000 -14.000000 3.017059E+00
0.000000 -16.000000 2.404582E+00
0.000000 -18.000000 6.257177E+00
0.000000 -20.000000 1.414844E+01
0.000000 -22.000000 2.517622E+01
0.000000 -24.000000 3.362097E+01
0.000000 -26.000000 3.541663E+01
0.000000 -28.000000 2.690696E+01
0.000000 -30.000000 1.604105E+01
0.000000 -32.000000 8.768713E+00
0.000000 -34.000000 4.215259E+00
0.000000 -36.000000 1.026530E-01
0.000000 -38.000000 -5.225206E+00
0.000000 -40.000000 -1.096687E+01
2.000000 40.000000 -2.376018E+01
2.000000 38.000000 -1.276358E+01
2.000000 36.000000 5.077845E+00
2.000000 34.000000 2.201517E+01
2.000000 32.000000 2.427000E+01
2.000000 30.000000 1.477329E+01
2.000000 28.000000 4.639550E+00
2.000000 26.000000 -3.289030E+00
2.000000 24.000000 -1.182208E+01
2.000000 22.000000 -1.994582E+01
2.000000 20.000000 -2.164359E+01
2.000000 18.000000 -1.487421E+01
2.000000 16.000000 -5.631566E+00
2.000000 14.000000 9.838390E+00
2.000000 12.000000 4.085711E+01
2.000000 10.000000 8.587584E+01
2.000000 8.000000 1.137080E+02
2.000000 6.000000 1.098528E+02
2.000000 4.000000 5.990725E+01
2.000000 2.000000 1.850997E+00
2.000000 0.000000 -3.366026E+01
2.000000 -2.000000 -3.670948E+01
2.000000 -4.000000 -2.741486E+01
2.000000 -6.000000 -1.389841E+01
2.000000 -8.000000 3.648510E-01
2.000000 -10.000000 9.613942E+00
2.000000 -12.000000 1.004016E+01
2.000000 -14.000000 7.875635E+00
2.000000 -16.000000 4.295765E+00
2.000000 -18.000000 3.879398E+00
2.000000 -20.000000 7.070982E+00
2.000000 -22.000000 1.571861E+01
2.000000 -24.000000 2.509025E+01
2.000000 -26.000000 2.587708E+01
2.000000 -28.000000 1.786287E+01
2.000000 -30.000000 9.104406E+00
2.000000 -32.000000 2.693306E+00
2.000000 -34.000000 -3.550661E-01
2.000000 -36.000000 -3.478268E+00
2.000000 -38.000000 -8.875860E+00
2.000000 -40.000000 -1.327892E+01
4.000000 40.000000 -2.172359E+01
4.000000 38.000000 -1.354785E+01
4.000000 36.000000 9.388733E-02
4.000000 34.000000 8.984134E+00
4.000000 32.000000 3.989798E+00
4.000000 30.000000 -7.210510E+00
4.000000 28.000000 -1.515550E+01
4.000000 26.000000 -2.181194E+01
4.000000 24.000000 -3.172318E+01
4.000000 22.000000 -4.026430E+01
4.000000 20.000000 -4.201079E+01
4.000000 18.000000 -3.249704E+01
4.000000 16.000000 -1.745858E+01
4.000000 14.000000 2.423648E+00
4.000000 12.000000 3.700223E+01
4.000000 10.000000 8.719358E+01
4.000000 8.000000 1.213625E+02
4.000000 6.000000 1.234962E+02
4.000000 4.000000 7.802888E+01
4.000000 2.000000 1.978167E+01
4.000000 0.000000 -1.620860E+01
4.000000 -2.000000 -1.869105E+01
4.000000 -4.000000 -7.502913E+00
4.000000 -6.000000 6.337975E+00
4.000000 -8.000000 1.813420E+01
4.000000 -10.000000 2.498575E+01
4.000000 -12.000000 2.470304E+01
4.000000 -14.000000 1.967809E+01
4.000000 -16.000000 1.385383E+01
4.000000 -18.000000 7.843597E+00
4.000000 -20.000000 3.474957E+00
4.000000 -22.000000 5.671350E+00
4.000000 -24.000000 1.118979E+01
4.000000 -26.000000 9.489389E+00
4.000000 -28.000000 3.503379E+00
4.000000 -30.000000 -1.987325E+00
4.000000 -32.000000 -6.488375E+00
4.000000 -34.000000 -7.279987E+00
4.000000 -36.000000 -8.358538E+00
4.000000 -38.000000 -1.129417E+01
4.000000 -40.000000 -1.206238E+01
6.000000 40.000000 -2.126705E+01
6.000000 38.000000 -1.544659E+01
6.000000 36.000000 -5.681814E+00
6.000000 34.000000 -2.162855E+00
6.000000 32.000000 -1.147674E+01
6.000000 30.000000 -2.286689E+01
6.000000 28.000000 -2.674099E+01
6.000000 26.000000 -3.057990E+01
6.000000 24.000000 -4.099193E+01
6.000000 22.000000 -4.899292E+01
6.000000 20.000000 -5.048684E+01
6.000000 18.000000 -4.097058E+01
6.000000 16.000000 -2.678224E+01
6.000000 14.000000 -1.286832E+01
6.000000 12.000000 1.384822E+01
6.000000 10.000000 5.995210E+01
6.000000 8.000000 1.001695E+02
6.000000 6.000000 1.133232E+02
6.000000 4.000000 8.229759E+01
6.000000 2.000000 3.623564E+01
6.000000 0.000000 7.780305E+00
6.000000 -2.000000 7.518700E+00
6.000000 -4.000000 2.129725E+01
6.000000 -6.000000 3.432526E+01
6.000000 -8.000000 3.933729E+01
6.000000 -10.000000 4.065002E+01
6.000000 -12.000000 4.004614E+01
6.000000 -14.000000 3.494461E+01
6.000000 -16.000000 2.812069E+01
6.000000 -18.000000 1.847874E+01
6.000000 -20.000000 7.284263E+00
6.000000 -22.000000 -5.573940E-02
6.000000 -24.000000 -2.494137E+00
6.000000 -26.000000 -5.590323E+00
6.000000 -28.000000 -8.943901E+00
6.000000 -30.000000 -1.278115E+01
6.000000 -32.000000 -1.616821E+01
6.000000 -34.000000 -1.550740E+01
6.000000 -36.000000 -1.333984E+01
6.000000 -38.000000 -1.121036E+01
6.000000 -40.000000 -7.849539E+00
8.000000 40.000000 -2.180261E+01
8.000000 38.000000 -1.819682E+01
8.000000 36.000000 -1.322264E+01
8.000000 34.000000 -1.339009E+01
8.000000 32.000000 -2.164714E+01
8.000000 30.000000 -2.871393E+01
8.000000 28.000000 -2.844872E+01
8.000000 26.000000 -2.926816E+01
8.000000 24.000000 -3.861476E+01
8.000000 22.000000 -4.328724E+01
8.000000 20.000000 -4.202085E+01
8.000000 18.000000 -3.396360E+01
8.000000 16.000000 -2.856717E+01
8.000000 14.000000 -2.833188E+01
8.000000 12.000000 -1.643151E+01
8.000000 10.000000 1.855039E+01
8.000000 8.000000 6.288473E+01
8.000000 6.000000 8.964183E+01
8.000000 4.000000 7.707022E+01
8.000000 2.000000 4.861880E+01
8.000000 0.000000 3.046676E+01
8.000000 -2.000000 3.175846E+01
8.000000 -4.000000 4.655377E+01
8.000000 -6.000000 5.595079E+01
8.000000 -8.000000 5.025862E+01
8.000000 -10.000000 4.382913E+01
8.000000 -12.000000 4.376766E+01
8.000000 -14.000000 4.413041E+01
8.000000 -16.000000 3.957152E+01
8.000000 -18.000000 3.092284E+01
8.000000 -20.000000 1.604004E+01
8.000000 -22.000000 8.691654E-01
8.000000 -24.000000 -9.917349E+00
8.000000 -26.000000 -1.407393E+01
8.000000 -28.000000 -1.411770E+01
8.000000 -30.000000 -1.748730E+01
8.000000 -32.000000 -2.132063E+01
8.000000 -34.000000 -1.954061E+01
8.000000 -36.000000 -1.269866E+01
8.000000 -38.000000 -7.489454E+00
8.000000 -40.000000 -3.980831E+00
10.000000 40.000000 -2.351003E+01
10.000000 38.000000 -2.173440E+01
10.000000 36.000000 -2.064647E+01
10.000000 34.000000 -2.218961E+01
10.000000 32.000000 -2.555611E+01
10.000000 30.000000 -2.483415E+01
10.000000 28.000000 -2.026560E+01
10.000000 26.000000 -2.002281E+01
10.000000 24.000000 -2.743932E+01
10.000000 22.000000 -2.718900E+01
10.000000 20.000000 -2.178367E+01
10.000000 18.000000 -1.763131E+01
10.000000 16.000000 -2.402737E+01
10.000000 14.000000 -3.710099E+01
10.000000 12.000000 -3.962336E+01
10.000000 10.000000 -1.695559E+01
10.000000 8.000000 2.908519E+01
10.000000 6.000000 6.618260E+01
10.000000 4.000000 7.106306E+01
10.000000 2.000000 5.559158E+01
10.000000 0.000000 4.464249E+01
10.000000 -2.000000 4.789558E+01
10.000000 -4.000000 5.912710E+01
10.000000 -6.000000 5.928469E+01
10.000000 -8.000000 4.306183E+01
10.000000 -10.000000 2.742382E+01
10.000000 -12.000000 2.749874E+01
10.000000 -14.000000 3.704230E+01
10.000000 -16.000000 4.236848E+01
10.000000 -18.000000 4.032603E+01
10.000000 -20.000000 2.680713E+01
10.000000 -22.000000 8.508993E+00
10.000000 -24.000000 -7.257835E+00
10.000000 -26.000000 -1.178419E+01
10.000000 -28.000000 -1.041985E+01
10.000000 -30.000000 -1.444154E+01
10.000000 -32.000000 -1.732846E+01
10.000000 -34.000000 -1.429638E+01
10.000000 -36.000000 -5.367172E+00
10.000000 -38.000000 -1.891043E+00
10.000000 -40.000000 -2.465716E+00
12.000000 40.000000 -2.658190E+01
12.000000 38.000000 -2.550538E+01
12.000000 36.000000 -2.523810E+01
12.000000 34.000000 -2.542356E+01
12.000000 32.000000 -2.286506E+01
12.000000 30.000000 -1.397147E+01
12.000000 28.000000 -3.928012E+00
12.000000 26.000000 -3.008828E+00
12.000000 24.000000 -7.649747E+00
12.000000 22.000000 -2.842796E+00
12.000000 20.000000 4.920504E+00
12.000000 18.000000 1.887979E+00
12.000000 16.000000 -1.487999E+01
12.000000 14.000000 -3.777760E+01
12.000000 12.000000 -5.228224E+01
12.000000 10.000000 -4.028338E+01
12.000000 8.000000 1.865724E+00
12.000000 6.000000 4.171941E+01
12.000000 4.000000 5.720685E+01
12.000000 2.000000 5.045039E+01
12.000000 0.000000 4.403275E+01
12.000000 -2.000000 4.808434E+01
12.000000 -4.000000 5.346972E+01
12.000000 -6.000000 4.421594E+01
12.000000 -8.000000 2.033905E+01
12.000000 -10.000000 -3.167978E+00
12.000000 -12.000000 -8.376331E-01
12.000000 -14.000000 2.038449E+01
12.000000 -16.000000 4.210038E+01
12.000000 -18.000000 5.016620E+01
12.000000 -20.000000 4.108076E+01
12.000000 -22.000000 2.266418E+01
12.000000 -24.000000 5.606039E+00
12.000000 -26.000000 2.888622E-01
12.000000 -28.000000 -9.401307E-01
12.000000 -30.000000 -5.956767E+00
12.000000 -32.000000 -4.178526E+00
12.000000 -34.000000 -5.715043E-01
12.000000 -36.000000 3.905123E+00
12.000000 -38.000000 1.960546E+00
12.000000 -40.000000 -3.410733E+00
14.000000 40.000000 -2.941683E+01
14.000000 38.000000 -2.824137E+01
14.000000 36.000000 -2.734185E+01
14.000000 34.000000 -2.481752E+01
14.000000 32.000000 -1.638760E+01
14.000000 30.000000 -4.560595E-01
14.000000 28.000000 1.551318E+01
14.000000 26.000000 2.068250E+01
14.000000 24.000000 2.331519E+01
14.000000 22.000000 3.005687E+01
14.000000 20.000000 3.444404E+01
14.000000 18.000000 2.171545E+01
14.000000 16.000000 -3.525873E+00
14.000000 14.000000 -3.432064E+01
14.000000 12.000000 -5.821377E+01
14.000000 10.000000 -5.710290E+01
14.000000 8.000000 -2.630914E+01
14.000000 6.000000 8.205857E+00
14.000000 4.000000 2.852866E+01
14.000000 2.000000 2.999042E+01
14.000000 0.000000 2.657440E+01
14.000000 -2.000000 2.915680E+01
14.000000 -4.000000 2.976009E+01
14.000000 -6.000000 1.732653E+01
14.000000 -8.000000 -8.537745E+00
14.000000 -10.000000 -3.437744E+01
14.000000 -12.000000 -2.415629E+01
14.000000 -14.000000 1.147457E+01
14.000000 -16.000000 4.949894E+01
14.000000 -18.000000 6.720181E+01
14.000000 -20.000000 6.171952E+01
14.000000 -22.000000 4.240766E+01
14.000000 -24.000000 2.281326E+01
14.000000 -26.000000 1.354565E+01
14.000000 -28.000000 9.611024E+00
14.000000 -30.000000 6.034908E+00
14.000000 -32.000000 1.161084E+01
14.000000 -34.000000 1.372918E+01
14.000000 -36.000000 1.068160E+01
14.000000 -38.000000 2.635384E+00
14.000000 -40.000000 -6.351754E+00
16.000000 40.000000 -3.074323E+01
16.000000 38.000000 -2.923655E+01
16.000000 36.000000 -2.761115E+01
16.000000 34.000000 -2.263758E+01
16.000000 32.000000 -9.683139E+00
16.000000 30.000000 1.152365E+01
16.000000 28.000000 3.321289E+01
16.000000 26.000000 4.564203E+01
16.000000 24.000000 5.713369E+01
16.000000 22.000000 6.132331E+01
16.000000 20.000000 5.885420E+01
16.000000 18.000000 3.737564E+01
16.000000 16.000000 6.741594E+00
16.000000 14.000000 -2.889160E+01
16.000000 12.000000 -6.061924E+01
16.000000 10.000000 -7.316329E+01
16.000000 8.000000 -5.608272E+01
16.000000 6.000000 -2.932734E+01
16.000000 4.000000 -6.598878E+00
16.000000 2.000000 1.164572E+00
16.000000 0.000000 -4.487152E-01
16.000000 -2.000000 2.934170E-01
16.000000 -4.000000 -1.545677E+00
16.000000 -6.000000 -1.274621E+01
16.000000 -8.000000 -3.413121E+01
16.000000 -10.000000 -5.353445E+01
16.000000 -12.000000 -3.107087E+01
16.000000 -14.000000 1.877402E+01
16.000000 -16.000000 6.821555E+01
16.000000 -18.000000 9.102431E+01
16.000000 -20.000000 8.520345E+01
16.000000 -22.000000 6.295977E+01
16.000000 -24.000000 3.766616E+01
16.000000 -26.000000 2.193350E+01
16.000000 -28.000000 1.677332E+01
16.000000 -30.000000 1.613938E+01
16.000000 -32.000000 2.197656E+01
16.000000 -34.000000 2.129851E+01
16.000000 -36.000000 1.253135E+01
16.000000 -38.000000 5.399103E-01
16.000000 -40.000000 -1.015059E+01
18.000000 40.000000 -3.070931E+01
18.000000 38.000000 -2.816443E+01
18.000000 36.000000 -2.527296E+01
18.000000 34.000000 -1.928805E+01
18.000000 32.000000 -5.118821E+00
18.000000 30.000000 1.883618E+01
18.000000 28.000000 4.541434E+01
18.000000 26.000000 6.239619E+01
18.000000 24.000000 7.637601E+01
18.000000 22.000000 7.481597E+01
18.000000 20.000000 6.707638E+01
18.000000 18.000000 4.231081E+01
18.000000 16.000000 1.108789E+01
18.000000 14.000000 -2.466027E+01
18.000000 12.000000 -6.012770E+01
18.000000 10.000000 -8.340100E+01
18.000000 8.000000 -7.703147E+01
18.000000 6.000000 -5.587225E+01
18.000000 4.000000 -2.997508E+01
18.000000 2.000000 -1.845461E+01
18.000000 0.000000 -2.058513E+01
18.000000 -2.000000 -2.443360E+01
18.000000 -4.000000 -2.969885E+01
18.000000 -6.000000 -3.990392E+01
18.000000 -8.000000 -5.253184E+01
18.000000 -10.000000 -5.615632E+01
18.000000 -12.000000 -1.888337E+01
18.000000 -14.000000 4.147668E+01
18.000000 -16.000000 9.474573E+01
18.000000 -18.000000 1.155762E+02
18.000000 -20.000000 1.038662E+02
18.000000 -22.000000 7.552347E+01
18.000000 -24.000000 4.466417E+01
18.000000 -26.000000 2.488502E+01
18.000000 -28.000000 1.862698E+01
18.000000 -30.000000 1.805331E+01
18.000000 -32.000000 2.114248E+01
18.000000 -34.000000 1.839307E+01
18.000000 -36.000000 8.412160E+00
18.000000 -38.000000 -3.244073E+00
18.000000 -40.000000 -1.284473E+01
20.000000 40.000000 -2.959481E+01
20.000000 38.000000 -2.557057E+01
20.000000 36.000000 -2.127588E+01
20.000000 34.000000 -1.556026E+01
20.000000 32.000000 -2.824614E+00
20.000000 30.000000 2.030480E+01
20.000000 28.000000 4.683205E+01
20.000000 26.000000 6.137888E+01
20.000000 24.000000 6.948733E+01
20.000000 22.000000 6.187030E+01
20.000000 20.000000 5.205394E+01
20.000000 18.000000 3.260819E+01
20.000000 16.000000 9.375883E+00
20.000000 14.000000 -1.979932E+01
20.000000 12.000000 -5.288684E+01
20.000000 10.000000 -7.956665E+01
20.000000 8.000000 -7.813412E+01
20.000000 6.000000 -5.912084E+01
20.000000 4.000000 -2.987201E+01
20.000000 2.000000 -1.589141E+01
20.000000 0.000000 -1.994312E+01
20.000000 -2.000000 -3.351376E+01
20.000000 -4.000000 -4.947473E+01
20.000000 -6.000000 -6.122307E+01
20.000000 -8.000000 -6.297501E+01
20.000000 -10.000000 -4.757032E+01
20.000000 -12.000000 5.157725E+00
20.000000 -14.000000 7.340755E+01
20.000000 -16.000000 1.241246E+02
20.000000 -18.000000 1.341342E+02
20.000000 -20.000000 1.096171E+02
20.000000 -22.000000 7.304169E+01
20.000000 -24.000000 4.004082E+01
20.000000 -26.000000 2.125672E+01
20.000000 -28.000000 1.408796E+01
20.000000 -30.000000 1.065736E+01
20.000000 -32.000000 9.320735E+00
20.000000 -34.000000 6.465954E+00
20.000000 -36.000000 7.895797E-03
20.000000 -38.000000 -7.589126E+00
20.000000 -40.000000 -1.384291E+01
22.000000 40.000000 -2.827657E+01
22.000000 38.000000 -2.381259E+01
22.000000 36.000000 -1.908821E+01
22.000000 34.000000 -1.362340E+01
22.000000 32.000000 -2.562455E+00
22.000000 30.000000 1.658260E+01
22.000000 28.000000 3.632235E+01
22.000000 26.000000 4.282166E+01
22.000000 24.000000 4.030665E+01
22.000000 22.000000 2.927049E+01
22.000000 20.000000 2.173228E+01
22.000000 18.000000 1.539226E+01
22.000000 16.000000 7.339576E+00
22.000000 14.000000 -9.477159E+00
22.000000 12.000000 -3.537323E+01
22.000000 10.000000 -5.926675E+01
22.000000 8.000000 -5.796505E+01
22.000000 6.000000 -3.794320E+01
22.000000 4.000000 -8.164156E+00
22.000000 2.000000 3.326486E+00
22.000000 0.000000 -6.218559E+00
22.000000 -2.000000 -3.252509E+01
22.000000 -4.000000 -6.111553E+01
22.000000 -6.000000 -7.456938E+01
22.000000 -8.000000 -6.651133E+01
22.000000 -10.000000 -3.564785E+01
22.000000 -12.000000 3.042733E+01
22.000000 -14.000000 1.050893E+02
22.000000 -16.000000 1.492282E+02
22.000000 -18.000000 1.421211E+02
22.000000 -20.000000 1.002674E+02
22.000000 -22.000000 5.582719E+01
22.000000 -24.000000 2.520061E+01
22.000000 -26.000000 1.137416E+01
22.000000 -28.000000 4.236716E+00
22.000000 -30.000000 -2.483553E+00
22.000000 -32.000000 -7.793631E+00
22.000000 -34.000000 -8.947170E+00
22.000000 -36.000000 -9.310707E+00
22.000000 -38.000000 -1.171160E+01
22.000000 -40.000000 -1.416940E+01
24.000000 40.000000 -2.902292E+01
24.000000 38.000000 -2.607597E+01
24.000000 36.000000 -2.139504E+01
24.000000 34.000000 -1.509911E+01
24.000000 32.000000 -4.658020E+00
24.000000 30.000000 9.576550E+00
24.000000 28.000000 2.024370E+01
24.000000 26.000000 1.769916E+01
24.000000 24.000000 5.200819E+00
24.000000 22.000000 -5.039226E+00
24.000000 20.000000 -6.329680E+00
24.000000 18.000000 1.788544E+00
24.000000 16.000000 1.005026E+01
24.000000 14.000000 7.368300E+00
24.000000 12.000000 -1.122547E+01
24.000000 10.000000 -3.114348E+01
24.000000 8.000000 -2.783455E+01
24.000000 6.000000 -5.225760E+00
24.000000 4.000000 2.012033E+01
24.000000 2.000000 2.228035E+01
24.000000 0.000000 3.702765E+00
24.000000 -2.000000 -3.185661E+01
24.000000 -4.000000 -6.512092E+01
24.000000 -6.000000 -7.693090E+01
24.000000 -8.000000 -6.222851E+01
24.000000 -10.000000 -2.261028E+01
24.000000 -12.000000 5.124232E+01
24.000000 -14.000000 1.273792E+02
24.000000 -16.000000 1.615083E+02
24.000000 -18.000000 1.358152E+02
24.000000 -20.000000 7.768851E+01
24.000000 -22.000000 2.882649E+01
24.000000 -24.000000 4.927886E+00
24.000000 -26.000000 -1.147535E+00
24.000000 -28.000000 -7.677147E+00
24.000000 -30.000000 -1.736627E+01
24.000000 -32.000000 -2.438942E+01
24.000000 -34.000000 -2.177215E+01
24.000000 -36.000000 -1.642748E+01
24.000000 -38.000000 -1.399066E+01
24.000000 -40.000000 -1.455408E+01
26.000000 40.000000 -3.294821E+01
26.000000 38.000000 -3.310076E+01
26.000000 36.000000 -2.841038E+01
26.000000 34.000000 -2.034919E+01
26.000000 32.000000 -8.869614E+00
26.000000 30.000000 1.405933E+00
26.000000 28.000000 4.317546E+00
26.000000 26.000000 -4.573813E+00
26.000000 24.000000 -2.123718E+01
26.000000 22.000000 -2.635298E+01
26.000000 20.000000 -1.925478E+01
26.000000 18.000000 6.322523E-01
26.000000 16.000000 2.025143E+01
26.000000 14.000000 2.651659E+01
26.000000 12.000000 1.237329E+01
26.000000 10.000000 -5.150851E+00
26.000000 8.000000 -2.578042E+00
26.000000 6.000000 1.806288E+01
26.000000 4.000000 3.386428E+01
26.000000 2.000000 2.487775E+01
26.000000 0.000000 -2.837944E-01
26.000000 -2.000000 -3.301583E+01
26.000000 -4.000000 -5.797717E+01
26.000000 -6.000000 -6.359769E+01
26.000000 -8.000000 -4.598698E+01
26.000000 -10.000000 -4.425453E+00
26.000000 -12.000000 6.641657E+01
26.000000 -14.000000 1.348109E+02
26.000000 -16.000000 1.563635E+02
26.000000 -18.000000 1.147703E+02
26.000000 -20.000000 4.617588E+01
26.000000 -22.000000 -2.253904E+00
26.000000 -24.000000 -1.721702E+01
26.000000 -26.000000 -1.430326E+01
26.000000 -28.000000 -1.909389E+01
26.000000 -30.000000 -3.058518E+01
26.000000 -32.000000 -3.633572E+01
26.000000 -34.000000 -2.820064E+01
26.000000 -36.000000 -1.938648E+01
26.000000 -38.000000 -1.382444E+01
26.000000 -40.000000 -1.563251E+01
28.000000 40.000000 -3.876318E+01
28.000000 38.000000 -4.252237E+01
28.000000 36.000000 -3.869621E+01
28.000000 34.000000 -2.951297E+01
28.000000 32.000000 -1.650304E+01
28.000000 30.000000 -8.158035E+00
28.000000 28.000000 -8.595924E+00
28.000000 26.000000 -1.872572E+01
28.000000 24.000000 -3.287627E+01
28.000000 22.000000 -3.166177E+01
28.000000 20.000000 -1.566217E+01
28.000000 18.000000 1.277908E+01
28.000000 16.000000 3.779425E+01
28.000000 14.000000 4.528571E+01
28.000000 12.000000 3.079277E+01
28.000000 10.000000 1.176277E+01
28.000000 8.000000 9.188287E+00
28.000000 6.000000 2.228227E+01
28.000000 4.000000 2.679493E+01
28.000000 2.000000 9.965431E+00
28.000000 0.000000 -1.535150E+01
28.000000 -2.000000 -3.326497E+01
28.000000 -4.000000 -4.032979E+01
28.000000 -6.000000 -3.855948E+01
28.000000 -8.000000 -2.160814E+01
28.000000 -10.000000 1.587988E+01
28.000000 -12.000000 7.396090E+01
28.000000 -14.000000 1.259793E+02
28.000000 -16.000000 1.327270E+02
28.000000 -18.000000 8.330477E+01
28.000000 -20.000000 1.467224E+01
28.000000 -22.000000 -2.936639E+01
28.000000 -24.000000 -3.723291E+01
28.000000 -26.000000 -2.855393E+01
28.000000 -28.000000 -2.981660E+01
28.000000 -30.000000 -3.839650E+01
28.000000 -32.000000 -4.041544E+01
28.000000 -34.000000 -2.809421E+01
28.000000 -36.000000 -1.818392E+01
28.000000 -38.000000 -1.373520E+01
28.000000 -40.000000 -1.817698E+01
30.000000 40.000000 -4.566384E+01
30.000000 38.000000 -5.235916E+01
30.000000 36.000000 -5.045148E+01
30.000000 34.000000 -4.121766E+01
30.000000 32.000000 -2.655342E+01
30.000000 30.000000 -1.739519E+01
30.000000 28.000000 -1.589298E+01
30.000000 26.000000 -2.288502E+01
30.000000 24.000000 -3.211144E+01
30.000000 22.000000 -2.699653E+01
30.000000 20.000000 -3.956226E+00
30.000000 18.000000 3.025696E+01
30.000000 16.000000 5.599589E+01
30.000000 14.000000 6.015203E+01
30.000000 12.000000 4.074383E+01
30.000000 10.000000 1.641254E+01
30.000000 8.000000 6.892530E+00
30.000000 6.000000 1.119702E+01
30.000000 4.000000 9.721733E+00
30.000000 2.000000 -6.623307E+00
30.000000 0.000000 -2.247853E+01
30.000000 -2.000000 -2.624676E+01
30.000000 -4.000000 -2.120156E+01
30.000000 -6.000000 -1.393637E+01
30.000000 -8.000000 -8.945560E-01
30.000000 -10.000000 2.591194E+01
30.000000 -12.000000 6.744947E+01
30.000000 -14.000000 1.016128E+02
30.000000 -16.000000 9.588116E+01
30.000000 -18.000000 4.811301E+01
30.000000 -20.000000 -1.080943E+01
30.000000 -22.000000 -4.667889E+01
30.000000 -24.000000 -5.081445E+01
30.000000 -26.000000 -4.136600E+01
30.000000 -28.000000 -3.912498E+01
30.000000 -30.000000 -4.072663E+01
30.000000 -32.000000 -3.674666E+01
30.000000 -34.000000 -2.242258E+01
30.000000 -36.000000 -1.482594E+01
30.000000 -38.000000 -1.516716E+01
30.000000 -40.000000 -2.205011E+01
32.000000 40.000000 -5.369630E+01
32.000000 38.000000 -6.134036E+01
32.000000 36.000000 -6.148600E+01
32.000000 34.000000 -5.239800E+01
32.000000 32.000000 -3.571200E+01
32.000000 30.000000 -2.362094E+01
32.000000 28.000000 -1.796972E+01
32.000000 26.000000 -2.129090E+01
32.000000 24.000000 -2.824518E+01
32.000000 22.000000 -2.275737E+01
32.000000 20.000000 2.545619E+00
32.000000 18.000000 3.977319E+01
32.000000 16.000000 6.582711E+01
32.000000 14.000000 6.956858E+01
32.000000 12.000000 4.753599E+01
32.000000 10.000000 1.945282E+01
32.000000 8.000000 3.585001E+00
32.000000 6.000000 7.027006E-01
32.000000 4.000000 -3.439820E+00
32.000000 2.000000 -1.579380E+01
32.000000 0.000000 -2.111084E+01
32.000000 -2.000000 -1.593613E+01
32.000000 -4.000000 -5.818558E+00
32.000000 -6.000000 2.197858E+00
32.000000 -8.000000 8.794232E+00
32.000000 -10.000000 2.202452E+01
32.000000 -12.000000 4.707380E+01
32.000000 -14.000000 6.667817E+01
32.000000 -16.000000 5.491078E+01
32.000000 -18.000000 1.516046E+01
32.000000 -20.000000 -2.900859E+01
32.000000 -22.000000 -5.464533E+01
32.000000 -24.000000 -5.700277E+01
32.000000 -26.000000 -4.928569E+01
32.000000 -28.000000 -4.565086E+01
32.000000 -30.000000 -4.036860E+01
32.000000 -32.000000 -2.919694E+01
32.000000 -34.000000 -1.359980E+01
32.000000 -36.000000 -1.119079E+01
32.000000 -38.000000 -1.703062E+01
32.000000 -40.000000 -2.619591E+01
34.000000 40.000000 -6.187172E+01
34.000000 38.000000 -6.883806E+01
34.000000 36.000000 -7.034666E+01
34.000000 34.000000 -6.173844E+01
34.000000 32.000000 -4.346657E+01
34.000000 30.000000 -2.776527E+01
34.000000 28.000000 -1.767577E+01
34.000000 26.000000 -1.852556E+01
34.000000 24.000000 -2.529056E+01
34.000000 22.000000 -2.291452E+01
34.000000 20.000000 -1.009447E+00
34.000000 18.000000 3.431387E+01
34.000000 16.000000 6.187491E+01
34.000000 14.000000 7.049481E+01
34.000000 12.000000 5.260393E+01
34.000000 10.000000 2.604922E+01
34.000000 8.000000 7.400442E+00
34.000000 6.000000 6.120682E-01
34.000000 4.000000 -6.829858E+00
34.000000 2.000000 -1.671461E+01
34.000000 0.000000 -1.818160E+01
34.000000 -2.000000 -8.618268E+00
34.000000 -4.000000 3.933845E+00
34.000000 -6.000000 7.974117E+00
34.000000 -8.000000 7.944995E+00
34.000000 -10.000000 9.696371E+00
34.000000 -12.000000 2.060117E+01
34.000000 -14.000000 2.997625E+01
34.000000 -16.000000 1.900948E+01
34.000000 -18.000000 -9.562525E+00
34.000000 -20.000000 -3.910626E+01
34.000000 -22.000000 -5.540353E+01
34.000000 -24.000000 -5.720940E+01
34.000000 -26.000000 -5.187189E+01
34.000000 -28.000000 -4.770402E+01
34.000000 -30.000000 -3.847132E+01
34.000000 -32.000000 -2.278376E+01
34.000000 -34.000000 -7.003213E+00
34.000000 -36.000000 -8.166085E+00
34.000000 -38.000000 -1.789261E+01
34.000000 -40.000000 -2.970628E+01
36.000000 40.000000 -6.835150E+01
36.000000 38.000000 -7.498027E+01
36.000000 36.000000 -7.788433E+01
36.000000 34.000000 -7.041857E+01
36.000000 32.000000 -5.140871E+01
36.000000 30.000000 -3.205327E+01
36.000000 28.000000 -1.747749E+01
36.000000 26.000000 -1.517663E+01
36.000000 24.000000 -2.193545E+01
36.000000 22.000000 -2.504102E+01
36.000000 20.000000 -1.010192E+01
36.000000 18.000000 1.807578E+01
36.000000 16.000000 4.550421E+01
36.000000 14.000000 5.999599E+01
36.000000 12.000000 4.956828E+01
36.000000 10.000000 2.784381E+01
36.000000 8.000000 9.937761E+00
36.000000 6.000000 1.965491E+00
36.000000 4.000000 -6.807679E+00
36.000000 2.000000 -1.531707E+01
36.000000 0.000000 -1.491426E+01
36.000000 -2.000000 -3.337850E+00
36.000000 -4.000000 8.873166E+00
36.000000 -6.000000 9.089082E+00
36.000000 -8.000000 3.192205E+00
36.000000 -10.000000 -4.446409E+00
36.000000 -12.000000 -3.198414E+00
36.000000 -14.000000 1.125629E+00
36.000000 -16.000000 -4.375587E+00
36.000000 -18.000000 -2.102353E+01
36.000000 -20.000000 -3.847152E+01
36.000000 -22.000000 -4.854021E+01
36.000000 -24.000000 -5.087668E+01
36.000000 -26.000000 -4.854881E+01
36.000000 -28.000000 -4.514340E+01
36.000000 -30.000000 -3.540148E+01
36.000000 -32.000000 -1.926453E+01
36.000000 -34.000000 -5.282395E+00
36.000000 -36.000000 -7.197380E+00
36.000000 -38.000000 -1.857184E+01
36.000000 -40.000000 -3.249910E+01
38.000000 40.000000 -7.108772E+01
38.000000 38.000000 -8.003493E+01
38.000000 36.000000 -8.577217E+01
38.000000 34.000000 -7.950963E+01
38.000000 32.000000 -5.905602E+01
38.000000 30.000000 -3.698684E+01
38.000000 28.000000 -1.903460E+01
38.000000 26.000000 -1.309751E+01
38.000000 24.000000 -1.956475E+01
38.000000 22.000000 -2.897718E+01
38.000000 20.000000 -2.407059E+01
38.000000 18.000000 -5.378941E+00
38.000000 16.000000 1.981243E+01
38.000000 14.000000 3.733720E+01
38.000000 12.000000 3.554811E+01
38.000000 10.000000 2.108396E+01
38.000000 8.000000 6.828360E+00
38.000000 6.000000 -7.609205E-01
38.000000 4.000000 -8.142134E+00
38.000000 2.000000 -1.510396E+01
38.000000 0.000000 -1.298029E+01
38.000000 -2.000000 -5.009670E-01
38.000000 -4.000000 1.006924E+01
38.000000 -6.000000 9.563916E+00
38.000000 -8.000000 1.818027E-01
38.000000 -10.000000 -1.311141E+01
38.000000 -12.000000 -1.678907E+01
38.000000 -14.000000 -1.445713E+01
38.000000 -16.000000 -1.329793E+01
38.000000 -18.000000 -1.889864E+01
38.000000 -20.000000 -2.659649E+01
38.000000 -22.000000 -3.277372E+01
38.000000 -24.000000 -3.666489E+01
38.000000 -26.000000 -3.827074E+01
38.000000 -28.000000 -3.777028E+01
38.000000 -30.000000 -3.040600E+01
38.000000 -32.000000 -1.678901E+01
38.000000 -34.000000 -6.129258E+00
38.000000 -36.000000 -1.002345E+01
38.000000 -38.000000 -2.217405E+01
38.000000 -40.000000 -3.549496E+01
40.000000 40.000000 -6.971912E+01
40.000000 38.000000 -8.291853E+01
40.000000 36.000000 -9.280159E+01
40.000000 34.000000 -8.868573E+01
40.000000 32.000000 -6.637169E+01
40.000000 30.000000 -4.120128E+01
40.000000 28.000000 -2.056197E+01
40.000000 26.000000 -1.256503E+01
40.000000 24.000000 -1.991060E+01
40.000000 22.000000 -3.602389E+01
40.000000 20.000000 -4.205065E+01
40.000000 18.000000 -3.387411E+01
40.000000 16.000000 -1.408340E+01
40.000000 14.000000 3.493523E+00
40.000000 12.000000 9.116988E+00
40.000000 10.000000 4.922790E+00
40.000000 8.000000 -8.345089E-01
40.000000 6.000000 -2.740120E+00
40.000000 4.000000 -6.356261E+00
40.000000 2.000000 -1.196982E+01
40.000000 0.000000 -1.097717E+01
40.000000 -2.000000 -4.560099E-01
40.000000 -4.000000 8.522623E+00
40.000000 -6.000000 9.234587E+00
40.000000 -8.000000 2.098605E+00
40.000000 -10.000000 -1.016794E+01
40.000000 -12.000000 -1.482061E+01
40.000000 -14.000000 -1.383628E+01
40.000000 -16.000000 -1.021987E+01
40.000000 -18.000000 -8.808674E+00
40.000000 -20.000000 -1.004832E+01
40.000000 -22.000000 -1.316117E+01
40.000000 -24.000000 -1.757154E+01
40.000000 -26.000000 -2.229278E+01
40.000000 -28.000000 -2.533824E+01
40.000000 -30.000000 -2.243700E+01
40.000000 -32.000000 -1.398145E+01
40.000000 -34.000000 -8.177671E+00
40.000000 -36.000000 -1.567796E+01
40.000000 -38.000000 -2.803124E+01
40.000000 -40.000000 -3.871638E+01
42.000000 40.000000 -6.520244E+01
42.000000 38.000000 -8.189798E+01
42.000000 36.000000 -9.643950E+01
42.000000 34.000000 -9.684668E+01
42.000000 32.000000 -7.387866E+01
42.000000 30.000000 -4.317979E+01
42.000000 28.000000 -1.836413E+01
42.000000 26.000000 -1.101385E+01
42.000000 24.000000 -2.208520E+01
42.000000 22.000000 -4.499196E+01
42.000000 20.000000 -5.902001E+01
42.000000 18.000000 -5.982832E+01
42.000000 16.000000 -4.859321E+01
42.000000 14.000000 -3.538252E+01
42.000000 12.000000 -2.578118E+01
42.000000 10.000000 -2.013749E+01
42.000000 8.000000 -1.352111E+01
42.000000 6.000000 -4.105121E+00
42.000000 4.000000 5.441513E-01
42.000000 2.000000 -1.843968E+00
42.000000 0.000000 -2.772912E+00
42.000000 -2.000000 2.859619E+00
42.000000 -4.000000 8.555547E+00
42.000000 -6.000000 1.027145E+01
42.000000 -8.000000 9.105061E+00
42.000000 -10.000000 3.610993E+00
42.000000 -12.000000 -5.294800E-03
42.000000 -14.000000 -1.100241E+00
42.000000 -16.000000 -2.874088E-01
42.000000 -18.000000 1.766974E+00
42.000000 -20.000000 2.921637E+00
42.000000 -22.000000 2.690478E+00
42.000000 -24.000000 4.553795E-01
42.000000 -26.000000 -4.577909E+00
42.000000 -28.000000 -1.003519E+01
42.000000 -30.000000 -1.203952E+01
42.000000 -32.000000 -1.047292E+01
42.000000 -34.000000 -1.087075E+01
42.000000 -36.000000 -2.098673E+01
42.000000 -38.000000 -3.217374E+01
42.000000 -40.000000 -4.097117E+01
44.000000 40.000000 -5.798839E+01
44.000000 38.000000 -7.668101E+01
44.000000 36.000000 -9.548729E+01
44.000000 34.000000 -1.009230E+02
44.000000 32.000000 -7.856515E+01
44.000000 30.000000 -4.335249E+01
44.000000 28.000000 -1.532359E+01
44.000000 26.000000 -9.544279E+00
44.000000 24.000000 -2.451465E+01
44.000000 22.000000 -5.037654E+01
44.000000 20.000000 -6.715263E+01
44.000000 18.000000 -7.227747E+01
44.000000 16.000000 -6.835782E+01
44.000000 14.000000 -6.348595E+01
44.000000 12.000000 -5.627831E+01
44.000000 10.000000 -4.741891E+01
44.000000 8.000000 -3.023593E+01
44.000000 6.000000 -8.670559E+00
44.000000 4.000000 8.062076E+00
44.000000 2.000000 1.336871E+01
44.000000 0.000000 1.364062E+01
44.000000 -2.000000 1.223744E+01
44.000000 -4.000000 1.133724E+01
44.000000 -6.000000 1.388994E+01
44.000000 -8.000000 1.831721E+01
44.000000 -10.000000 2.063124E+01
44.000000 -12.000000 1.830303E+01
44.000000 -14.000000 1.432386E+01
44.000000 -16.000000 1.087729E+01
44.000000 -18.000000 9.163509E+00
44.000000 -20.000000 9.752811E+00
44.000000 -22.000000 1.231419E+01
44.000000 -24.000000 1.395323E+01
44.000000 -26.000000 1.091080E+01
44.000000 -28.000000 4.597054E+00
44.000000 -30.000000 -1.838815E+00
44.000000 -32.000000 -6.518616E+00
44.000000 -34.000000 -1.231816E+01
44.000000 -36.000000 -2.363693E+01
44.000000 -38.000000 -3.328229E+01
44.000000 -40.000000 -4.123123E+01
46.000000 40.000000 -4.888186E+01
46.000000 38.000000 -6.794743E+01
46.000000 36.000000 -8.906039E+01
46.000000 34.000000 -9.803330E+01
46.000000 32.000000 -7.847722E+01
46.000000 30.000000 -4.321846E+01
46.000000 28.000000 -1.421713E+01
46.000000 26.000000 -8.202695E+00
46.000000 24.000000 -2.329447E+01
46.000000 22.000000 -4.594301E+01
46.000000 20.000000 -5.990180E+01
46.000000 18.000000 -6.285949E+01
46.000000 16.000000 -6.277161E+01
46.000000 14.000000 -6.591290E+01
46.000000 12.000000 -6.743395E+01
46.000000 10.000000 -6.381407E+01
46.000000 8.000000 -4.420014E+01
46.000000 6.000000 -1.724569E+01
46.000000 4.000000 9.313250E+00
46.000000 2.000000 2.165672E+01
