-22.000000 -34.000000 6.892315E+00
-22.000000 -36.000000 -7.260280E-01
-22.000000 -38.000000 -2.255895E+00
-22.000000 -40.000000 3.378142E+00
-20.000000 40.000000 3.207048E+00
-20.000000 38.000000 1.003119E+01
-20.000000 36.000000 1.507743E+01
-20.000000 34.000000 1.367219E+01
-20.000000 32.000000 1.232023E+00
-20.000000 30.000000 -4.456388E+00
-20.000000 28.000000 -6.725937E+00
-20.000000 26.000000 -3.235022E+00
-20.000000 24.000000 9.058876E-01
-20.000000 22.000000 -5.200401E+00
-20.000000 20.000000 -1.087212E+01
-20.000000 18.000000 -5.814056E+00
-20.000000 16.000000 -3.204786E+00
-20.000000 14.000000 -1.064893E+01
-20.000000 12.000000 -2.136201E+01
-20.000000 10.000000 -3.317059E+01
-20.000000 8.000000 -4.739095E+01
-20.000000 6.000000 -5.796488E+01
-20.000000 4.000000 -6.060081E+01
-20.000000 2.000000 -6.191010E+01
-20.000000 0.000000 -6.164589E+01
-20.000000 -2.000000 -5.526919E+01
-20.000000 -4.000000 -4.727942E+01
-20.000000 -6.000000 -3.832467E+01
-20.000000 -8.000000 -3.028085E+01
-20.000000 -10.000000 -2.429213E+01
-20.000000 -12.000000 -2.173556E+01
-20.000000 -14.000000 -2.416715E+01
-20.000000 -16.000000 -2.651522E+01
-20.000000 -18.000000 -2.744878E+01
-20.000000 -20.000000 -2.605469E+01
-20.000000 -22.000000 -1.714894E+01
-20.000000 -24.000000 -3.280144E-01
-20.000000 -26.000000 1.519332E+01
-20.000000 -28.000000 2.490730E+01
-20.000000 -30.000000 2.712754E+01
-20.000000 -32.000000 1.937374E+01
-20.000000 -34.000000 8.317213E+00
-20.000000 -36.000000 1.653976E+00
-20.000000 -38.000000 -1.807715E+00
-20.000000 -40.000000 1.717494E+00
-18.000000 40.000000 2.075857E+00
-18.000000 38.000000 9.113503E+00
-18.000000 36.000000 1.327134E+01
-18.000000 34.000000 1.099125E+01
-18.000000 32.000000 -1.376030E+00
-18.000000 30.000000 -7.795975E+00
-18.000000 28.000000 -1.148116E+01
-18.000000 26.000000 -1.004079E+01
-18.000000 24.000000 -9.210272E+00
-18.000000 22.000000 -1.649105E+01
-18.000000 20.000000 -2.322802E+01
-18.000000 18.000000 -1.771990E+01
-18.000000 16.000000 -1.288135E+01
-18.000000 14.000000 -1.702264E+01
-18.000000 12.000000 -2.232595E+01
-18.000000 10.000000 -2.738114E+01
-18.000000 8.000000 -3.492463E+01
-18.000000 6.000000 -4.053071E+01
-18.000000 4.000000 -4.325783E+01
-18.000000 2.000000 -4.777243E+01
-18.000000 0.000000 -5.085384E+01
-18.000000 -2.000000 -4.785991E+01
-18.000000 -4.000000 -4.169673E+01
-18.000000 -6.000000 -3.350490E+01
-18.000000 -8.000000 -2.643591E+01
-18.000000 -10.000000 -1.850440E+01
-18.000000 -12.000000 -1.230071E+01
-18.000000 -14.000000 -1.496370E+01
-18.000000 -16.000000 -1.991789E+01
-18.000000 -18.000000 -2.617754E+01
-18.000000 -20.000000 -3.002290E+01
-18.000000 -22.000000 -2.348547E+01
-18.000000 -24.000000 -6.845322E+00
-18.000000 -26.000000 9.895266E+00
-18.000000 -28.000000 1.986894E+01
-18.000000 -30.000000 2.100846E+01
-18.000000 -32.000000 1.526298E+01
-18.000000 -34.000000 8.004630E+00
-18.000000 -36.000000 3.167274E+00
-18.000000 -38.000000 -9.885373E-01
-18.000000 -40.000000 1.538984E+00
-16.000000 40.000000 4.321401E+00
-16.000000 38.000000 9.931821E+00
-16.000000 36.000000 1.038431E+01
-16.000000 34.000000 3.387060E+00
-16.000000 32.000000 -1.156341E+01
-16.000000 30.000000 -2.006688E+01
-16.000000 28.000000 -2.264987E+01
-16.000000 26.000000 -1.839567E+01
-16.000000 24.000000 -1.683181E+01
-16.000000 22.000000 -2.349461E+01
-16.000000 20.000000 -2.926386E+01
-16.000000 18.000000 -2.536737E+01
-16.000000 16.000000 -2.321874E+01
-16.000000 14.000000 -2.762483E+01
-16.000000 12.000000 -2.984247E+01
-16.000000 10.000000 -2.809497E+01
-16.000000 8.000000 -2.681649E+01
-16.000000 6.000000 -2.360563E+01
-16.000000 4.000000 -2.224133E+01
-16.000000 2.000000 -2.668344E+01
-16.000000 0.000000 -3.128248E+01
-16.000000 -2.000000 -3.190855E+01
-16.000000 -4.000000 -2.822704E+01
-16.000000 -6.000000 -2.129035E+01
-16.000000 -8.000000 -1.570869E+01
-16.000000 -10.000000 -7.673738E+00
-16.000000 -12.000000 -1.139467E+00
-16.000000 -14.000000 -5.642648E+00
-16.000000 -16.000000 -1.503371E+01
-16.000000 -18.000000 -2.633808E+01
-16.000000 -20.000000 -3.343760E+01
-16.000000 -22.000000 -2.756169E+01
-16.000000 -24.000000 -1.067981E+01
-16.000000 -26.000000 5.851499E+00
-16.000000 -28.000000 1.456078E+01
-16.000000 -30.000000 1.450119E+01
-16.000000 -32.000000 1.022029E+01
-16.000000 -34.000000 6.787396E+00
-16.000000 -36.000000 3.686754E+00
-16.000000 -38.000000 -4.012990E-02
-16.000000 -40.000000 2.616023E+00
-14.000000 40.000000 1.005150E+01
-14.000000 38.000000 1.246414E+01
-14.000000 36.000000 7.525175E+00
-14.000000 34.000000 -6.939839E+00
-14.000000 32.000000 -2.685848E+01
-14.000000 30.000000 -3.701025E+01
-14.000000 28.000000 -3.682775E+01
-14.000000 26.000000 -2.796903E+01
-14.000000 24.000000 -2.290992E+01
-14.000000 22.000000 -2.582969E+01
-14.000000 20.000000 -2.808861E+01
-14.000000 18.000000 -2.496995E+01
-14.000000 16.000000 -2.685190E+01
-14.000000 14.000000 -3.450183E+01
-14.000000 12.000000 -3.942034E+01
-14.000000 10.000000 -3.693509E+01
-14.000000 8.000000 -3.089904E+01
-14.000000 6.000000 -2.111953E+01
-14.000000 4.000000 -1.299245E+01
-14.000000 2.000000 -1.124727E+01
-14.000000 0.000000 -1.338692E+01
-14.000000 -2.000000 -1.460655E+01
-14.000000 -4.000000 -1.215834E+01
-14.000000 -6.000000 -7.270660E+00
-14.000000 -8.000000 -3.166210E+00
-14.000000 -10.000000 3.629070E+00
-14.000000 -12.000000 8.461065E+00
-14.000000 -14.000000 3.386642E+00
-14.000000 -16.000000 -9.396076E+00
-14.000000 -18.000000 -2.393960E+01
-14.000000 -20.000000 -3.195913E+01
-14.000000 -22.000000 -2.543460E+01
-14.000000 -24.000000 -8.345615E+00
-14.000000 -26.000000 5.715395E+00
-14.000000 -28.000000 1.096617E+01
-14.000000 -30.000000 1.013353E+01
-14.000000 -32.000000 7.375395E+00
-14.000000 -34.000000 6.159971E+00
-14.000000 -36.000000 4.325198E+00
-14.000000 -38.000000 1.298860E+00
-14.000000 -40.000000 4.086692E+00
-12.000000 40.000000 1.558716E+01
-12.000000 38.000000 1.456978E+01
-12.000000 36.000000 5.577323E+00
-12.000000 34.000000 -1.417459E+01
-12.000000 32.000000 -3.746603E+01
-12.000000 30.000000 -4.743270E+01
-12.000000 28.000000 -4.538660E+01
-12.000000 26.000000 -3.467053E+01
-12.000000 24.000000 -2.674024E+01
-12.000000 22.000000 -2.621265E+01
-12.000000 20.000000 -2.637258E+01
-12.000000 18.000000 -2.370516E+01
-12.000000 16.000000 -2.898872E+01
-12.000000 14.000000 -4.139936E+01
-12.000000 12.000000 -5.261335E+01
-12.000000 10.000000 -5.462358E+01
-12.000000 8.000000 -4.781063E+01
-12.000000 6.000000 -3.444309E+01
-12.000000 4.000000 -1.721109E+01
-12.000000 2.000000 -4.841059E+00
-12.000000 0.000000 -1.162333E+00
-12.000000 -2.000000 2.759876E-01
-12.000000 -4.000000 2.737556E+00
-12.000000 -6.000000 4.202791E+00
-12.000000 -8.000000 5.808441E+00
-12.000000 -10.000000 1.041520E+01
-12.000000 -12.000000 1.375486E+01
-12.000000 -14.000000 9.953587E+00
-12.000000 -16.000000 -1.948898E+00
-12.000000 -18.000000 -1.627971E+01
-12.000000 -20.000000 -2.285660E+01
-12.000000 -22.000000 -1.485138E+01
-12.000000 -24.000000 1.250008E+00
-12.000000 -26.000000 1.071663E+01
-12.000000 -28.000000 1.090049E+01
-12.000000 -30.000000 9.555785E+00
-12.000000 -32.000000 8.482952E+00
-12.000000 -34.000000 7.808366E+00
-12.000000 -36.000000 6.163858E+00
-12.000000 -38.000000 3.238752E+00
-12.000000 -40.000000 5.287342E+00
-10.000000 40.000000 1.670644E+01
-10.000000 38.000000 1.367805E+01
-10.000000 36.000000 4.299846E+00
-10.000000 34.000000 -1.512303E+01
-10.000000 32.000000 -3.617357E+01
-10.000000 30.000000 -4.500677E+01
-10.000000 28.000000 -4.317929E+01
-10.000000 26.000000 -3.426237E+01
-10.000000 24.000000 -2.742662E+01
-10.000000 22.000000 -2.554958E+01
-10.000000 20.000000 -2.564779E+01
-10.000000 18.000000 -2.476200E+01
-10.000000 16.000000 -3.260887E+01
-10.000000 14.000000 -4.921128E+01
-10.000000 12.000000 -6.542701E+01
-10.000000 10.000000 -7.327568E+01
-10.000000 8.000000 -6.789228E+01
-10.000000 6.000000 -5.239749E+01
-10.000000 4.000000 -2.748701E+01
-10.000000 2.000000 -7.300959E+00
-10.000000 0.000000 2.130617E+00
-10.000000 -2.000000 6.870581E+00
-10.000000 -4.000000 1.036554E+01
-10.000000 -6.000000 9.841940E+00
-10.000000 -8.000000 8.592716E+00
-10.000000 -10.000000 1.080584E+01
-10.000000 -12.000000 1.284060E+01
-10.000000 -14.000000 1.159481E+01
-10.000000 -16.000000 3.658936E+00
-10.000000 -18.000000 -7.557537E+00
-10.000000 -20.000000 -9.803021E+00
-10.000000 -22.000000 4.731655E-01
-10.000000 -24.000000 1.431325E+01
-10.000000 -26.000000 1.886912E+01
-10.000000 -28.000000 1.593016E+01
-10.000000 -30.000000 1.484236E+01
-10.000000 -32.000000 1.383505E+01
-10.000000 -34.000000 1.239029E+01
-10.000000 -36.000000 9.705481E+00
-10.000000 -38.000000 6.128871E+00
-10.000000 -40.000000 6.133747E+00
-8.000000 40.000000 1.463204E+01
-8.000000 38.000000 1.092064E+01
-8.000000 36.000000 3.360897E+00
-8.000000 34.000000 -1.178320E+01
-8.000000 32.000000 -2.760887E+01
-8.000000 30.000000 -3.441360E+01
-8.000000 28.000000 -3.377783E+01
-8.000000 26.000000 -2.742348E+01
-8.000000 24.000000 -2.187267E+01
-8.000000 22.000000 -2.087838E+01
-8.000000 20.000000 -2.210648E+01
-8.000000 18.000000 -2.339827E+01
-8.000000 16.000000 -3.357289E+01
-8.000000 14.000000 -5.332320E+01
-8.000000 12.000000 -7.192198E+01
-8.000000 10.000000 -8.329668E+01
-8.000000 8.000000 -7.908956E+01
-8.000000 6.000000 -6.246396E+01
-8.000000 4.000000 -3.487298E+01
-8.000000 2.000000 -1.336904E+01
-8.000000 0.000000 -1.904329E+00
-8.000000 -2.000000 3.694326E+00
-8.000000 -4.000000 6.961533E+00
-8.000000 -6.000000 5.574501E+00
-8.000000 -8.000000 2.602888E+00
-8.000000 -10.000000 3.190088E+00
-8.000000 -12.000000 4.416058E+00
-8.000000 -14.000000 5.592464E+00
-8.000000 -16.000000 2.797290E+00
-8.000000 -18.000000 -2.271640E+00
-8.000000 -20.000000 1.760006E-02
-8.000000 -22.000000 1.174463E+01
-8.000000 -24.000000 2.419273E+01
-8.000000 -26.000000 2.765358E+01
-8.000000 -28.000000 2.524481E+01
-8.000000 -30.000000 2.445191E+01
-8.000000 -32.000000 2.248550E+01
-8.000000 -34.000000 1.989054E+01
-8.000000 -36.000000 1.525032E+01
-8.000000 -38.000000 1.046668E+01
-8.000000 -40.000000 7.753726E+00
-6.000000 40.000000 1.137399E+01
-6.000000 38.000000 7.380754E+00
-6.000000 36.000000 2.158945E+00
-6.000000 34.000000 -7.285969E+00
-6.000000 32.000000 -1.776490E+01
-6.000000 30.000000 -2.182208E+01
-6.000000 28.000000 -2.225397E+01
-6.000000 26.000000 -1.727095E+01
-6.000000 24.000000 -1.030467E+01
-6.000000 22.000000 -1.053484E+01
-6.000000 20.000000 -1.207764E+01
-6.000000 18.000000 -1.400867E+01
-6.000000 16.000000 -2.703706E+01
-6.000000 14.000000 -5.011413E+01
-6.000000 12.000000 -7.096243E+01
-6.000000 10.000000 -8.260517E+01
-6.000000 8.000000 -7.682004E+01
-6.000000 6.000000 -6.036858E+01
-6.000000 4.000000 -3.611690E+01
-6.000000 2.000000 -1.838796E+01
-6.000000 0.000000 -9.353161E+00
-6.000000 -2.000000 -5.757156E+00
-6.000000 -4.000000 -4.590044E+00
-6.000000 -6.000000 -7.369818E+00
-6.000000 -8.000000 -1.132026E+01
-6.000000 -10.000000 -1.210888E+01
-6.000000 -12.000000 -9.885481E+00
-6.000000 -14.000000 -6.463942E+00
-6.000000 -16.000000 -4.688960E+00
-6.000000 -18.000000 -3.881095E+00
-6.000000 -20.000000 2.006175E+00
-6.000000 -22.000000 1.452693E+01
-6.000000 -24.000000 2.730116E+01
-6.000000 -26.000000 3.329915E+01
-6.000000 -28.000000 3.363034E+01
-6.000000 -30.000000 3.389077E+01
-6.000000 -32.000000 3.234074E+01
-6.000000 -34.000000 2.946826E+01
-6.000000 -36.000000 2.300470E+01
-6.000000 -38.000000 1.626561E+01
-6.000000 -40.000000 1.059274E+01
-4.000000 40.000000 6.625278E+00
-4.000000 38.000000 3.435753E+00
-4.000000 36.000000 1.147180E+00
-4.000000 34.000000 -2.777712E+00
-4.000000 32.000000 -9.061909E+00
-4.000000 30.000000 -1.205165E+01
-4.000000 28.000000 -1.274245E+01
-4.000000 26.000000 -8.184378E+00
-4.000000 24.000000 8.319683E-01
-4.000000 22.000000 2.205423E+00
-4.000000 20.000000 2.238813E+00
-4.000000 18.000000 1.501137E+00
-4.000000 16.000000 -1.241260E+01
-4.000000 14.000000 -3.723642E+01
-4.000000 12.000000 -5.958271E+01
-4.000000 10.000000 -6.984596E+01
-4.000000 8.000000 -6.229667E+01
-4.000000 6.000000 -4.810969E+01
-4.000000 4.000000 -3.205674E+01
-4.000000 2.000000 -2.261458E+01
-4.000000 0.000000 -1.954451E+01
-4.000000 -2.000000 -1.920073E+01
-4.000000 -4.000000 -2.002414E+01
-4.000000 -6.000000 -2.347992E+01
-4.000000 -8.000000 -2.769150E+01
-4.000000 -10.000000 -2.972151E+01
-4.000000 -12.000000 -2.603606E+01
-4.000000 -14.000000 -2.083768E+01
-4.000000 -16.000000 -1.537279E+01
-4.000000 -18.000000 -1.139971E+01
-4.000000 -20.000000 -3.289315E+00
-4.000000 -22.000000 1.024877E+01
-4.000000 -24.000000 2.415654E+01
-4.000000 -26.000000 3.320670E+01
-4.000000 -28.000000 3.682346E+01
-4.000000 -30.000000 3.950642E+01
-4.000000 -32.000000 4.003807E+01
-4.000000 -34.000000 3.860402E+01
-4.000000 -36.000000 3.202978E+01
-4.000000 -38.000000 2.271769E+01
-4.000000 -40.000000 1.387281E+01
-2.000000 40.000000 1.696228E+00
-2.000000 38.000000 -1.878567E-01
-2.000000 36.000000 4.040079E-01
-2.000000 34.000000 7.536697E-02
-2.000000 32.000000 -4.637845E+00
-2.000000 30.000000 -8.699970E+00
-2.000000 28.000000 -9.625320E+00
-2.000000 26.000000 -4.199345E+00
-2.000000 24.000000 6.789854E+00
-2.000000 22.000000 1.073063E+01
-2.000000 20.000000 1.292370E+01
-2.000000 18.000000 1.472135E+01
-2.000000 16.000000 4.378122E+00
-2.000000 14.000000 -1.736540E+01
-2.000000 12.000000 -3.888219E+01
-2.000000 10.000000 -4.880998E+01
-2.000000 8.000000 -4.238901E+01
-2.000000 6.000000 -3.160748E+01
-2.000000 4.000000 -2.406808E+01
-2.000000 2.000000 -2.473154E+01
-2.000000 0.000000 -2.909813E+01
-2.000000 -2.000000 -3.200727E+01
-2.000000 -4.000000 -3.346773E+01
-2.000000 -6.000000 -3.524318E+01
-2.000000 -8.000000 -3.829470E+01
-2.000000 -10.000000 -4.139419E+01
-2.000000 -12.000000 -3.835530E+01
-2.000000 -14.000000 -3.282657E+01
-2.000000 -16.000000 -2.511633E+01
-2.000000 -18.000000 -2.020469E+01
-2.000000 -20.000000 -1.137040E+01
-2.000000 -22.000000 2.879148E+00
-2.000000 -24.000000 1.704652E+01
-2.000000 -26.000000 2.745318E+01
-2.000000 -28.000000 3.347594E+01
-2.000000 -30.000000 3.872225E+01
-2.000000 -32.000000 4.234768E+01
-2.000000 -34.000000 4.461908E+01
-2.000000 -36.000000 3.993992E+01
-2.000000 -38.000000 2.853874E+01
-2.000000 -40.000000 1.721369E+01
0.000000 40.000000 -1.940698E+00
0.000000 38.000000 -3.901967E+00
0.000000 36.000000 -1.830903E+00
0.000000 34.000000 -1.476316E-01
0.000000 32.000000 -4.413050E+00
0.000000 30.000000 -1.094686E+01
0.000000 28.000000 -1.380358E+01
0.000000 26.000000 -7.242312E+00
0.000000 24.000000 5.801683E+00
0.000000 22.000000 9.859818E+00
0.000000 20.000000 1.192138E+01
0.000000 18.000000 1.692232E+01
0.000000 16.000000 1.370826E+01
0.000000 14.000000 -5.315781E-01
0.000000 12.000000 -1.816536E+01
0.000000 10.000000 -2.781433E+01
0.000000 8.000000 -2.505755E+01
0.000000 6.000000 -1.839238E+01
0.000000 4.000000 -1.716049E+01
0.000000 2.000000 -2.373663E+01
0.000000 0.000000 -3.236155E+01
0.000000 -2.000000 -3.741077E+01
0.000000 -4.000000 -3.796780E+01
0.000000 -6.000000 -3.636484E+01
0.000000 -8.000000 -3.808184E+01
0.000000 -10.000000 -4.167871E+01
0.000000 -12.000000 -4.042341E+01
0.000000 -14.000000 -3.541061E+01
0.000000 -16.000000 -2.897337E+01
0.000000 -18.000000 -2.414707E+01
0.000000 -20.000000 -1.499220E+01
0.000000 -22.000000 -1.944099E+00
0.000000 -24.000000 9.430767E+00
0.000000 -26.000000 1.699393E+01
0.000000 -28.000000 2.278628E+01
0.000000 -30.000000 2.996162E+01
0.000000 -32.000000 3.737564E+01
0.000000 -34.000000 4.505820E+01
0.000000 -36.000000 4.364732E+01
0.000000 -38.000000 3.281297E+01
0.000000 -40.000000 2.079997E+01
2.000000 40.000000 -4.679087E+00
2.000000 38.000000 -8.835642E+00
2.000000 36.000000 -6.847503E+00
2.000000 34.000000 -3.311433E+00
2.000000 32.000000 -5.837349E+00
2.000000 30.000000 -1.522877E+01
2.000000 28.000000 -2.149361E+01
2.000000 26.000000 -1.575710E+01
2.000000 24.000000 -3.340937E+00
2.000000 22.000000 -1.377337E+00
2.000000 20.000000 -1.322361E+00
2.000000 18.000000 6.004993E+00
2.000000 16.000000 1.009733E+01
2.000000 14.000000 3.518471E+00
2.000000 12.000000 -8.548615E+00
2.000000 10.000000 -1.595869E+01
2.000000 8.000000 -1.732242E+01
2.000000 6.000000 -1.340001E+01
2.000000 4.000000 -1.372744E+01
2.000000 2.000000 -1.908724E+01
2.000000 0.000000 -2.680413E+01
2.000000 -2.000000 -3.275042E+01
2.000000 -4.000000 -3.345669E+01
2.000000 -6.000000 -2.974088E+01
2.000000 -8.000000 -2.943631E+01
2.000000 -10.000000 -3.161153E+01
2.000000 -12.000000 -3.034814E+01
2.000000 -14.000000 -2.533396E+01
2.000000 -16.000000 -2.109560E+01
2.000000 -18.000000 -1.755453E+01
2.000000 -20.000000 -1.013862E+01
2.000000 -22.000000 -1.326750E+00
2.000000 -24.000000 4.631486E+00
2.000000 -26.000000 6.703254E+00
2.000000 -28.000000 8.912043E+00
2.000000 -30.000000 1.593002E+01
2.000000 -32.000000 2.655898E+01
2.000000 -34.000000 3.939312E+01
2.000000 -36.000000 4.222291E+01
2.000000 -38.000000 3.409058E+01
2.000000 -40.000000 2.229757E+01
4.000000 40.000000 -6.688882E+00
4.000000 38.000000 -1.461197E+01
4.000000 36.000000 -1.400224E+01
4.000000 34.000000 -8.717429E+00
4.000000 32.000000 -9.010902E+00
4.000000 30.000000 -1.981199E+01
4.000000 28.000000 -2.849891E+01
4.000000 26.000000 -2.475735E+01
4.000000 24.000000 -1.659657E+01
4.000000 22.000000 -1.850339E+01
4.000000 20.000000 -2.174673E+01
4.000000 18.000000 -1.531696E+01
4.000000 16.000000 -8.076720E+00
4.000000 14.000000 -9.829802E+00
4.000000 12.000000 -1.580356E+01
4.000000 10.000000 -1.970462E+01
4.000000 8.000000 -2.088217E+01
4.000000 6.000000 -1.596068E+01
4.000000 4.000000 -1.165854E+01
4.000000 2.000000 -1.058545E+01
4.000000 0.000000 -1.301688E+01
4.000000 -2.000000 -1.736776E+01
4.000000 -4.000000 -2.066496E+01
4.000000 -6.000000 -1.904039E+01
4.000000 -8.000000 -1.778750E+01
4.000000 -10.000000 -1.761747E+01
4.000000 -12.000000 -1.320600E+01
4.000000 -14.000000 -6.658590E+00
4.000000 -16.000000 -3.322626E+00
4.000000 -18.000000 -2.560721E+00
4.000000 -20.000000 -1.430511E-01
4.000000 -22.000000 2.463306E+00
4.000000 -24.000000 2.973717E+00
4.000000 -26.000000 5.232616E-01
4.000000 -28.000000 -1.842492E+00
4.000000 -30.000000 2.221448E+00
4.000000 -32.000000 1.395983E+01
4.000000 -34.000000 3.030277E+01
4.000000 -36.000000 3.723004E+01
4.000000 -38.000000 3.079585E+01
4.000000 -40.000000 1.895334E+01
6.000000 40.000000 -7.186321E+00
6.000000 38.000000 -1.889092E+01
6.000000 36.000000 -2.096150E+01
6.000000 34.000000 -1.545674E+01
6.000000 32.000000 -1.492872E+01
6.000000 30.000000 -2.521093E+01
6.000000 28.000000 -3.416542E+01
6.000000 26.000000 -3.153184E+01
6.000000 24.000000 -2.752223E+01
6.000000 22.000000 -3.364753E+01
6.000000 20.000000 -4.219611E+01
6.000000 18.000000 -4.064944E+01
6.000000 16.000000 -3.487280E+01
6.000000 14.000000 -3.522919E+01
6.000000 12.000000 -3.594443E+01
6.000000 10.000000 -3.516099E+01
6.000000 8.000000 -3.170651E+01
6.000000 6.000000 -2.293286E+01
6.000000 4.000000 -1.058993E+01
6.000000 2.000000 -8.709774E-01
6.000000 0.000000 5.206499E+00
6.000000 -2.000000 5.659166E+00
6.000000 -4.000000 2.011940E+00
6.000000 -6.000000 -3.602552E-01
6.000000 -8.000000 -1.476425E+00
6.000000 -10.000000 -1.339146E+00
6.000000 -12.000000 4.041259E+00
6.000000 -14.000000 1.145801E+01
6.000000 -16.000000 1.255668E+01
6.000000 -18.000000 9.072887E+00
6.000000 -20.000000 5.994720E+00
6.000000 -22.000000 4.206330E+00
6.000000 -24.000000 1.695650E+00
6.000000 -26.000000 -3.098819E+00
6.000000 -28.000000 -8.606800E+00
6.000000 -30.000000 -8.871976E+00
6.000000 -32.000000 1.609529E+00
6.000000 -34.000000 1.972931E+01
6.000000 -36.000000 2.950488E+01
6.000000 -38.000000 2.402630E+01
6.000000 -40.000000 1.261886E+01
8.000000 40.000000 -6.679535E+00
8.000000 38.000000 -2.042383E+01
8.000000 36.000000 -2.554051E+01
8.000000 34.000000 -2.288806E+01
8.000000 32.000000 -2.255385E+01
8.000000 30.000000 -3.054196E+01
8.000000 28.000000 -3.778366E+01
8.000000 26.000000 -3.512468E+01
8.000000 24.000000 -3.327642E+01
8.000000 22.000000 -4.163062E+01
8.000000 20.000000 -5.389277E+01
8.000000 18.000000 -5.758291E+01
8.000000 16.000000 -5.521220E+01
8.000000 14.000000 -5.595036E+01
8.000000 12.000000 -5.482075E+01
8.000000 10.000000 -5.090708E+01
8.000000 8.000000 -4.458905E+01
8.000000 6.000000 -3.393220E+01
8.000000 4.000000 -1.561903E+01
8.000000 2.000000 3.136524E+00
8.000000 0.000000 2.059340E+01
8.000000 -2.000000 3.115397E+01
8.000000 -4.000000 3.305246E+01
8.000000 -6.000000 2.811689E+01
8.000000 -8.000000 2.028085E+01
8.000000 -10.000000 1.494742E+01
8.000000 -12.000000 1.316205E+01
8.000000 -14.000000 1.535786E+01
8.000000 -16.000000 1.184993E+01
8.000000 -18.000000 5.512699E+00
8.000000 -20.000000 1.571377E+00
8.000000 -22.000000 1.599711E+00
8.000000 -24.000000 6.379198E-01
8.000000 -26.000000 -4.167434E+00
8.000000 -28.000000 -1.239753E+01
8.000000 -30.000000 -1.700078E+01
8.000000 -32.000000 -8.662589E+00
8.000000 -34.000000 8.972580E+00
8.000000 -36.000000 1.929377E+01
8.000000 -38.000000 1.529443E+01
8.000000 -40.000000 5.486663E+00
10.000000 40.000000 -6.927322E+00
10.000000 38.000000 -2.042525E+01
10.000000 36.000000 -2.776347E+01
10.000000 34.000000 -2.906924E+01
10.000000 32.000000 -2.821046E+01
10.000000 30.000000 -3.263470E+01
10.000000 28.000000 -3.721258E+01
10.000000 26.000000 -3.369724E+01
10.000000 24.000000 -3.179217E+01
10.000000 22.000000 -3.916129E+01
10.000000 20.000000 -5.130784E+01
10.000000 18.000000 -5.652417E+01
10.000000 16.000000 -5.720272E+01
10.000000 14.000000 -6.070131E+01
10.000000 12.000000 -6.183193E+01
10.000000 10.000000 -6.014484E+01
10.000000 8.000000 -5.572050E+01
10.000000 6.000000 -4.607875E+01
10.000000 4.000000 -2.567114E+01
10.000000 2.000000 7.392321E-01
10.000000 0.000000 2.971454E+01
10.000000 -2.000000 5.357026E+01
10.000000 -4.000000 6.424828E+01
10.000000 -6.000000 5.721533E+01
10.000000 -8.000000 3.885572E+01
10.000000 -10.000000 2.224463E+01
10.000000 -12.000000 9.241921E+00
10.000000 -14.000000 2.324963E+00
10.000000 -16.000000 -6.262567E+00
10.000000 -18.000000 -1.295778E+01
10.000000 -20.000000 -1.224482E+01
10.000000 -22.000000 -5.443813E+00
10.000000 -24.000000 -1.786682E+00
10.000000 -26.000000 -4.984091E+00
10.000000 -28.000000 -1.506963E+01
10.000000 -30.000000 -2.173329E+01
10.000000 -32.000000 -1.489386E+01
10.000000 -34.000000 -2.595420E-01
10.000000 -36.000000 7.668227E+00
10.000000 -38.000000 5.333262E+00
10.000000 -40.000000 -1.454999E+00
12.000000 40.000000 -9.976385E+00
12.000000 38.000000 -2.069395E+01
12.000000 36.000000 -2.783188E+01
12.000000 34.000000 -3.065877E+01
12.000000 32.000000 -2.889937E+01
12.000000 30.000000 -3.008470E+01
12.000000 28.000000 -3.145177E+01
12.000000 26.000000 -2.604017E+01
12.000000 24.000000 -2.177116E+01
12.000000 22.000000 -2.530361E+01
12.000000 20.000000 -3.262350E+01
12.000000 18.000000 -3.613106E+01
12.000000 16.000000 -4.048869E+01
12.000000 14.000000 -5.024030E+01
12.000000 12.000000 -5.851018E+01
12.000000 10.000000 -6.403644E+01
12.000000 8.000000 -6.440617E+01
12.000000 6.000000 -5.814336E+01
12.000000 4.000000 -3.696301E+01
12.000000 2.000000 -4.017594E+00
12.000000 0.000000 3.389043E+01
12.000000 -2.000000 6.753588E+01
12.000000 -4.000000 8.465223E+01
12.000000 -6.000000 7.494741E+01
12.000000 -8.000000 4.677228E+01
12.000000 -10.000000 1.834614E+01
12.000000 -12.000000 -3.621328E+00
12.000000 -14.000000 -1.778299E+01
12.000000 -16.000000 -3.008113E+01
12.000000 -18.000000 -3.641681E+01
12.000000 -20.000000 -2.994606E+01
12.000000 -22.000000 -1.639058E+01
12.000000 -24.000000 -7.124449E+00
12.000000 -26.000000 -8.088993E+00
12.000000 -28.000000 -1.690601E+01
12.000000 -30.000000 -2.279519E+01
12.000000 -32.000000 -1.796893E+01
12.000000 -34.000000 -7.456114E+00
12.000000 -36.000000 -2.916643E+00
12.000000 -38.000000 -4.124228E+00
12.000000 -40.000000 -7.664864E+00
14.000000 40.000000 -1.600889E+01
14.000000 38.000000 -2.201182E+01
14.000000 36.000000 -2.577890E+01
14.000000 34.000000 -2.741430E+01
14.000000 32.000000 -2.546308E+01
14.000000 30.000000 -2.411210E+01
14.000000 28.000000 -2.137043E+01
14.000000 26.000000 -1.361296E+01
14.000000 24.000000 -6.054241E+00
14.000000 22.000000 -5.508418E+00
14.000000 20.000000 -6.628692E+00
14.000000 18.000000 -7.305774E+00
14.000000 16.000000 -1.490857E+01
14.000000 14.000000 -3.222985E+01
14.000000 12.000000 -5.016619E+01
14.000000 10.000000 -6.240524E+01
14.000000 8.000000 -6.599535E+01
14.000000 6.000000 -6.250577E+01
14.000000 4.000000 -4.411076E+01
14.000000 2.000000 -1.122029E+01
14.000000 0.000000 2.913911E+01
14.000000 -2.000000 6.623780E+01
14.000000 -4.000000 8.538565E+01
14.000000 -6.000000 7.399646E+01
14.000000 -8.000000 4.236613E+01
14.000000 -10.000000 9.074784E+00
14.000000 -12.000000 -1.779486E+01
14.000000 -14.000000 -3.592906E+01
14.000000 -16.000000 -4.824800E+01
14.000000 -18.000000 -5.225725E+01
14.000000 -20.000000 -4.178203E+01
14.000000 -22.000000 -2.400365E+01
14.000000 -24.000000 -1.118931E+01
14.000000 -26.000000 -1.038379E+01
14.000000 -28.000000 -1.607091E+01
14.000000 -30.000000 -2.052327E+01
14.000000 -32.000000 -1.889351E+01
14.000000 -34.000000 -1.280876E+01
14.000000 -36.000000 -1.131824E+01
14.000000 -38.000000 -1.228669E+01
14.000000 -40.000000 -1.397796E+01
16.000000 40.000000 -2.180375E+01
16.000000 38.000000 -2.342621E+01
16.000000 36.000000 -2.345665E+01
16.000000 34.000000 -2.354806E+01
16.000000 32.000000 -2.159396E+01
16.000000 30.000000 -1.767594E+01
16.000000 28.000000 -1.134585E+01
16.000000 26.000000 -1.837769E+00
16.000000 24.000000 8.277133E+00
16.000000 22.000000 1.087222E+01
16.000000 20.000000 1.366517E+01
16.000000 18.000000 1.624386E+01
16.000000 16.000000 6.300065E+00
16.000000 14.000000 -1.745748E+01
16.000000 12.000000 -4.250949E+01
16.000000 10.000000 -5.658874E+01
16.000000 8.000000 -5.851141E+01
16.000000 6.000000 -5.502479E+01
16.000000 4.000000 -4.316800E+01
16.000000 2.000000 -1.694931E+01
16.000000 0.000000 1.820329E+01
16.000000 -2.000000 5.122937E+01
16.000000 -4.000000 6.754977E+01
16.000000 -6.000000 5.690775E+01
16.000000 -8.000000 2.867006E+01
16.000000 -10.000000 -2.252324E+00
16.000000 -12.000000 -2.783099E+01
16.000000 -14.000000 -4.482913E+01
16.000000 -16.000000 -5.315001E+01
16.000000 -18.000000 -5.212790E+01
16.000000 -20.000000 -3.932104E+01
16.000000 -22.000000 -2.101091E+01
16.000000 -24.000000 -8.921795E+00
16.000000 -26.000000 -8.096343E+00
16.000000 -28.000000 -1.299244E+01
16.000000 -30.000000 -1.759389E+01
16.000000 -32.000000 -1.851851E+01
16.000000 -34.000000 -1.625380E+01
16.000000 -36.000000 -1.718160E+01
16.000000 -38.000000 -1.900581E+01
16.000000 -40.000000 -2.063437E+01
18.000000 40.000000 -2.504425E+01
18.000000 38.000000 -2.388473E+01
18.000000 36.000000 -2.218146E+01
18.000000 34.000000 -2.294036E+01
18.000000 32.000000 -2.141572E+01
18.000000 30.000000 -1.471381E+01
18.000000 28.000000 -5.707423E+00
18.000000 26.000000 4.615333E+00
18.000000 24.000000 1.610871E+01
18.000000 22.000000 1.806738E+01
18.000000 20.000000 2.069228E+01
18.000000 18.000000 2.440794E+01
18.000000 16.000000 1.280567E+01
18.000000 14.000000 -1.347300E+01
18.000000 12.000000 -3.942113E+01
18.000000 10.000000 -5.161513E+01
18.000000 8.000000 -5.056092E+01
18.000000 6.000000 -4.583246E+01
18.000000 4.000000 -3.625116E+01
18.000000 2.000000 -1.565851E+01
18.000000 0.000000 1.096934E+01
18.000000 -2.000000 3.483753E+01
18.000000 -4.000000 4.549987E+01
18.000000 -6.000000 3.681983E+01
18.000000 -8.000000 1.474875E+01
18.000000 -10.000000 -1.110105E+01
18.000000 -12.000000 -3.067080E+01
18.000000 -14.000000 -4.316542E+01
18.000000 -16.000000 -4.638860E+01
18.000000 -18.000000 -3.961248E+01
18.000000 -20.000000 -2.451252E+01
18.000000 -22.000000 -7.755341E+00
18.000000 -24.000000 9.561100E-01
18.000000 -26.000000 -1.304191E+00
18.000000 -28.000000 -8.725810E+00
18.000000 -30.000000 -1.487301E+01
18.000000 -32.000000 -1.729112E+01
18.000000 -34.000000 -1.770189E+01
18.000000 -36.000000 -2.036462E+01
18.000000 -38.000000 -2.415809E+01
18.000000 -40.000000 -2.694409E+01
20.000000 40.000000 -2.554350E+01
20.000000 38.000000 -2.388931E+01
20.000000 36.000000 -2.297667E+01
20.000000 34.000000 -2.652155E+01
20.000000 32.000000 -2.621535E+01
20.000000 30.000000 -1.783122E+01
20.000000 28.000000 -6.788551E+00
20.000000 26.000000 4.407212E+00
20.000000 24.000000 1.524113E+01
20.000000 22.000000 1.421715E+01
20.000000 20.000000 1.279373E+01
20.000000 18.000000 1.384457E+01
20.000000 16.000000 2.612060E+00
20.000000 14.000000 -1.998212E+01
20.000000 12.000000 -4.001863E+01
20.000000 10.000000 -4.755515E+01
20.000000 8.000000 -4.462256E+01
20.000000 6.000000 -3.838800E+01
20.000000 4.000000 -2.744195E+01
20.000000 2.000000 -1.118741E+01
20.000000 0.000000 7.377768E+00
20.000000 -2.000000 2.362011E+01
20.000000 -4.000000 3.153645E+01
20.000000 -6.000000 2.719317E+01
20.000000 -8.000000 1.124206E+01
20.000000 -10.000000 -1.092535E+01
20.000000 -12.000000 -2.704354E+01
20.000000 -14.000000 -3.737753E+01
20.000000 -16.000000 -3.780211E+01
20.000000 -18.000000 -2.658035E+01
20.000000 -20.000000 -8.527256E+00
20.000000 -22.000000 8.283767E+00
20.000000 -24.000000 1.548064E+01
20.000000 -26.000000 9.734088E+00
20.000000 -28.000000 -1.142500E+00
20.000000 -30.000000 -9.529455E+00
20.000000 -32.000000 -1.410576E+01
20.000000 -34.000000 -1.716147E+01
20.000000 -36.000000 -2.157979E+01
20.000000 -38.000000 -2.839931E+01
20.000000 -40.000000 -3.266892E+01
22.000000 40.000000 -2.487069E+01
22.000000 38.000000 -2.457979E+01
22.000000 36.000000 -2.568847E+01
22.000000 34.000000 -3.227351E+01
22.000000 32.000000 -3.364639E+01
22.000000 30.000000 -2.600837E+01
22.000000 28.000000 -1.479970E+01
22.000000 26.000000 -1.487295E+00
22.000000 24.000000 8.359228E+00
22.000000 22.000000 1.982106E+00
22.000000 20.000000 -6.446394E+00
22.000000 18.000000 -9.366337E+00
22.000000 16.000000 -1.750934E+01
22.000000 14.000000 -3.268769E+01
22.000000 12.000000 -4.371344E+01
22.000000 10.000000 -4.505439E+01
22.000000 8.000000 -4.114360E+01
22.000000 6.000000 -3.427117E+01
22.000000 4.000000 -2.277053E+01
22.000000 2.000000 -1.037256E+01
22.000000 0.000000 3.668700E+00
22.000000 -2.000000 1.967307E+01
22.000000 -4.000000 3.289430E+01
22.000000 -6.000000 3.689270E+01
22.000000 -8.000000 2.497361E+01
22.000000 -10.000000 1.956788E+00
22.000000 -12.000000 -1.944721E+01
22.000000 -14.000000 -3.493826E+01
22.000000 -16.000000 -3.741346E+01
22.000000 -18.000000 -2.429701E+01
22.000000 -20.000000 -2.444407E+00
22.000000 -22.000000 1.778350E+01
22.000000 -24.000000 2.814956E+01
22.000000 -26.000000 2.421720E+01
22.000000 -28.000000 1.250019E+01
22.000000 -30.000000 9.906950E-01
22.000000 -32.000000 -8.377913E+00
22.000000 -34.000000 -1.522103E+01
22.000000 -36.000000 -2.246359E+01
22.000000 -38.000000 -3.209975E+01
22.000000 -40.000000 -3.732613E+01
24.000000 40.000000 -2.581985E+01
24.000000 38.000000 -2.674496E+01
24.000000 36.000000 -2.924854E+01
24.000000 34.000000 -3.766244E+01
24.000000 32.000000 -4.056551E+01
24.000000 30.000000 -3.443119E+01
24.000000 28.000000 -2.531793E+01
24.000000 26.000000 -1.062295E+01
24.000000 24.000000 -1.697990E-01
24.000000 22.000000 -1.186206E+01
24.000000 20.000000 -2.758253E+01
24.000000 18.000000 -3.420952E+01
24.000000 16.000000 -3.899338E+01
24.000000 14.000000 -4.728793E+01
24.000000 12.000000 -4.954669E+01
24.000000 10.000000 -4.523227E+01
24.000000 8.000000 -4.025169E+01
24.000000 6.000000 -3.469944E+01
24.000000 4.000000 -2.555399E+01
24.000000 2.000000 -1.523752E+01
24.000000 0.000000 -1.651269E-01
24.000000 -2.000000 2.353463E+01
24.000000 -4.000000 4.873727E+01
24.000000 -6.000000 6.275358E+01
24.000000 -8.000000 4.972132E+01
24.000000 -10.000000 2.148586E+01
24.000000 -12.000000 -1.104926E+01
24.000000 -14.000000 -3.689229E+01
24.000000 -16.000000 -4.570735E+01
24.000000 -18.000000 -3.379478E+01
24.000000 -20.000000 -8.595125E+00
24.000000 -22.000000 1.689766E+01
24.000000 -24.000000 3.409472E+01
24.000000 -26.000000 3.688033E+01
24.000000 -28.000000 2.809015E+01
24.000000 -30.000000 1.434573E+01
24.000000 -32.000000 -1.360657E+00
24.000000 -34.000000 -1.322132E+01
24.000000 -36.000000 -2.402813E+01
24.000000 -38.000000 -3.467024E+01
24.000000 -40.000000 -4.009000E+01
26.000000 40.000000 -2.991782E+01
26.000000 38.000000 -3.096730E+01
26.000000 36.000000 -3.360974E+01
26.000000 34.000000 -4.197438E+01
26.000000 32.000000 -4.507932E+01
26.000000 30.000000 -3.937901E+01
26.000000 28.000000 -3.289284E+01
26.000000 26.000000 -2.001215E+01
26.000000 24.000000 -1.017601E+01
26.000000 22.000000 -2.222672E+01
26.000000 20.000000 -4.010097E+01
26.000000 18.000000 -4.786648E+01
26.000000 16.000000 -5.084389E+01
26.000000 14.000000 -5.573101E+01
26.000000 12.000000 -5.390739E+01
26.000000 10.000000 -4.727385E+01
26.000000 8.000000 -4.052707E+01
26.000000 6.000000 -3.624387E+01
26.000000 4.000000 -3.066457E+01
26.000000 2.000000 -2.087952E+01
26.000000 0.000000 -6.639390E-01
26.000000 -2.000000 3.396444E+01
26.000000 -4.000000 7.020174E+01
26.000000 -6.000000 8.909268E+01
26.000000 -8.000000 6.906266E+01
26.000000 -10.000000 3.245195E+01
26.000000 -12.000000 -9.324460E+00
26.000000 -14.000000 -4.234839E+01
26.000000 -16.000000 -5.692428E+01
26.000000 -18.000000 -4.787511E+01
26.000000 -20.000000 -2.280649E+01
26.000000 -22.000000 6.447800E+00
26.000000 -24.000000 3.226278E+01
26.000000 -26.000000 4.348266E+01
26.000000 -28.000000 3.901945E+01
26.000000 -30.000000 2.523360E+01
26.000000 -32.000000 4.416201E+00
26.000000 -34.000000 -1.225903E+01
26.000000 -36.000000 -2.553256E+01
26.000000 -38.000000 -3.585986E+01
26.000000 -40.000000 -4.131555E+01
28.000000 40.000000 -3.625480E+01
28.000000 38.000000 -3.671617E+01
28.000000 36.000000 -3.805542E+01
28.000000 34.000000 -4.356203E+01
28.000000 32.000000 -4.594769E+01
28.000000 30.000000 -4.153264E+01
28.000000 28.000000 -3.793528E+01
28.000000 26.000000 -2.919597E+01
28.000000 24.000000 -2.175655E+01
28.000000 22.000000 -2.979528E+01
28.000000 20.000000 -4.323293E+01
28.000000 18.000000 -4.643957E+01
28.000000 16.000000 -4.757810E+01
28.000000 14.000000 -5.218814E+01
28.000000 12.000000 -5.161201E+01
28.000000 10.000000 -4.583959E+01
28.000000 8.000000 -3.772254E+01
28.000000 6.000000 -3.266991E+01
28.000000 4.000000 -2.899540E+01
28.000000 2.000000 -1.907350E+01
28.000000 0.000000 6.537597E+00
28.000000 -2.000000 4.903865E+01
28.000000 -4.000000 8.938670E+01
28.000000 -6.000000 1.040583E+02
28.000000 -8.000000 7.449125E+01
28.000000 -10.000000 2.635719E+01
28.000000 -12.000000 -2.138725E+01
28.000000 -14.000000 -5.359857E+01
28.000000 -16.000000 -6.772473E+01
28.000000 -18.000000 -6.135150E+01
28.000000 -20.000000 -4.121265E+01
28.000000 -22.000000 -1.274146E+01
28.000000 -24.000000 2.098250E+01
28.000000 -26.000000 4.272930E+01
28.000000 -28.000000 4.379439E+01
28.000000 -30.000000 3.010408E+01
28.000000 -32.000000 5.483537E+00
28.000000 -34.000000 -1.301258E+01
28.000000 -36.000000 -2.612578E+01
28.000000 -38.000000 -3.593010E+01
28.000000 -40.000000 -4.108265E+01
30.000000 40.000000 -4.278940E+01
30.000000 38.000000 -4.191378E+01
30.000000 36.000000 -4.080441E+01
30.000000 34.000000 -4.156387E+01
30.000000 32.000000 -4.297457E+01
30.000000 30.000000 -4.274692E+01
30.000000 28.000000 -4.439541E+01
30.000000 26.000000 -4.003015E+01
30.000000 24.000000 -3.356402E+01
30.000000 22.000000 -3.606487E+01
30.000000 20.000000 -4.174798E+01
30.000000 18.000000 -3.757424E+01
30.000000 16.000000 -3.638092E+01
30.000000 14.000000 -4.134703E+01
30.000000 12.000000 -4.071169E+01
30.000000 10.000000 -3.306125E+01
30.000000 8.000000 -2.352534E+01
30.000000 6.000000 -1.738895E+01
30.000000 4.000000 -1.531531E+01
30.000000 2.000000 -6.422728E+00
30.000000 0.000000 2.057152E+01
30.000000 -2.000000 6.469001E+01
30.000000 -4.000000 1.041571E+02
30.000000 -6.000000 1.094443E+02
30.000000 -8.000000 6.825681E+01
30.000000 -10.000000 8.049148E+00
30.000000 -12.000000 -4.153793E+01
30.000000 -14.000000 -6.800624E+01
30.000000 -16.000000 -7.764552E+01
30.000000 -18.000000 -7.429071E+01
30.000000 -20.000000 -6.112380E+01
30.000000 -22.000000 -3.562080E+01
30.000000 -24.000000 3.341820E+00
30.000000 -26.000000 3.374541E+01
30.000000 -28.000000 3.887490E+01
30.000000 -30.000000 2.397391E+01
30.000000 -32.000000 -2.083059E+00
30.000000 -34.000000 -1.798448E+01
30.000000 -36.000000 -2.703756E+01
30.000000 -38.000000 -3.397525E+01
30.000000 -40.000000 -3.675866E+01
32.000000 40.000000 -4.727481E+01
32.000000 38.000000 -4.450009E+01
32.000000 36.000000 -4.109775E+01
32.000000 34.000000 -3.868573E+01
32.000000 32.000000 -4.010235E+01
32.000000 30.000000 -4.489687E+01
32.000000 28.000000 -5.261116E+01
32.000000 26.000000 -5.126981E+01
32.000000 24.000000 -4.372681E+01
32.000000 22.000000 -4.045859E+01
32.000000 20.000000 -3.780345E+01
32.000000 18.000000 -2.627859E+01
32.000000 16.000000 -2.203462E+01
32.000000 14.000000 -2.573748E+01
32.000000 12.000000 -2.352524E+01
32.000000 10.000000 -1.234878E+01
32.000000 8.000000 -1.141785E+00
32.000000 6.000000 5.555307E+00
32.000000 4.000000 5.761714E+00
32.000000 2.000000 1.159777E+01
32.000000 0.000000 3.569282E+01
32.000000 -2.000000 7.644206E+01
32.000000 -4.000000 1.112865E+02
32.000000 -6.000000 1.069048E+02
32.000000 -8.000000 5.662106E+01
32.000000 -10.000000 -1.111942E+01
32.000000 -12.000000 -5.912604E+01
32.000000 -14.000000 -7.994018E+01
32.000000 -16.000000 -8.494942E+01
32.000000 -18.000000 -8.296857E+01
32.000000 -20.000000 -7.418695E+01
32.000000 -22.000000 -5.053960E+01
32.000000 -24.000000 -1.119692E+01
32.000000 -26.000000 1.861241E+01
32.000000 -28.000000 2.121745E+01
32.000000 -30.000000 4.515785E+00
32.000000 -32.000000 -1.902909E+01
32.000000 -34.000000 -2.890911E+01
32.000000 -36.000000 -2.966267E+01
32.000000 -38.000000 -2.953778E+01
32.000000 -40.000000 -2.767195E+01
34.000000 40.000000 -4.861689E+01
34.000000 38.000000 -4.416928E+01
34.000000 36.000000 -3.884555E+01
34.000000 34.000000 -3.507780E+01
34.000000 32.000000 -3.825827E+01
34.000000 30.000000 -4.771463E+01
34.000000 28.000000 -5.986173E+01
34.000000 26.000000 -6.068790E+01
34.000000 24.000000 -5.171627E+01
34.000000 22.000000 -4.304615E+01
34.000000 20.000000 -3.326082E+01
34.000000 18.000000 -1.637922E+01
34.000000 16.000000 -8.545221E+00
34.000000 14.000000 -9.108973E+00
34.000000 12.000000 -5.583311E+00
34.000000 10.000000 7.759632E+00
34.000000 8.000000 2.004447E+01
34.000000 6.000000 2.697314E+01
34.000000 4.000000 2.426506E+01
34.000000 2.000000 2.640070E+01
34.000000 0.000000 4.636686E+01
34.000000 -2.000000 8.068388E+01
34.000000 -4.000000 1.077358E+02
34.000000 -6.000000 9.712376E+01
34.000000 -8.000000 4.492886E+01
34.000000 -10.000000 -2.304972E+01
34.000000 -12.000000 -6.821125E+01
34.000000 -14.000000 -8.443794E+01
34.000000 -16.000000 -8.473542E+01
34.000000 -18.000000 -8.138636E+01
34.000000 -20.000000 -7.365793E+01
34.000000 -22.000000 -5.126208E+01
34.000000 -24.000000 -1.766244E+01
34.000000 -26.000000 3.119928E+00
34.000000 -28.000000 -1.554826E+00
34.000000 -30.000000 -2.029968E+01
34.000000 -32.000000 -3.964017E+01
34.000000 -34.000000 -4.200015E+01
34.000000 -36.000000 -3.225603E+01
34.000000 -38.000000 -2.455931E+01
34.000000 -40.000000 -1.835291E+01
36.000000 40.000000 -4.773595E+01
36.000000 38.000000 -4.172367E+01
36.000000 36.000000 -3.390959E+01
36.000000 34.000000 -2.835794E+01
36.000000 32.000000 -3.390926E+01
36.000000 30.000000 -4.791365E+01
36.000000 28.000000 -6.298806E+01
36.000000 26.000000 -6.586587E+01
36.000000 24.000000 -5.661166E+01
36.000000 22.000000 -4.380129E+01
36.000000 20.000000 -3.029913E+01
36.000000 18.000000 -1.259367E+01
36.000000 16.000000 -3.002415E+00
36.000000 14.000000 -1.597267E+00
36.000000 12.000000 2.474952E+00
36.000000 10.000000 1.537269E+01
36.000000 8.000000 2.756592E+01
36.000000 6.000000 3.601791E+01
36.000000 4.000000 3.541111E+01
36.000000 2.000000 3.768960E+01
36.000000 0.000000 5.329530E+01
36.000000 -2.000000 7.951092E+01
36.000000 -4.000000 9.850925E+01
36.000000 -6.000000 8.555079E+01
36.000000 -8.000000 3.755742E+01
36.000000 -10.000000 -2.285072E+01
36.000000 -12.000000 -6.308063E+01
36.000000 -14.000000 -7.676041E+01
36.000000 -16.000000 -7.389127E+01
36.000000 -18.000000 -6.772609E+01
36.000000 -20.000000 -5.926802E+01
36.000000 -22.000000 -4.001752E+01
36.000000 -24.000000 -1.744036E+01
36.000000 -26.000000 -8.335909E+00
36.000000 -28.000000 -2.045307E+01
36.000000 -30.000000 -4.052751E+01
36.000000 -32.000000 -5.612322E+01
36.000000 -34.000000 -5.265315E+01
36.000000 -36.000000 -3.425274E+01
36.000000 -38.000000 -2.104958E+01
36.000000 -40.000000 -1.233741E+01
38.000000 40.000000 -4.494050E+01
38.000000 38.000000 -3.742352E+01
38.000000 36.000000 -2.655058E+01
38.000000 34.000000 -1.896898E+01
38.000000 32.000000 -2.620991E+01
38.000000 30.000000 -4.332675E+01
38.000000 28.000000 -6.061987E+01
38.000000 26.000000 -6.436059E+01
38.000000 24.000000 -5.564528E+01
38.000000 22.000000 -4.227754E+01
38.000000 20.000000 -3.150842E+01
38.000000 18.000000 -1.780460E+01
38.000000 16.000000 -9.667240E+00
38.000000 14.000000 -9.500732E+00
38.000000 12.000000 -6.275280E+00
38.000000 10.000000 5.421448E+00
38.000000 8.000000 1.967407E+01
38.000000 6.000000 3.283554E+01
38.000000 4.000000 4.069962E+01
38.000000 2.000000 4.627265E+01
38.000000 0.000000 5.777217E+01
38.000000 -2.000000 7.607692E+01
38.000000 -4.000000 8.789269E+01
38.000000 -6.000000 7.454069E+01
38.000000 -8.000000 3.528926E+01
38.000000 -10.000000 -1.156333E+01
38.000000 -12.000000 -4.358765E+01
38.000000 -14.000000 -5.560598E+01
38.000000 -16.000000 -5.179541E+01
38.000000 -18.000000 -4.303119E+01
38.000000 -20.000000 -3.370106E+01
38.000000 -22.000000 -2.081360E+01
38.000000 -24.000000 -1.191331E+01
38.000000 -26.000000 -1.505913E+01
38.000000 -28.000000 -3.315232E+01
38.000000 -30.000000 -5.281719E+01
38.000000 -32.000000 -6.552683E+01
38.000000 -34.000000 -5.925738E+01
38.000000 -36.000000 -3.624780E+01
38.000000 -38.000000 -1.931744E+01
38.000000 -40.000000 -9.407067E+00
40.000000 40.000000 -4.038756E+01
40.000000 38.000000 -3.112810E+01
40.000000 36.000000 -1.691543E+01
40.000000 34.000000 -7.461205E+00
40.000000 32.000000 -1.523012E+01
40.000000 30.000000 -3.312487E+01
40.000000 28.000000 -5.216589E+01
40.000000 26.000000 -5.702551E+01
40.000000 24.000000 -4.971307E+01
40.000000 22.000000 -3.969600E+01
40.000000 20.000000 -3.515621E+01
40.000000 18.000000 -2.793010E+01
40.000000 16.000000 -2.442800E+01
40.000000 14.000000 -2.814778E+01
40.000000 12.000000 -2.638981E+01
40.000000 10.000000 -1.510576E+01
40.000000 8.000000 3.831046E+00
40.000000 6.000000 2.360919E+01
40.000000 4.000000 4.111241E+01
40.000000 2.000000 5.069929E+01
40.000000 0.000000 5.995006E+01
40.000000 -2.000000 7.108717E+01
40.000000 -4.000000 7.615565E+01
40.000000 -6.000000 6.411228E+01
40.000000 -8.000000 3.616598E+01
40.000000 -10.000000 4.394940E+00
40.000000 -12.000000 -1.841109E+01
40.000000 -14.000000 -2.774931E+01
40.000000 -16.000000 -2.491031E+01
40.000000 -18.000000 -1.650518E+01
40.000000 -20.000000 -7.694012E+00
40.000000 -22.000000 -7.368355E-01
40.000000 -24.000000 -2.266520E+00
40.000000 -26.000000 -1.534627E+01
40.000000 -28.000000 -3.783400E+01
40.000000 -30.000000 -5.789930E+01
40.000000 -32.000000 -6.857954E+01
40.000000 -34.000000 -6.068770E+01
40.000000 -36.000000 -3.693915E+01
40.000000 -38.000000 -1.842142E+01
40.000000 -40.000000 -8.341345E+00
42.000000 40.000000 -3.706899E+01
42.000000 38.000000 -2.490273E+01
42.000000 36.000000 -6.927198E+00
42.000000 34.000000 5.724068E+00
42.000000 32.000000 9.951591E-03
42.000000 30.000000 -1.649140E+01
42.000000 28.000000 -3.530700E+01
42.000000 26.000000 -4.218525E+01
42.000000 24.000000 -3.738650E+01
42.000000 22.000000 -3.251278E+01
42.000000 20.000000 -3.395422E+01
42.000000 18.000000 -3.348658E+01
42.000000 16.000000 -3.552174E+01
42.000000 14.000000 -4.232467E+01
42.000000 12.000000 -4.293226E+01
42.000000 10.000000 -3.411596E+01
42.000000 8.000000 -1.292258E+01
42.000000 6.000000 1.008366E+01
42.000000 4.000000 3.321208E+01
42.000000 2.000000 4.657023E+01
42.000000 0.000000 5.448015E+01
42.000000 -2.000000 5.947603E+01
42.000000 -4.000000 6.018507E+01
42.000000 -6.000000 5.136641E+01
42.000000 -8.000000 3.450694E+01
42.000000 -10.000000 1.660997E+01
42.000000 -12.000000 2.423173E+00
42.000000 -14.000000 -4.313954E+00
42.000000 -16.000000 -4.466370E+00
42.000000 -18.000000 1.881504E-01
42.000000 -20.000000 7.441490E+00
42.000000 -22.000000 1.307632E+01
42.000000 -24.000000 8.984562E+00
42.000000 -26.000000 -7.462210E+00
42.000000 -28.000000 -3.225706E+01
42.000000 -30.000000 -5.583885E+01
42.000000 -32.000000 -6.760084E+01
42.000000 -34.000000 -5.853633E+01
42.000000 -36.000000 -3.556884E+01
42.000000 -38.000000 -1.762235E+01
42.000000 -40.000000 -7.685053E+00
44.000000 40.000000 -3.792081E+01
44.000000 38.000000 -2.168067E+01
44.000000 36.000000 8.533678E-01
44.000000 34.000000 1.929369E+01
44.000000 32.000000 1.870788E+01
44.000000 30.000000 4.843497E+00
44.000000 28.000000 -1.153524E+01
44.000000 26.000000 -1.881434E+01
44.000000 24.000000 -1.615968E+01
44.000000 22.000000 -1.573354E+01
44.000000 20.000000 -2.156792E+01
44.000000 18.000000 -2.739651E+01
44.000000 16.000000 -3.391835E+01
44.000000 14.000000 -4.270620E+01
44.000000 12.000000 -4.560146E+01
44.000000 10.000000 -3.965660E+01
44.000000 8.000000 -1.942899E+01
44.000000 6.000000 2.335730E+00
44.000000 4.000000 2.413431E+01
44.000000 2.000000 3.498363E+01
44.000000 0.000000 3.667103E+01
44.000000 -2.000000 3.473651E+01
44.000000 -4.000000 3.224493E+01
44.000000 -6.000000 2.707235E+01
44.000000 -8.000000 2.084542E+01
44.000000 -10.000000 1.653438E+01
44.000000 -12.000000 1.204592E+01
44.000000 -14.000000 7.221446E+00
44.000000 -16.000000 2.192162E+00
44.000000 -18.000000 7.615442E-01
44.000000 -20.000000 5.940307E+00
44.000000 -22.000000 1.515062E+01
44.000000 -24.000000 1.712893E+01
44.000000 -26.000000 5.482975E+00
44.000000 -28.000000 -1.787768E+01
44.000000 -30.000000 -4.488620E+01
44.000000 -32.000000 -6.107761E+01
44.000000 -34.000000 -5.337248E+01
44.000000 -36.000000 -3.230525E+01
44.000000 -38.000000 -1.679412E+01
44.000000 -40.000000 -7.039991E+00
46.000000 40.000000 -4.299631E+01
46.000000 38.000000 -2.253914E+01
46.000000 36.000000 5.918872E+00
46.000000 34.000000 3.202222E+01
46.000000 32.000000 3.698215E+01
46.000000 30.000000 2.581377E+01
46.000000 28.000000 1.125402E+01
46.000000 26.000000 5.778086E+00
46.000000 24.000000 1.079898E+01
46.000000 22.000000 7.909947E+00
46.000000 20.000000 -1.628939E+00
46.000000 18.000000 -1.073470E+01
46.000000 16.000000 -1.825912E+01
46.000000 14.000000 -2.713319E+01
46.000000 12.000000 -3.015964E+01
46.000000 10.000000 -2.447493E+01
46.000000 8.000000 -7.356595E+00
46.000000 6.000000 9.674190E+00
46.000000 4.000000 2.332021E+01
46.000000 2.000000 2.311916E+01
46.000000 0.000000 1.184067E+01
46.000000 -2.000000 1.982050E-01
46.000000 -4.000000 -6.868263E+00
46.000000 -6.000000 -8.609372E+00
46.000000 -8.000000 -5.013803E+00
46.000000 -10.000000 2.317220E+00
46.000000 -12.000000 7.700492E+00
46.000000 -14.000000 4.431555E+00
46.000000 -16.000000 -5.552708E+00
46.000000 -18.000000 -1.318519E+01
46.000000 -20.000000 -1.011920E+01
46.000000 -22.000000 4.552390E+00
46.000000 -24.000000 1.672560E+01
46.000000 -26.000000 1.525383E+01
46.000000 -28.000000 -2.299955E+00
46.000000 -30.000000 -2.820124E+01
46.000000 -32.000000 -4.739851E+01
46.000000 -34.000000 -4.401696E+01
46.000000 -36.000000 -2.724738E+01
46.000000 -38.000000 -1.478773E+01
46.000000 -40.000000 -5.763990E+00
48.000000 40.000000 -5.096936E+01
48.000000 38.000000 -2.742031E+01
48.000000 36.000000 7.553257E+00
48.000000 34.000000 4.111433E+01
48.000000 32.000000 5.000545E+01
48.000000 30.000000 4.015957E+01
48.000000 28.000000 2.556493E+01
48.000000 26.000000 2.258628E+01
48.000000 24.000000 3.342862E+01
48.000000 22.000000 2.989730E+01
48.000000 20.000000 1.821846E+01
48.000000 18.000000 9.985710E+00
48.000000 16.000000 5.275764E+00
48.000000 14.000000 -2.164936E-02
48.000000 12.000000 -7.308960E-03
