-26.000000 26.000000 -1.445140E+01
-26.000000 24.000000 -1.375611E+01
-26.000000 22.000000 -4.986872E+00
-26.000000 20.000000 4.751596E+00
-26.000000 18.000000 9.256726E+00
-26.000000 16.000000 8.429172E+00
-26.000000 14.000000 4.176285E+00
-26.000000 12.000000 7.482424E-01
-26.000000 10.000000 9.905558E-01
-26.000000 8.000000 5.702666E+00
-26.000000 6.000000 9.098102E+00
-26.000000 4.000000 9.773034E+00
-26.000000 2.000000 9.159974E+00
-26.000000 0.000000 1.144208E+01
-26.000000 -2.000000 1.584901E+01
-26.000000 -4.000000 1.928900E+01
-26.000000 -6.000000 1.392103E+01
-26.000000 -8.000000 -1.781323E+00
-26.000000 -10.000000 -2.071511E+01
-26.000000 -12.000000 -3.615708E+01
-26.000000 -14.000000 -4.372433E+01
-26.000000 -16.000000 -4.364010E+01
-26.000000 -18.000000 -3.740973E+01
-26.000000 -20.000000 -2.887853E+01
-26.000000 -22.000000 -2.521620E+01
-26.000000 -24.000000 -2.915631E+01
-26.000000 -26.000000 -3.370042E+01
-26.000000 -28.000000 -3.423811E+01
-26.000000 -30.000000 -3.541674E+01
-26.000000 -32.000000 -3.570577E+01
-26.000000 -34.000000 -3.363163E+01
-26.000000 -36.000000 -2.670132E+01
-26.000000 -38.000000 -1.969418E+01
-26.000000 -40.000000 -1.312981E+01
-24.000000 40.000000 -3.945595E+00
-24.000000 38.000000 -6.880722E-01
-24.000000 36.000000 3.557344E+00
-24.000000 34.000000 6.123652E+00
-24.000000 32.000000 1.709400E+00
-24.000000 30.000000 -6.682873E+00
-24.000000 28.000000 -1.571199E+01
-24.000000 26.000000 -2.089486E+01
-24.000000 24.000000 -2.154973E+01
-24.000000 22.000000 -1.286434E+01
-24.000000 20.000000 -2.925241E+00
-24.000000 18.000000 3.667973E+00
-24.000000 16.000000 4.663783E+00
-24.000000 14.000000 2.373833E+00
-24.000000 12.000000 2.161513E+00
-24.000000 10.000000 3.899461E+00
-24.000000 8.000000 5.745764E+00
-24.000000 6.000000 3.045948E+00
-24.000000 4.000000 -3.332915E+00
-24.000000 2.000000 -6.321851E+00
-24.000000 0.000000 -3.122706E+00
-24.000000 -2.000000 5.274553E+00
-24.000000 -4.000000 1.403426E+01
-24.000000 -6.000000 1.553301E+01
-24.000000 -8.000000 7.399141E+00
-24.000000 -10.000000 -3.537424E+00
-24.000000 -12.000000 -1.290714E+01
-24.000000 -14.000000 -1.689245E+01
-24.000000 -16.000000 -1.881893E+01
-24.000000 -18.000000 -1.971417E+01
-24.000000 -20.000000 -1.988581E+01
-24.000000 -22.000000 -2.117864E+01
-24.000000 -24.000000 -2.437074E+01
-24.000000 -26.000000 -2.658480E+01
-24.000000 -28.000000 -2.688607E+01
-24.000000 -30.000000 -2.945923E+01
-24.000000 -32.000000 -3.226248E+01
-24.000000 -34.000000 -3.238336E+01
-24.000000 -36.000000 -2.689711E+01
-24.000000 -38.000000 -1.930657E+01
-24.000000 -40.000000 -1.277933E+01
-22.000000 40.000000 2.813864E+00
-22.000000 38.000000 7.736282E+00
-22.000000 36.000000 1.357810E+01
-22.000000 34.000000 1.536076E+01
-22.000000 32.000000 7.638926E+00
-22.000000 30.000000 -5.166603E+00
-22.000000 28.000000 -1.817315E+01
-22.000000 26.000000 -2.507204E+01
-22.000000 24.000000 -2.725460E+01
-22.000000 22.000000 -1.771658E+01
-22.000000 20.000000 -5.209040E+00
-22.000000 18.000000 5.409485E+00
-22.000000 16.000000 9.464003E+00
-22.000000 14.000000 9.827133E+00
-22.000000 12.000000 1.160985E+01
-22.000000 10.000000 1.265009E+01
-22.000000 8.000000 8.254930E+00
-22.000000 6.000000 -3.605743E+00
-22.000000 4.000000 -1.832645E+01
-22.000000 2.000000 -2.252431E+01
-22.000000 0.000000 -1.695216E+01
-22.000000 -2.000000 -3.631746E+00
-22.000000 -4.000000 8.670655E+00
-22.000000 -6.000000 1.430395E+01
-22.000000 -8.000000 1.171884E+01
-22.000000 -10.000000 6.303731E+00
-22.000000 -12.000000 2.608754E+00
-22.000000 -14.000000 2.576696E+00
-22.000000 -16.000000 2.716951E-01
-22.000000 -18.000000 -6.101803E+00
-22.000000 -20.000000 -1.311469E+01
-22.000000 -22.000000 -1.681997E+01
-22.000000 -24.000000 -1.629384E+01
-22.000000 -26.000000 -1.427296E+01
-22.000000 -28.000000 -1.538196E+01
-22.000000 -30.000000 -2.096495E+01
-22.000000 -32.000000 -2.709249E+01
-22.000000 -34.000000 -2.924902E+01
-22.000000 -36.000000 -2.518128E+01
-22.000000 -38.000000 -1.864119E+01
-22.000000 -40.000000 -1.302850E+01
-20.000000 40.000000 1.014057E+01
-20.000000 38.000000 1.487611E+01
-20.000000 36.000000 2.023992E+01
-20.000000 34.000000 2.042246E+01
-20.000000 32.000000 1.148556E+01
-20.000000 30.000000 -1.788054E+00
-20.000000 28.000000 -1.536920E+01
-20.000000 26.000000 -2.326419E+01
-20.000000 24.000000 -2.747144E+01
-20.000000 22.000000 -1.728906E+01
-20.000000 20.000000 -1.483538E+00
-20.000000 18.000000 1.389930E+01
-20.000000 16.000000 2.158810E+01
-20.000000 14.000000 2.423503E+01
-20.000000 12.000000 2.473164E+01
-20.000000 10.000000 2.167671E+01
-20.000000 8.000000 1.039582E+01
-20.000000 6.000000 -8.062022E+00
-20.000000 4.000000 -2.550009E+01
-20.000000 2.000000 -2.799528E+01
-20.000000 0.000000 -1.943408E+01
-20.000000 -2.000000 -3.549265E+00
-20.000000 -4.000000 8.883353E+00
-20.000000 -6.000000 1.455429E+01
-20.000000 -8.000000 1.257600E+01
-20.000000 -10.000000 7.555737E+00
-20.000000 -12.000000 6.541695E+00
-20.000000 -14.000000 1.004740E+01
-20.000000 -16.000000 8.933438E+00
-20.000000 -18.000000 -4.786634E-01
-20.000000 -20.000000 -1.166194E+01
-20.000000 -22.000000 -1.536776E+01
-20.000000 -24.000000 -1.018168E+01
-20.000000 -26.000000 -3.298128E+00
-20.000000 -28.000000 -4.853993E+00
-20.000000 -30.000000 -1.365609E+01
-20.000000 -32.000000 -2.255340E+01
-20.000000 -34.000000 -2.569707E+01
-20.000000 -36.000000 -2.192062E+01
-20.000000 -38.000000 -1.643999E+01
-20.000000 -40.000000 -1.191603E+01
-18.000000 40.000000 1.705737E+01
-18.000000 38.000000 2.066730E+01
-18.000000 36.000000 2.502237E+01
-18.000000 34.000000 2.344783E+01
-18.000000 32.000000 1.487053E+01
-18.000000 30.000000 4.121752E+00
-18.000000 28.000000 -6.855967E+00
-18.000000 26.000000 -1.448343E+01
-18.000000 24.000000 -2.141921E+01
-18.000000 22.000000 -1.176959E+01
-18.000000 20.000000 5.898699E+00
-18.000000 18.000000 2.427791E+01
-18.000000 16.000000 3.415917E+01
-18.000000 14.000000 3.671535E+01
-18.000000 12.000000 3.465068E+01
-18.000000 10.000000 2.746586E+01
-18.000000 8.000000 1.328769E+01
-18.000000 6.000000 -4.813508E+00
-18.000000 4.000000 -1.837078E+01
-18.000000 2.000000 -1.816981E+01
-18.000000 0.000000 -7.734731E+00
-18.000000 -2.000000 6.846353E+00
-18.000000 -4.000000 1.720189E+01
-18.000000 -6.000000 1.932801E+01
-18.000000 -8.000000 1.160918E+01
-18.000000 -10.000000 1.160718E+00
-18.000000 -12.000000 -1.221539E+00
-18.000000 -14.000000 4.695794E+00
-18.000000 -16.000000 6.578689E+00
-18.000000 -18.000000 -2.325502E+00
-18.000000 -20.000000 -1.460705E+01
-18.000000 -22.000000 -1.759679E+01
-18.000000 -24.000000 -9.738964E+00
-18.000000 -26.000000 -3.393292E-01
-18.000000 -28.000000 -1.312916E+00
-18.000000 -30.000000 -1.062535E+01
-18.000000 -32.000000 -1.985060E+01
-18.000000 -34.000000 -2.274051E+01
-18.000000 -36.000000 -1.831247E+01
-18.000000 -38.000000 -1.269066E+01
-18.000000 -40.000000 -8.011205E+00
-16.000000 40.000000 2.206186E+01
-16.000000 38.000000 2.562478E+01
-16.000000 36.000000 2.998363E+01
-16.000000 34.000000 2.777284E+01
-16.000000 32.000000 2.013577E+01
-16.000000 30.000000 1.253900E+01
-16.000000 28.000000 5.138939E+00
-16.000000 26.000000 -6.956406E-01
-16.000000 24.000000 -8.449862E+00
-16.000000 22.000000 -1.296869E+00
-16.000000 20.000000 1.385218E+01
-16.000000 18.000000 2.950753E+01
-16.000000 16.000000 3.770801E+01
-16.000000 14.000000 3.883002E+01
-16.000000 12.000000 3.651149E+01
-16.000000 10.000000 3.126641E+01
-16.000000 8.000000 2.268229E+01
-16.000000 6.000000 1.073684E+01
-16.000000 4.000000 5.639939E-01
-16.000000 2.000000 -8.908650E-01
-16.000000 0.000000 6.640528E+00
-16.000000 -2.000000 1.800730E+01
-16.000000 -4.000000 2.505000E+01
-16.000000 -6.000000 2.108068E+01
-16.000000 -8.000000 7.502767E+00
-16.000000 -10.000000 -7.990410E+00
-16.000000 -12.000000 -1.340934E+01
-16.000000 -14.000000 -6.420174E+00
-16.000000 -16.000000 -1.145674E+00
-16.000000 -18.000000 -7.879807E+00
-16.000000 -20.000000 -1.876519E+01
-16.000000 -22.000000 -2.214879E+01
-16.000000 -24.000000 -1.570103E+01
-16.000000 -26.000000 -6.951911E+00
-16.000000 -28.000000 -5.545225E+00
-16.000000 -30.000000 -1.175083E+01
-16.000000 -32.000000 -1.891278E+01
-16.000000 -34.000000 -2.055003E+01
-16.000000 -36.000000 -1.486499E+01
-16.000000 -38.000000 -7.705163E+00
-16.000000 -40.000000 -1.478384E+00
-14.000000 40.000000 2.381139E+01
-14.000000 38.000000 3.020776E+01
-14.000000 36.000000 3.578100E+01
-14.000000 34.000000 3.506017E+01
-14.000000 32.000000 2.857044E+01
-14.000000 30.000000 2.257869E+01
-14.000000 28.000000 1.770892E+01
-14.000000 26.000000 1.434910E+01
-14.000000 24.000000 1.044414E+01
-14.000000 22.000000 1.330267E+01
-14.000000 20.000000 1.954399E+01
-14.000000 18.000000 2.473149E+01
-14.000000 16.000000 2.741592E+01
-14.000000 14.000000 2.938109E+01
-14.000000 12.000000 3.472395E+01
-14.000000 10.000000 4.025161E+01
-14.000000 8.000000 3.955856E+01
-14.000000 6.000000 3.041352E+01
-14.000000 4.000000 1.600881E+01
-14.000000 2.000000 7.528231E+00
-14.000000 0.000000 1.026838E+01
-14.000000 -2.000000 2.056247E+01
-14.000000 -4.000000 2.649223E+01
-14.000000 -6.000000 1.765843E+01
-14.000000 -8.000000 1.763315E-01
-14.000000 -10.000000 -1.863750E+01
-14.000000 -12.000000 -2.663644E+01
-14.000000 -14.000000 -1.827712E+01
-14.000000 -16.000000 -9.327189E+00
-14.000000 -18.000000 -1.391392E+01
-14.000000 -20.000000 -2.324555E+01
-14.000000 -22.000000 -2.742816E+01
-14.000000 -24.000000 -2.406497E+01
-14.000000 -26.000000 -1.626000E+01
-14.000000 -28.000000 -1.184026E+01
-14.000000 -30.000000 -1.450505E+01
-14.000000 -32.000000 -1.851585E+01
-14.000000 -34.000000 -1.812651E+01
-14.000000 -36.000000 -1.079878E+01
-14.000000 -38.000000 -2.033274E+00
-14.000000 -40.000000 5.918378E+00
-12.000000 40.000000 2.251016E+01
-12.000000 38.000000 3.375088E+01
-12.000000 36.000000 4.148272E+01
-12.000000 34.000000 4.297824E+01
-12.000000 32.000000 3.725005E+01
-12.000000 30.000000 3.156654E+01
-12.000000 28.000000 2.879289E+01
-12.000000 26.000000 2.828991E+01
-12.000000 24.000000 2.858924E+01
-12.000000 22.000000 2.725057E+01
-12.000000 20.000000 2.294565E+01
-12.000000 18.000000 1.482715E+01
-12.000000 16.000000 1.144305E+01
-12.000000 14.000000 1.638170E+01
-12.000000 12.000000 3.759573E+01
-12.000000 10.000000 5.763210E+01
-12.000000 8.000000 5.730527E+01
-12.000000 6.000000 3.982382E+01
-12.000000 4.000000 1.193491E+01
-12.000000 2.000000 -4.974896E+00
-12.000000 0.000000 -2.539406E+00
-12.000000 -2.000000 1.129164E+01
-12.000000 -4.000000 1.891862E+01
-12.000000 -6.000000 9.198491E+00
-12.000000 -8.000000 -1.076927E+01
-12.000000 -10.000000 -3.083402E+01
-12.000000 -12.000000 -3.832396E+01
-12.000000 -14.000000 -2.944651E+01
-12.000000 -16.000000 -1.814243E+01
-12.000000 -18.000000 -1.881566E+01
-12.000000 -20.000000 -2.610468E+01
-12.000000 -22.000000 -3.072574E+01
-12.000000 -24.000000 -2.912566E+01
-12.000000 -26.000000 -2.161728E+01
-12.000000 -28.000000 -1.542455E+01
-12.000000 -30.000000 -1.479822E+01
-12.000000 -32.000000 -1.544109E+01
-12.000000 -34.000000 -1.346187E+01
-12.000000 -36.000000 -5.511569E+00
-12.000000 -38.000000 3.261425E+00
-12.000000 -40.000000 1.187384E+01
-10.000000 40.000000 1.967645E+01
-10.000000 38.000000 3.388058E+01
-10.000000 36.000000 4.268991E+01
-10.000000 34.000000 4.581185E+01
-10.000000 32.000000 4.154794E+01
-10.000000 30.000000 3.726607E+01
-10.000000 28.000000 3.678067E+01
-10.000000 26.000000 3.839444E+01
-10.000000 24.000000 4.094421E+01
-10.000000 22.000000 3.603593E+01
-10.000000 20.000000 2.377699E+01
-10.000000 18.000000 7.739762E+00
-10.000000 16.000000 4.307425E+00
-10.000000 14.000000 1.556931E+01
-10.000000 12.000000 4.622057E+01
-10.000000 10.000000 7.065427E+01
-10.000000 8.000000 6.382430E+01
-10.000000 6.000000 3.485313E+01
-10.000000 4.000000 -5.745792E+00
-10.000000 2.000000 -2.874698E+01
-10.000000 0.000000 -2.828116E+01
-10.000000 -2.000000 -1.392010E+01
-10.000000 -4.000000 -5.679651E+00
-10.000000 -6.000000 -1.209124E+01
-10.000000 -8.000000 -2.690130E+01
-10.000000 -10.000000 -4.127324E+01
-10.000000 -12.000000 -4.569669E+01
-10.000000 -14.000000 -3.713444E+01
-10.000000 -16.000000 -2.420982E+01
-10.000000 -18.000000 -2.066951E+01
-10.000000 -20.000000 -2.494466E+01
-10.000000 -22.000000 -2.941048E+01
-10.000000 -24.000000 -2.850837E+01
-10.000000 -26.000000 -2.133630E+01
-10.000000 -28.000000 -1.326681E+01
-10.000000 -30.000000 -8.953267E+00
-10.000000 -32.000000 -7.670229E+00
-10.000000 -34.000000 -6.400143E+00
-10.000000 -36.000000 1.721001E-02
-10.000000 -38.000000 7.115942E+00
-10.000000 -40.000000 1.513519E+01
-8.000000 40.000000 1.644566E+01
-8.000000 38.000000 2.898755E+01
-8.000000 36.000000 3.641286E+01
-8.000000 34.000000 4.044472E+01
-8.000000 32.000000 3.965310E+01
-8.000000 30.000000 3.932855E+01
-8.000000 28.000000 4.113714E+01
-8.000000 26.000000 4.322914E+01
-8.000000 24.000000 4.478439E+01
-8.000000 22.000000 3.594367E+01
-8.000000 20.000000 2.089181E+01
-8.000000 18.000000 6.546321E+00
-8.000000 16.000000 8.426926E+00
-8.000000 14.000000 2.602404E+01
-8.000000 12.000000 5.251807E+01
-8.000000 10.000000 6.810192E+01
-8.000000 8.000000 5.193523E+01
-8.000000 6.000000 1.548480E+01
-8.000000 4.000000 -2.818555E+01
-8.000000 2.000000 -5.158495E+01
-8.000000 0.000000 -5.426181E+01
-8.000000 -2.000000 -4.351271E+01
-8.000000 -4.000000 -3.658494E+01
-8.000000 -6.000000 -3.832759E+01
-8.000000 -8.000000 -4.331629E+01
-8.000000 -10.000000 -4.824858E+01
-8.000000 -12.000000 -4.815391E+01
-8.000000 -14.000000 -3.853194E+01
-8.000000 -16.000000 -2.368803E+01
-8.000000 -18.000000 -1.802786E+01
-8.000000 -20.000000 -1.996794E+01
-8.000000 -22.000000 -2.313175E+01
-8.000000 -24.000000 -2.200006E+01
-8.000000 -26.000000 -1.473768E+01
-8.000000 -28.000000 -4.650589E+00
-8.000000 -30.000000 1.571627E+00
-8.000000 -32.000000 2.300677E+00
-8.000000 -34.000000 6.796160E-01
-8.000000 -36.000000 3.808663E+00
-8.000000 -38.000000 8.734080E+00
-8.000000 -40.000000 1.582374E+01
-6.000000 40.000000 1.211859E+01
-6.000000 38.000000 2.082971E+01
-6.000000 36.000000 2.541654E+01
-6.000000 34.000000 2.918835E+01
-6.000000 32.000000 3.229659E+01
-6.000000 30.000000 3.708874E+01
-6.000000 28.000000 4.124145E+01
-6.000000 26.000000 4.248404E+01
-6.000000 24.000000 3.995983E+01
-6.000000 22.000000 2.783573E+01
-6.000000 20.000000 1.418348E+01
-6.000000 18.000000 7.102809E+00
-6.000000 16.000000 1.532896E+01
-6.000000 14.000000 3.361631E+01
-6.000000 12.000000 5.029144E+01
-6.000000 10.000000 5.246689E+01
-6.000000 8.000000 2.737179E+01
-6.000000 6.000000 -1.232900E+01
-6.000000 4.000000 -5.047943E+01
-6.000000 2.000000 -6.797401E+01
-6.000000 0.000000 -6.926150E+01
-6.000000 -2.000000 -6.096326E+01
-6.000000 -4.000000 -5.550116E+01
-6.000000 -6.000000 -5.470479E+01
-6.000000 -8.000000 -5.302526E+01
-6.000000 -10.000000 -5.056395E+01
-6.000000 -12.000000 -4.424257E+01
-6.000000 -14.000000 -3.271277E+01
-6.000000 -16.000000 -1.873865E+01
-6.000000 -18.000000 -1.261380E+01
-6.000000 -20.000000 -1.281961E+01
-6.000000 -22.000000 -1.358569E+01
-6.000000 -24.000000 -9.856552E+00
-6.000000 -26.000000 -1.651140E+00
-6.000000 -28.000000 7.760544E+00
-6.000000 -30.000000 1.234809E+01
-6.000000 -32.000000 1.032695E+01
-6.000000 -34.000000 4.886682E+00
-6.000000 -36.000000 4.421501E+00
-6.000000 -38.000000 7.750868E+00
-6.000000 -40.000000 1.430707E+01
-4.000000 40.000000 6.150028E+00
-4.000000 38.000000 1.169488E+01
-4.000000 36.000000 1.353673E+01
-4.000000 34.000000 1.618809E+01
-4.000000 32.000000 2.156347E+01
-4.000000 30.000000 3.001004E+01
-4.000000 28.000000 3.558401E+01
-4.000000 26.000000 3.566261E+01
-4.000000 24.000000 2.919273E+01
-4.000000 22.000000 1.568316E+01
-4.000000 20.000000 4.932898E+00
-4.000000 18.000000 5.242164E+00
-4.000000 16.000000 1.899088E+01
-4.000000 14.000000 3.647879E+01
-4.000000 12.000000 4.490741E+01
-4.000000 10.000000 3.534385E+01
-4.000000 8.000000 4.814732E+00
-4.000000 6.000000 -3.422726E+01
-4.000000 4.000000 -6.420390E+01
-4.000000 2.000000 -7.368268E+01
-4.000000 0.000000 -7.152154E+01
-4.000000 -2.000000 -6.429599E+01
-4.000000 -4.000000 -6.026108E+01
-4.000000 -6.000000 -6.011277E+01
-4.000000 -8.000000 -5.548845E+01
-4.000000 -10.000000 -4.681457E+01
-4.000000 -12.000000 -3.600244E+01
-4.000000 -14.000000 -2.402637E+01
-4.000000 -16.000000 -1.305159E+01
-4.000000 -18.000000 -7.297176E+00
-4.000000 -20.000000 -5.147902E+00
-4.000000 -22.000000 -2.530033E+00
-4.000000 -24.000000 4.527020E+00
-4.000000 -26.000000 1.364439E+01
-4.000000 -28.000000 1.991685E+01
-4.000000 -30.000000 2.022804E+01
-4.000000 -32.000000 1.369396E+01
-4.000000 -34.000000 4.196440E+00
-4.000000 -36.000000 1.108020E+00
-4.000000 -38.000000 4.368898E+00
-4.000000 -40.000000 1.149931E+01
-2.000000 40.000000 -7.185612E-01
-2.000000 38.000000 3.070780E+00
-2.000000 36.000000 3.487101E+00
-2.000000 34.000000 5.182083E+00
-2.000000 32.000000 1.001285E+01
-2.000000 30.000000 1.885961E+01
-2.000000 28.000000 2.472273E+01
-2.000000 26.000000 2.444616E+01
-2.000000 24.000000 1.554793E+01
-2.000000 22.000000 2.512778E+00
-2.000000 20.000000 -4.772481E+00
-2.000000 18.000000 1.278022E+00
-2.000000 16.000000 1.877788E+01
-2.000000 14.000000 3.640003E+01
-2.000000 12.000000 4.182794E+01
-2.000000 10.000000 2.772624E+01
-2.000000 8.000000 -3.199019E+00
-2.000000 6.000000 -3.875119E+01
-2.000000 4.000000 -6.184258E+01
-2.000000 2.000000 -6.614106E+01
-2.000000 0.000000 -6.216052E+01
-2.000000 -2.000000 -5.635209E+01
-2.000000 -4.000000 -5.432930E+01
-2.000000 -6.000000 -5.639296E+01
-2.000000 -8.000000 -5.195565E+01
-2.000000 -10.000000 -4.054242E+01
-2.000000 -12.000000 -2.894237E+01
-2.000000 -14.000000 -1.816340E+01
-2.000000 -16.000000 -9.629611E+00
-2.000000 -18.000000 -4.403068E+00
-2.000000 -20.000000 -1.977415E-01
-2.000000 -22.000000 5.403472E+00
-2.000000 -24.000000 1.463626E+01
-2.000000 -26.000000 2.427183E+01
-2.000000 -28.000000 2.696496E+01
-2.000000 -30.000000 2.265201E+01
-2.000000 -32.000000 1.157372E+01
-2.000000 -34.000000 -1.134234E+00
-2.000000 -36.000000 -5.233242E+00
-2.000000 -38.000000 -2.998009E-01
-2.000000 -40.000000 8.860493E+00
0.000000 40.000000 -6.851621E+00
0.000000 38.000000 -3.035339E+00
0.000000 36.000000 -2.956022E+00
0.000000 34.000000 -2.557604E+00
0.000000 32.000000 -5.574350E-01
0.000000 30.000000 6.280979E+00
0.000000 28.000000 1.193039E+01
0.000000 26.000000 1.234480E+01
0.000000 24.000000 2.155530E+00
0.000000 22.000000 -9.254537E+00
0.000000 20.000000 -1.341045E+01
0.000000 18.000000 -3.317897E+00
0.000000 16.000000 1.712622E+01
0.000000 14.000000 3.628187E+01
0.000000 12.000000 4.364215E+01
0.000000 10.000000 3.320269E+01
0.000000 8.000000 6.369792E+00
0.000000 6.000000 -2.432570E+01
0.000000 4.000000 -4.332630E+01
0.000000 2.000000 -4.728484E+01
0.000000 0.000000 -4.463364E+01
0.000000 -2.000000 -4.136879E+01
0.000000 -4.000000 -4.173448E+01
0.000000 -6.000000 -4.474470E+01
0.000000 -8.000000 -4.322700E+01
0.000000 -10.000000 -3.556229E+01
0.000000 -12.000000 -2.627682E+01
0.000000 -14.000000 -1.748739E+01
0.000000 -16.000000 -1.017876E+01
0.000000 -18.000000 -4.989125E+00
0.000000 -20.000000 -3.643751E-01
0.000000 -22.000000 5.832834E+00
0.000000 -24.000000 1.527907E+01
0.000000 -26.000000 2.417770E+01
0.000000 -28.000000 2.455089E+01
0.000000 -30.000000 1.766563E+01
0.000000 -32.000000 4.339989E+00
0.000000 -34.000000 -9.268534E+00
0.000000 -36.000000 -1.208097E+01
0.000000 -38.000000 -4.341241E+00
0.000000 -40.000000 7.723009E+00
2.000000 40.000000 -1.113555E+01
2.000000 38.000000 -5.612105E+00
2.000000 36.000000 -4.889971E+00
2.000000 34.000000 -5.983542E+00
2.000000 32.000000 -7.956245E+00
2.000000 30.000000 -4.685397E+00
2.000000 28.000000 -1.246786E-01
2.000000 26.000000 1.483955E+00
2.000000 24.000000 -7.613712E+00
2.000000 22.000000 -1.628861E+01
2.000000 20.000000 -1.808342E+01
2.000000 18.000000 -5.996115E+00
2.000000 16.000000 1.587563E+01
2.000000 14.000000 3.712267E+01
2.000000 12.000000 4.920399E+01
2.000000 10.000000 4.737469E+01
2.000000 8.000000 2.854020E+01
2.000000 6.000000 3.510982E+00
2.000000 4.000000 -1.646506E+01
2.000000 2.000000 -2.556156E+01
2.000000 0.000000 -2.670269E+01
2.000000 -2.000000 -2.496350E+01
2.000000 -4.000000 -2.604029E+01
2.000000 -6.000000 -3.042892E+01
2.000000 -8.000000 -3.304171E+01
2.000000 -10.000000 -3.162912E+01
2.000000 -12.000000 -2.699069E+01
2.000000 -14.000000 -2.023577E+01
2.000000 -16.000000 -1.355813E+01
2.000000 -18.000000 -8.778974E+00
2.000000 -20.000000 -5.525517E+00
2.000000 -22.000000 -2.003745E+00
2.000000 -24.000000 5.036639E+00
2.000000 -26.000000 1.240858E+01
2.000000 -28.000000 1.333561E+01
2.000000 -30.000000 6.916492E+00
2.000000 -32.000000 -6.031425E+00
2.000000 -34.000000 -1.848191E+01
2.000000 -36.000000 -1.813587E+01
2.000000 -38.000000 -6.732415E+00
2.000000 -40.000000 9.087449E+00
4.000000 40.000000 -1.376042E+01
4.000000 38.000000 -5.071989E+00
4.000000 36.000000 -1.627560E+00
4.000000 34.000000 -3.349562E+00
4.000000 32.000000 -1.019764E+01
4.000000 30.000000 -1.184835E+01
4.000000 28.000000 -8.957086E+00
4.000000 26.000000 -5.474582E+00
4.000000 24.000000 -1.038912E+01
4.000000 22.000000 -1.589274E+01
4.000000 20.000000 -1.671678E+01
4.000000 18.000000 -4.379676E+00
4.000000 16.000000 1.697645E+01
4.000000 14.000000 3.782030E+01
4.000000 12.000000 5.333270E+01
4.000000 10.000000 6.079733E+01
4.000000 8.000000 5.179363E+01
4.000000 6.000000 3.209129E+01
4.000000 4.000000 7.580729E+00
4.000000 2.000000 -9.605597E+00
4.000000 0.000000 -1.410222E+01
4.000000 -2.000000 -1.196188E+01
4.000000 -4.000000 -1.203333E+01
4.000000 -6.000000 -1.777790E+01
4.000000 -8.000000 -2.479229E+01
4.000000 -10.000000 -2.945050E+01
4.000000 -12.000000 -2.975041E+01
4.000000 -14.000000 -2.469101E+01
4.000000 -16.000000 -1.870709E+01
4.000000 -18.000000 -1.508621E+01
4.000000 -20.000000 -1.478330E+01
4.000000 -22.000000 -1.562347E+01
4.000000 -24.000000 -1.141860E+01
4.000000 -26.000000 -4.153572E+00
4.000000 -28.000000 -1.038645E+00
4.000000 -30.000000 -5.196121E+00
4.000000 -32.000000 -1.633969E+01
4.000000 -34.000000 -2.699177E+01
4.000000 -36.000000 -2.303339E+01
4.000000 -38.000000 -7.372296E+00
4.000000 -40.000000 1.298690E+01
6.000000 40.000000 -1.503033E+01
6.000000 38.000000 -1.859728E+00
6.000000 36.000000 6.177297E+00
6.000000 34.000000 4.913676E+00
6.000000 32.000000 -6.747856E+00
6.000000 30.000000 -1.338072E+01
6.000000 28.000000 -1.139507E+01
6.000000 26.000000 -4.916630E+00
6.000000 24.000000 -5.232928E+00
6.000000 22.000000 -8.967668E+00
6.000000 20.000000 -1.061553E+01
6.000000 18.000000 7.989359E-01
6.000000 16.000000 2.048327E+01
6.000000 14.000000 3.725788E+01
6.000000 12.000000 5.320977E+01
6.000000 10.000000 6.871928E+01
6.000000 8.000000 6.930864E+01
6.000000 6.000000 5.331051E+01
6.000000 4.000000 2.214210E+01
6.000000 2.000000 -4.672858E+00
6.000000 0.000000 -1.260904E+01
6.000000 -2.000000 -9.697864E+00
6.000000 -4.000000 -7.972415E+00
6.000000 -6.000000 -1.320627E+01
6.000000 -8.000000 -2.302383E+01
6.000000 -10.000000 -3.204216E+01
6.000000 -12.000000 -3.525410E+01
6.000000 -14.000000 -3.099362E+01
6.000000 -16.000000 -2.493453E+01
6.000000 -18.000000 -2.203968E+01
6.000000 -20.000000 -2.472816E+01
6.000000 -22.000000 -2.894833E+01
6.000000 -24.000000 -2.591598E+01
6.000000 -26.000000 -1.750683E+01
6.000000 -28.000000 -1.216063E+01
6.000000 -30.000000 -1.419280E+01
6.000000 -32.000000 -2.366159E+01
6.000000 -34.000000 -3.238226E+01
6.000000 -36.000000 -2.489206E+01
6.000000 -38.000000 -5.712519E+00
6.000000 -40.000000 1.819676E+01
8.000000 40.000000 -1.513968E+01
8.000000 38.000000 2.553501E+00
8.000000 36.000000 1.497032E+01
8.000000 34.000000 1.627399E+01
8.000000 32.000000 3.216157E+00
8.000000 30.000000 -6.231790E+00
8.000000 28.000000 -5.311966E+00
8.000000 26.000000 2.446857E+00
8.000000 24.000000 4.896699E+00
8.000000 22.000000 1.228366E+00
8.000000 20.000000 -1.954018E+00
8.000000 18.000000 6.509974E+00
8.000000 16.000000 2.186561E+01
8.000000 14.000000 3.426077E+01
8.000000 12.000000 5.059818E+01
8.000000 10.000000 7.327429E+01
8.000000 8.000000 8.280542E+01
8.000000 6.000000 6.855755E+01
8.000000 4.000000 2.828158E+01
8.000000 2.000000 -1.043568E+01
8.000000 0.000000 -2.970132E+01
8.000000 -2.000000 -2.898084E+01
8.000000 -4.000000 -2.281585E+01
8.000000 -6.000000 -2.376887E+01
8.000000 -8.000000 -3.205608E+01
8.000000 -10.000000 -4.167028E+01
8.000000 -12.000000 -4.518915E+01
8.000000 -14.000000 -3.942336E+01
8.000000 -16.000000 -3.048502E+01
8.000000 -18.000000 -2.588265E+01
8.000000 -20.000000 -2.875149E+01
8.000000 -22.000000 -3.447638E+01
8.000000 -24.000000 -3.259805E+01
8.000000 -26.000000 -2.324022E+01
8.000000 -28.000000 -1.574901E+01
8.000000 -30.000000 -1.675801E+01
8.000000 -32.000000 -2.599632E+01
8.000000 -34.000000 -3.351622E+01
8.000000 -36.000000 -2.343573E+01
8.000000 -38.000000 -1.841950E+00
8.000000 -40.000000 2.449268E+01
10.000000 40.000000 -1.588533E+01
10.000000 38.000000 6.256131E+00
10.000000 36.000000 2.297108E+01
10.000000 34.000000 2.985620E+01
10.000000 32.000000 2.022543E+01
10.000000 30.000000 1.099449E+01
10.000000 28.000000 9.256301E+00
10.000000 26.000000 1.371675E+01
10.000000 24.000000 1.497233E+01
10.000000 22.000000 1.011916E+01
10.000000 20.000000 5.907903E+00
10.000000 18.000000 9.106962E+00
10.000000 16.000000 1.581449E+01
10.000000 14.000000 2.489448E+01
10.000000 12.000000 4.539872E+01
10.000000 10.000000 7.726623E+01
10.000000 8.000000 9.398033E+01
10.000000 6.000000 7.782366E+01
10.000000 4.000000 2.313499E+01
10.000000 2.000000 -3.301375E+01
10.000000 0.000000 -6.549553E+01
10.000000 -2.000000 -6.512484E+01
10.000000 -4.000000 -5.148593E+01
10.000000 -6.000000 -4.390387E+01
10.000000 -8.000000 -4.754917E+01
10.000000 -10.000000 -5.566833E+01
10.000000 -12.000000 -5.659156E+01
10.000000 -14.000000 -4.544552E+01
10.000000 -16.000000 -3.066743E+01
10.000000 -18.000000 -2.254915E+01
10.000000 -20.000000 -2.424905E+01
10.000000 -22.000000 -3.048215E+01
10.000000 -24.000000 -2.988211E+01
10.000000 -26.000000 -2.057322E+01
10.000000 -28.000000 -1.278955E+01
10.000000 -30.000000 -1.359984E+01
10.000000 -32.000000 -2.319394E+01
10.000000 -34.000000 -3.056944E+01
10.000000 -36.000000 -1.963602E+01
10.000000 -38.000000 3.726553E+00
10.000000 -40.000000 3.210569E+01
12.000000 40.000000 -1.853691E+01
12.000000 38.000000 8.649962E+00
12.000000 36.000000 3.085162E+01
12.000000 34.000000 4.422033E+01
12.000000 32.000000 3.929531E+01
12.000000 30.000000 3.139856E+01
12.000000 28.000000 2.682723E+01
12.000000 26.000000 2.639072E+01
12.000000 24.000000 2.353417E+01
12.000000 22.000000 1.583929E+01
12.000000 20.000000 9.414917E+00
12.000000 18.000000 7.770550E+00
12.000000 16.000000 5.592364E+00
12.000000 14.000000 1.037369E+01
12.000000 12.000000 3.635024E+01
12.000000 10.000000 7.859797E+01
12.000000 8.000000 1.007483E+02
12.000000 6.000000 8.049556E+01
12.000000 4.000000 9.951460E+00
12.000000 2.000000 -6.396914E+01
12.000000 0.000000 -1.041051E+02
12.000000 -2.000000 -1.022621E+02
12.000000 -4.000000 -8.330189E+01
12.000000 -6.000000 -6.674168E+01
12.000000 -8.000000 -6.461506E+01
12.000000 -10.000000 -6.938218E+01
12.000000 -12.000000 -6.506088E+01
12.000000 -14.000000 -4.644912E+01
12.000000 -16.000000 -2.477250E+01
12.000000 -18.000000 -1.315143E+01
12.000000 -20.000000 -1.404526E+01
12.000000 -22.000000 -1.997206E+01
12.000000 -24.000000 -2.055302E+01
12.000000 -26.000000 -1.355949E+01
12.000000 -28.000000 -7.939013E+00
12.000000 -30.000000 -9.003238E+00
12.000000 -32.000000 -1.723871E+01
12.000000 -34.000000 -2.282814E+01
12.000000 -36.000000 -1.103204E+01
12.000000 -38.000000 1.185340E+01
12.000000 -40.000000 3.893601E+01
14.000000 40.000000 -2.124815E+01
14.000000 38.000000 8.888707E+00
14.000000 36.000000 3.524218E+01
14.000000 34.000000 5.394499E+01
14.000000 32.000000 5.330941E+01
14.000000 30.000000 4.665755E+01
14.000000 28.000000 3.996783E+01
14.000000 26.000000 3.609204E+01
14.000000 24.000000 2.999284E+01
14.000000 22.000000 1.948312E+01
14.000000 20.000000 1.050270E+01
14.000000 18.000000 4.294879E+00
14.000000 16.000000 -2.201886E+00
14.000000 14.000000 1.572392E+00
14.000000 12.000000 2.963346E+01
14.000000 10.000000 7.364273E+01
14.000000 8.000000 9.640239E+01
14.000000 6.000000 7.471432E+01
14.000000 4.000000 1.464268E+00
14.000000 2.000000 -7.602469E+01
14.000000 0.000000 -1.233006E+02
14.000000 -2.000000 -1.286290E+02
14.000000 -4.000000 -1.124911E+02
14.000000 -6.000000 -9.254267E+01
14.000000 -8.000000 -8.255852E+01
14.000000 -10.000000 -7.947126E+01
14.000000 -12.000000 -6.928153E+01
14.000000 -14.000000 -4.511112E+01
14.000000 -16.000000 -1.763184E+01
14.000000 -18.000000 -2.925333E+00
14.000000 -20.000000 -3.168766E+00
14.000000 -22.000000 -9.700980E+00
14.000000 -24.000000 -1.299041E+01
14.000000 -26.000000 -9.054424E+00
14.000000 -28.000000 -4.714164E+00
14.000000 -30.000000 -5.504291E+00
14.000000 -32.000000 -1.060186E+01
14.000000 -34.000000 -1.185245E+01
14.000000 -36.000000 2.376096E+00
14.000000 -38.000000 2.216934E+01
14.000000 -40.000000 4.355153E+01
16.000000 40.000000 -2.299714E+01
16.000000 38.000000 6.104339E+00
16.000000 36.000000 3.337556E+01
16.000000 34.000000 5.568685E+01
16.000000 32.000000 5.885907E+01
16.000000 30.000000 5.304032E+01
16.000000 28.000000 4.491948E+01
16.000000 26.000000 3.901497E+01
16.000000 24.000000 3.217595E+01
16.000000 22.000000 2.053866E+01
16.000000 20.000000 1.008232E+01
16.000000 18.000000 -4.023170E-02
16.000000 16.000000 -6.023431E+00
16.000000 14.000000 9.246216E-01
16.000000 12.000000 2.802111E+01
16.000000 10.000000 6.548059E+01
16.000000 8.000000 8.485678E+01
16.000000 6.000000 6.707976E+01
16.000000 4.000000 5.843887E+00
16.000000 2.000000 -6.478903E+01
16.000000 0.000000 -1.182051E+02
16.000000 -2.000000 -1.372038E+02
16.000000 -4.000000 -1.318970E+02
16.000000 -6.000000 -1.151281E+02
16.000000 -8.000000 -9.953803E+01
16.000000 -10.000000 -8.779148E+01
16.000000 -12.000000 -7.080844E+01
16.000000 -14.000000 -4.187625E+01
16.000000 -16.000000 -1.088197E+01
16.000000 -18.000000 4.140247E+00
16.000000 -20.000000 2.371775E+00
16.000000 -22.000000 -5.956936E+00
16.000000 -24.000000 -1.176568E+01
16.000000 -26.000000 -9.034086E+00
16.000000 -28.000000 -4.430912E+00
16.000000 -30.000000 -4.368882E+00
16.000000 -32.000000 -6.167517E+00
16.000000 -34.000000 -2.957413E+00
16.000000 -36.000000 1.406074E+01
16.000000 -38.000000 3.107494E+01
16.000000 -40.000000 4.696595E+01
18.000000 40.000000 -2.611359E+01
18.000000 38.000000 5.780449E-01
18.000000 36.000000 2.718483E+01
18.000000 34.000000 5.116567E+01
18.000000 32.000000 5.645915E+01
18.000000 30.000000 5.081394E+01
18.000000 28.000000 4.174868E+01
18.000000 26.000000 3.509700E+01
18.000000 24.000000 2.823271E+01
18.000000 22.000000 1.693977E+01
18.000000 20.000000 6.860235E+00
18.000000 18.000000 -3.975011E+00
18.000000 16.000000 -7.276577E+00
18.000000 14.000000 3.737080E+00
18.000000 12.000000 3.065050E+01
18.000000 10.000000 6.155799E+01
18.000000 8.000000 7.732407E+01
18.000000 6.000000 6.561600E+01
18.000000 4.000000 2.036374E+01
18.000000 2.000000 -4.137590E+01
18.000000 0.000000 -9.716808E+01
18.000000 -2.000000 -1.286523E+02
18.000000 -4.000000 -1.367416E+02
18.000000 -6.000000 -1.281861E+02
18.000000 -8.000000 -1.133574E+02
18.000000 -10.000000 -9.569172E+01
18.000000 -12.000000 -6.992050E+01
18.000000 -14.000000 -3.644800E+01
18.000000 -16.000000 -5.842049E+00
18.000000 -18.000000 6.138273E+00
18.000000 -20.000000 4.588852E-01
18.000000 -22.000000 -1.014214E+01
18.000000 -24.000000 -1.552132E+01
18.000000 -26.000000 -1.205288E+01
18.000000 -28.000000 -7.460671E+00
18.000000 -30.000000 -6.804195E+00
18.000000 -32.000000 -6.447193E+00
18.000000 -34.000000 -1.573048E-01
18.000000 -36.000000 1.886054E+01
18.000000 -38.000000 3.541721E+01
18.000000 -40.000000 4.951057E+01
20.000000 40.000000 -3.203166E+01
20.000000 38.000000 -7.603222E+00
20.000000 36.000000 1.810307E+01
20.000000 34.000000 4.247164E+01
20.000000 32.000000 4.875313E+01
20.000000 30.000000 4.298572E+01
20.000000 28.000000 3.280396E+01
20.000000 26.000000 2.524251E+01
20.000000 24.000000 1.797013E+01
20.000000 22.000000 8.626570E+00
20.000000 20.000000 7.079163E-01
20.000000 18.000000 -8.176390E+00
20.000000 16.000000 -7.459087E+00
20.000000 14.000000 8.420033E+00
20.000000 12.000000 3.712767E+01
20.000000 10.000000 6.629883E+01
20.000000 8.000000 7.971565E+01
20.000000 6.000000 7.115885E+01
20.000000 4.000000 3.490020E+01
20.000000 2.000000 -1.917447E+01
20.000000 0.000000 -7.283896E+01
20.000000 -2.000000 -1.098788E+02
20.000000 -4.000000 -1.283424E+02
20.000000 -6.000000 -1.312412E+02
20.000000 -8.000000 -1.220596E+02
20.000000 -10.000000 -1.034347E+02
20.000000 -12.000000 -7.094723E+01
20.000000 -14.000000 -3.273799E+01
20.000000 -16.000000 -3.063190E+00
20.000000 -18.000000 4.350533E+00
20.000000 -20.000000 -6.181921E+00
20.000000 -22.000000 -1.854017E+01
20.000000 -24.000000 -2.128799E+01
20.000000 -26.000000 -1.579953E+01
20.000000 -28.000000 -1.122401E+01
20.000000 -30.000000 -1.151135E+01
20.000000 -32.000000 -1.185184E+01
20.000000 -34.000000 -4.268610E+00
20.000000 -36.000000 1.635698E+01
20.000000 -38.000000 3.459921E+01
20.000000 -40.000000 4.992759E+01
22.000000 40.000000 -4.029880E+01
22.000000 38.000000 -1.801209E+01
22.000000 36.000000 7.016459E+00
22.000000 34.000000 3.150636E+01
22.000000 32.000000 3.862334E+01
22.000000 30.000000 3.270267E+01
22.000000 28.000000 2.111449E+01
22.000000 26.000000 1.135193E+01
22.000000 24.000000 2.833946E+00
22.000000 22.000000 -3.065704E+00
22.000000 20.000000 -7.174208E+00
22.000000 18.000000 -1.143990E+01
22.000000 16.000000 -6.695415E+00
22.000000 14.000000 1.206003E+01
22.000000 12.000000 4.139384E+01
22.000000 10.000000 7.154940E+01
22.000000 8.000000 8.449715E+01
22.000000 6.000000 7.755231E+01
22.000000 4.000000 4.407229E+01
22.000000 2.000000 -5.222118E+00
22.000000 0.000000 -5.387387E+01
22.000000 -2.000000 -9.008189E+01
22.000000 -4.000000 -1.132679E+02
22.000000 -6.000000 -1.255297E+02
22.000000 -8.000000 -1.242981E+02
22.000000 -10.000000 -1.094132E+02
22.000000 -12.000000 -7.458576E+01
22.000000 -14.000000 -3.285209E+01
22.000000 -16.000000 -2.503803E+00
22.000000 -18.000000 1.613188E+00
22.000000 -20.000000 -1.306824E+01
22.000000 -22.000000 -2.623812E+01
22.000000 -24.000000 -2.567564E+01
22.000000 -26.000000 -1.743280E+01
22.000000 -28.000000 -1.312302E+01
22.000000 -30.000000 -1.631037E+01
22.000000 -32.000000 -2.010702E+01
22.000000 -34.000000 -1.313010E+01
22.000000 -36.000000 8.692030E+00
22.000000 -38.000000 2.938710E+01
22.000000 -40.000000 4.674034E+01
24.000000 40.000000 -4.947250E+01
24.000000 38.000000 -2.899957E+01
24.000000 36.000000 -4.467449E+00
24.000000 34.000000 2.011834E+01
24.000000 32.000000 2.729190E+01
24.000000 30.000000 2.055663E+01
24.000000 28.000000 7.871347E+00
24.000000 26.000000 -3.960348E+00
24.000000 24.000000 -1.423194E+01
24.000000 22.000000 -1.559620E+01
24.000000 20.000000 -1.405974E+01
24.000000 18.000000 -1.296356E+01
24.000000 16.000000 -6.341139E+00
24.000000 14.000000 1.135629E+01
24.000000 12.000000 3.759542E+01
24.000000 10.000000 6.647453E+01
24.000000 8.000000 8.046174E+01
24.000000 6.000000 7.588132E+01
24.000000 4.000000 4.467411E+01
24.000000 2.000000 -5.801754E-01
24.000000 0.000000 -4.289049E+01
24.000000 -2.000000 -7.494917E+01
24.000000 -4.000000 -9.790651E+01
24.000000 -6.000000 -1.144687E+02
24.000000 -8.000000 -1.200675E+02
24.000000 -10.000000 -1.110295E+02
24.000000 -12.000000 -7.802698E+01
24.000000 -14.000000 -3.588305E+01
24.000000 -16.000000 -4.371004E+00
24.000000 -18.000000 -1.579475E-02
24.000000 -20.000000 -1.512150E+01
24.000000 -22.000000 -2.799286E+01
24.000000 -24.000000 -2.539527E+01
24.000000 -26.000000 -1.528521E+01
24.000000 -28.000000 -1.226080E+01
24.000000 -30.000000 -1.957284E+01
24.000000 -32.000000 -2.801534E+01
24.000000 -34.000000 -2.334604E+01
24.000000 -36.000000 -1.358610E+00
24.000000 -38.000000 2.110138E+01
24.000000 -40.000000 3.942168E+01
26.000000 40.000000 -5.711447E+01
26.000000 38.000000 -3.877864E+01
26.000000 36.000000 -1.547295E+01
26.000000 34.000000 8.320324E+00
26.000000 32.000000 1.496123E+01
26.000000 30.000000 7.425549E+00
26.000000 28.000000 -6.311132E+00
26.000000 26.000000 -1.898804E+01
26.000000 24.000000 -2.966379E+01
26.000000 22.000000 -2.778101E+01
26.000000 20.000000 -2.042671E+01
26.000000 18.000000 -1.370924E+01
26.000000 16.000000 -6.832508E+00
26.000000 14.000000 5.603977E+00
26.000000 12.000000 2.443151E+01
26.000000 10.000000 4.743014E+01
26.000000 8.000000 6.224133E+01
26.000000 6.000000 6.044522E+01
26.000000 4.000000 3.479521E+01
26.000000 2.000000 -3.054569E+00
26.000000 0.000000 -3.857928E+01
26.000000 -2.000000 -6.581765E+01
26.000000 -4.000000 -8.582281E+01
26.000000 -6.000000 -1.024969E+02
26.000000 -8.000000 -1.111689E+02
26.000000 -10.000000 -1.067682E+02
26.000000 -12.000000 -7.838566E+01
26.000000 -14.000000 -3.762368E+01
26.000000 -16.000000 -4.592033E+00
26.000000 -18.000000 2.475147E+00
26.000000 -20.000000 -1.033005E+01
26.000000 -22.000000 -2.265733E+01
26.000000 -24.000000 -2.030773E+01
26.000000 -26.000000 -9.488039E+00
26.000000 -28.000000 -7.753447E+00
26.000000 -30.000000 -2.055313E+01
26.000000 -32.000000 -3.498609E+01
26.000000 -34.000000 -3.349465E+01
26.000000 -36.000000 -1.180931E+01
26.000000 -38.000000 1.148176E+01
26.000000 -40.000000 2.929266E+01
28.000000 40.000000 -6.203122E+01
28.000000 38.000000 -4.642153E+01
28.000000 36.000000 -2.483531E+01
28.000000 34.000000 -2.805235E+00
28.000000 32.000000 2.915953E+00
28.000000 30.000000 -4.901003E+00
28.000000 28.000000 -1.975511E+01
28.000000 26.000000 -3.256183E+01
28.000000 24.000000 -4.326490E+01
28.000000 22.000000 -4.087862E+01
28.000000 20.000000 -2.996542E+01
28.000000 18.000000 -1.712617E+01
28.000000 16.000000 -8.863396E+00
28.000000 14.000000 -2.796824E+00
28.000000 12.000000 7.367655E+00
28.000000 10.000000 2.219369E+01
28.000000 8.000000 3.639920E+01
28.000000 6.000000 3.675541E+01
28.000000 4.000000 1.767381E+01
28.000000 2.000000 -1.205619E+01
28.000000 0.000000 -4.060541E+01
28.000000 -2.000000 -6.227594E+01
28.000000 -4.000000 -7.806170E+01
28.000000 -6.000000 -9.082009E+01
28.000000 -8.000000 -9.894661E+01
28.000000 -10.000000 -9.716876E+01
28.000000 -12.000000 -7.401536E+01
28.000000 -14.000000 -3.411583E+01
28.000000 -16.000000 6.062069E-01
28.000000 -18.000000 1.029107E+01
28.000000 -20.000000 -5.263920E-01
28.000000 -22.000000 -1.294392E+01
28.000000 -24.000000 -1.217981E+01
28.000000 -26.000000 -2.389370E+00
28.000000 -28.000000 -2.223112E+00
28.000000 -30.000000 -2.041673E+01
28.000000 -32.000000 -4.056367E+01
28.000000 -34.000000 -4.228430E+01
28.000000 -36.000000 -2.181090E+01
28.000000 -38.000000 1.481135E+00
28.000000 -40.000000 1.858438E+01
30.000000 40.000000 -6.507367E+01
30.000000 38.000000 -5.192471E+01
30.000000 36.000000 -3.128208E+01
30.000000 34.000000 -1.077263E+01
30.000000 32.000000 -6.473816E+00
30.000000 30.000000 -1.464910E+01
30.000000 28.000000 -3.012274E+01
30.000000 26.000000 -4.415452E+01
30.000000 24.000000 -5.802657E+01
30.000000 22.000000 -5.663813E+01
30.000000 20.000000 -4.403138E+01
30.000000 18.000000 -2.418162E+01
30.000000 16.000000 -1.118269E+01
30.000000 14.000000 -7.264381E+00
30.000000 12.000000 -1.257771E+00
30.000000 10.000000 7.860327E+00
30.000000 8.000000 1.991168E+01
30.000000 6.000000 1.978092E+01
30.000000 4.000000 2.272749E+00
30.000000 2.000000 -2.375778E+01
30.000000 0.000000 -4.764716E+01
30.000000 -2.000000 -6.382734E+01
30.000000 -4.000000 -7.577727E+01
30.000000 -6.000000 -8.338392E+01
30.000000 -8.000000 -8.802122E+01
30.000000 -10.000000 -8.616626E+01
30.000000 -12.000000 -6.716810E+01
30.000000 -14.000000 -3.017048E+01
30.000000 -16.000000 4.127724E+00
30.000000 -18.000000 1.681993E+01
30.000000 -20.000000 9.701147E+00
30.000000 -22.000000 -1.565437E+00
30.000000 -24.000000 -2.842505E+00
30.000000 -26.000000 2.652376E+00
30.000000 -28.000000 -3.581905E-01
30.000000 -30.000000 -1.979677E+01
30.000000 -32.000000 -4.168316E+01
30.000000 -34.000000 -4.674149E+01
30.000000 -36.000000 -3.037737E+01
30.000000 -38.000000 -8.391857E+00
30.000000 -40.000000 9.203207E+00
32.000000 40.000000 -6.690011E+01
32.000000 38.000000 -5.504597E+01
32.000000 36.000000 -3.541955E+01
32.000000 34.000000 -1.598087E+01
32.000000 32.000000 -1.159032E+01
32.000000 30.000000 -1.895524E+01
32.000000 28.000000 -3.549817E+01
32.000000 26.000000 -5.304586E+01
32.000000 24.000000 -7.295010E+01
32.000000 22.000000 -7.443020E+01
32.000000 20.000000 -6.054636E+01
32.000000 18.000000 -3.404306E+01
32.000000 16.000000 -1.234821E+01
32.000000 14.000000 -4.930840E-01
32.000000 12.000000 9.694942E+00
32.000000 10.000000 1.836665E+01
32.000000 8.000000 2.521361E+01
32.000000 6.000000 1.967323E+01
32.000000 4.000000 -3.766933E+00
32.000000 2.000000 -3.229778E+01
32.000000 0.000000 -5.585427E+01
32.000000 -2.000000 -6.767200E+01
32.000000 -4.000000 -7.663630E+01
32.000000 -6.000000 -8.204993E+01
32.000000 -8.000000 -8.231954E+01
32.000000 -10.000000 -7.950110E+01
32.000000 -12.000000 -6.518415E+01
32.000000 -14.000000 -3.563345E+01
32.000000 -16.000000 -3.527266E+00
32.000000 -18.000000 1.360444E+01
32.000000 -20.000000 1.251160E+01
32.000000 -22.000000 4.513584E+00
32.000000 -24.000000 2.435156E+00
32.000000 -26.000000 4.739876E+00
32.000000 -28.000000 5.725250E-01
32.000000 -30.000000 -1.665079E+01
32.000000 -32.000000 -3.754690E+01
32.000000 -34.000000 -4.579041E+01
32.000000 -36.000000 -3.571241E+01
32.000000 -38.000000 -1.608355E+01
32.000000 -40.000000 2.623822E+00
34.000000 40.000000 -6.769618E+01
34.000000 38.000000 -5.597741E+01
34.000000 36.000000 -3.840449E+01
34.000000 34.000000 -1.980194E+01
34.000000 32.000000 -1.248556E+01
34.000000 30.000000 -1.675207E+01
34.000000 28.000000 -3.370640E+01
34.000000 26.000000 -5.483483E+01
34.000000 24.000000 -8.165633E+01
34.000000 22.000000 -8.882235E+01
34.000000 20.000000 -7.609577E+01
34.000000 18.000000 -4.468264E+01
34.000000 16.000000 -1.057513E+01
34.000000 14.000000 1.674613E+01
34.000000 12.000000 3.550654E+01
34.000000 10.000000 4.454551E+01
34.000000 8.000000 4.108171E+01
34.000000 6.000000 2.634594E+01
34.000000 4.000000 -5.257250E+00
34.000000 2.000000 -3.783545E+01
34.000000 0.000000 -5.997516E+01
34.000000 -2.000000 -6.656078E+01
34.000000 -4.000000 -7.066959E+01
34.000000 -6.000000 -7.433717E+01
34.000000 -8.000000 -7.574644E+01
34.000000 -10.000000 -7.798342E+01
34.000000 -12.000000 -7.197607E+01
34.000000 -14.000000 -5.056217E+01
34.000000 -16.000000 -2.148367E+01
34.000000 -18.000000 -2.250494E+00
34.000000 -20.000000 1.137609E+00
34.000000 -22.000000 -2.310692E+00
34.000000 -24.000000 -1.144424E+00
34.000000 -26.000000 4.232128E+00
34.000000 -28.000000 3.715998E+00
34.000000 -30.000000 -9.882240E+00
34.000000 -32.000000 -2.905312E+01
34.000000 -34.000000 -3.967986E+01
34.000000 -36.000000 -3.574716E+01
34.000000 -38.000000 -1.935631E+01
34.000000 -40.000000 -8.804235E-01
36.000000 40.000000 -6.731849E+01
36.000000 38.000000 -5.527876E+01
36.000000 36.000000 -3.965589E+01
36.000000 34.000000 -2.180666E+01
36.000000 32.000000 -1.090962E+01
36.000000 30.000000 -1.046029E+01
36.000000 28.000000 -2.482337E+01
36.000000 26.000000 -4.679123E+01
36.000000 24.000000 -7.881134E+01
36.000000 22.000000 -9.203673E+01
36.000000 20.000000 -8.366633E+01
36.000000 18.000000 -5.101491E+01
36.000000 16.000000 -7.380089E+00
36.000000 14.000000 3.166334E+01
36.000000 12.000000 5.674051E+01
36.000000 10.000000 6.361803E+01
36.000000 8.000000 5.052870E+01
36.000000 6.000000 2.874637E+01
36.000000 4.000000 -7.509842E+00
36.000000 2.000000 -4.067227E+01
36.000000 0.000000 -5.761730E+01
36.000000 -2.000000 -5.760880E+01
36.000000 -4.000000 -5.525431E+01
36.000000 -6.000000 -5.699698E+01
36.000000 -8.000000 -6.434875E+01
36.000000 -10.000000 -7.587340E+01
36.000000 -12.000000 -8.010642E+01
36.000000 -14.000000 -6.736037E+01
36.000000 -16.000000 -4.384654E+01
36.000000 -18.000000 -2.670278E+01
36.000000 -20.000000 -2.167530E+01
36.000000 -22.000000 -2.075103E+01
36.000000 -24.000000 -1.238709E+01
36.000000 -26.000000 1.406473E+00
36.000000 -28.000000 7.948523E+00
36.000000 -30.000000 3.340902E-01
36.000000 -32.000000 -1.655619E+01
36.000000 -34.000000 -2.964511E+01
36.000000 -36.000000 -2.996526E+01
36.000000 -38.000000 -1.753891E+01
36.000000 -40.000000 -2.030551E+00
38.000000 40.000000 -6.495303E+01
38.000000 38.000000 -5.291103E+01
38.000000 36.000000 -3.898480E+01
38.000000 34.000000 -2.214557E+01
38.000000 32.000000 -9.034293E+00
38.000000 30.000000 -3.924335E+00
38.000000 28.000000 -1.299654E+01
38.000000 26.000000 -3.120626E+01
38.000000 24.000000 -6.075760E+01
38.000000 22.000000 -7.787900E+01
38.000000 20.000000 -7.589466E+01
38.000000 18.000000 -4.915295E+01
38.000000 16.000000 -7.453730E+00
38.000000 14.000000 3.186009E+01
38.000000 12.000000 5.551008E+01
38.000000 10.000000 5.998116E+01
38.000000 8.000000 4.528329E+01
38.000000 6.000000 2.129915E+01
38.000000 4.000000 -1.352601E+01
38.000000 2.000000 -4.057599E+01
38.000000 0.000000 -5.073759E+01
38.000000 -2.000000 -4.544189E+01
38.000000 -4.000000 -3.876326E+01
38.000000 -6.000000 -3.995191E+01
38.000000 -8.000000 -4.953786E+01
38.000000 -10.000000 -6.638575E+01
38.000000 -12.000000 -8.037324E+01
38.000000 -14.000000 -7.768581E+01
38.000000 -16.000000 -6.156914E+01
38.000000 -18.000000 -4.890879E+01
38.000000 -20.000000 -4.464376E+01
38.000000 -22.000000 -4.138208E+01
38.000000 -24.000000 -2.642119E+01
38.000000 -26.000000 -2.973391E+00
38.000000 -28.000000 1.281735E+01
38.000000 -30.000000 1.191238E+01
38.000000 -32.000000 -3.498173E+00
38.000000 -34.000000 -1.900889E+01
38.000000 -36.000000 -2.124162E+01
38.000000 -38.000000 -1.199980E+01
38.000000 -40.000000 -7.208929E-01
40.000000 40.000000 -6.030687E+01
40.000000 38.000000 -4.906334E+01
40.000000 36.000000 -3.705675E+01
40.000000 34.000000 -2.208128E+01
40.000000 32.000000 -8.790378E+00
40.000000 30.000000 -1.163368E-01
40.000000 28.000000 -1.668257E+00
40.000000 26.000000 -1.102619E+01
40.000000 24.000000 -3.068450E+01
40.000000 22.000000 -4.980209E+01
40.000000 20.000000 -5.573702E+01
40.000000 18.000000 -4.191373E+01
40.000000 16.000000 -1.361128E+01
40.000000 14.000000 1.581602E+01
40.000000 12.000000 3.446804E+01
40.000000 10.000000 3.844109E+01
40.000000 8.000000 2.600302E+01
40.000000 6.000000 3.019548E+00
40.000000 4.000000 -2.642124E+01
40.000000 2.000000 -4.391822E+01
40.000000 0.000000 -4.472621E+01
40.000000 -2.000000 -3.259129E+01
40.000000 -4.000000 -2.182193E+01
40.000000 -6.000000 -2.209927E+01
40.000000 -8.000000 -3.243847E+01
40.000000 -10.000000 -5.085434E+01
40.000000 -12.000000 -7.013408E+01
40.000000 -14.000000 -7.522159E+01
40.000000 -16.000000 -6.765086E+01
40.000000 -18.000000 -6.194917E+01
40.000000 -20.000000 -6.059671E+01
40.000000 -22.000000 -5.607480E+01
40.000000 -24.000000 -3.629807E+01
40.000000 -26.000000 -6.053854E+00
40.000000 -28.000000 1.611016E+01
40.000000 -30.000000 1.947276E+01
40.000000 -32.000000 5.593665E+00
40.000000 -34.000000 -1.009808E+01
40.000000 -36.000000 -1.247143E+01
40.000000 -38.000000 -5.038259E+00
40.000000 -40.000000 2.910011E+00
42.000000 40.000000 -5.413259E+01
42.000000 38.000000 -4.416975E+01
42.000000 36.000000 -3.461457E+01
42.000000 34.000000 -2.307279E+01
42.000000 32.000000 -1.082989E+01
42.000000 30.000000 1.364170E+00
42.000000 28.000000 8.509045E+00
42.000000 26.000000 9.540134E+00
42.000000 24.000000 5.718555E-01
42.000000 22.000000 -1.958460E+01
42.000000 20.000000 -3.379601E+01
42.000000 18.000000 -3.524780E+01
42.000000 16.000000 -2.405844E+01
42.000000 14.000000 -8.301414E+00
42.000000 12.000000 5.095551E+00
42.000000 10.000000 9.825710E+00
42.000000 8.000000 2.742025E+00
42.000000 6.000000 -1.595014E+01
42.000000 4.000000 -3.908401E+01
42.000000 2.000000 -4.760082E+01
42.000000 0.000000 -3.863583E+01
42.000000 -2.000000 -1.884922E+01
42.000000 -4.000000 -4.221079E+00
42.000000 -6.000000 -3.365895E+00
42.000000 -8.000000 -1.523368E+01
