-26.000000 -2.000000 -3.181863E+01
-26.000000 -4.000000 -2.977724E+01
-26.000000 -6.000000 -2.596847E+01
-26.000000 -8.000000 -1.628539E+01
-26.000000 -10.000000 8.925960E-01
-26.000000 -12.000000 1.889619E+01
-26.000000 -14.000000 3.137233E+01
-26.000000 -16.000000 3.953395E+01
-26.000000 -18.000000 4.938892E+01
-26.000000 -20.000000 6.129747E+01
-26.000000 -22.000000 6.941490E+01
-26.000000 -24.000000 6.138996E+01
-26.000000 -26.000000 4.176196E+01
-26.000000 -28.000000 3.320562E+01
-26.000000 -30.000000 3.413305E+01
-26.000000 -32.000000 3.678332E+01
-26.000000 -34.000000 3.061281E+01
-26.000000 -36.000000 1.244650E+01
-26.000000 -38.000000 -4.168612E+00
-26.000000 -40.000000 -1.494789E+01
-24.000000 40.000000 -9.518230E+00
-24.000000 38.000000 -7.133335E+00
-24.000000 36.000000 1.762390E-03
-24.000000 34.000000 7.150925E+00
-24.000000 32.000000 6.423458E+00
-24.000000 30.000000 3.852852E+00
-24.000000 28.000000 -6.750374E-01
-24.000000 26.000000 -5.993050E+00
-24.000000 24.000000 -1.481748E+01
-24.000000 22.000000 -1.999407E+01
-24.000000 20.000000 -1.697225E+01
-24.000000 18.000000 -5.356646E+00
-24.000000 16.000000 9.038582E+00
-24.000000 14.000000 1.550866E+01
-24.000000 12.000000 5.235666E+00
-24.000000 10.000000 -1.697095E+01
-24.000000 8.000000 -4.234253E+01
-24.000000 6.000000 -5.870856E+01
-24.000000 4.000000 -5.811511E+01
-24.000000 2.000000 -4.579028E+01
-24.000000 0.000000 -3.444373E+01
-24.000000 -2.000000 -2.788987E+01
-24.000000 -4.000000 -2.383288E+01
-24.000000 -6.000000 -2.082649E+01
-24.000000 -8.000000 -1.468188E+01
-24.000000 -10.000000 -2.195539E+00
-24.000000 -12.000000 1.233375E+01
-24.000000 -14.000000 2.302197E+01
-24.000000 -16.000000 2.828751E+01
-24.000000 -18.000000 3.238212E+01
-24.000000 -20.000000 3.852187E+01
-24.000000 -22.000000 4.543483E+01
-24.000000 -24.000000 4.160322E+01
-24.000000 -26.000000 2.846349E+01
-24.000000 -28.000000 1.982381E+01
-24.000000 -30.000000 1.982252E+01
-24.000000 -32.000000 2.357240E+01
-24.000000 -34.000000 2.099689E+01
-24.000000 -36.000000 8.721307E+00
-24.000000 -38.000000 -6.159209E+00
-24.000000 -40.000000 -1.522040E+01
-22.000000 40.000000 -9.299206E+00
-22.000000 38.000000 -6.806229E+00
-22.000000 36.000000 -5.010452E-01
-22.000000 34.000000 3.557560E+00
-22.000000 32.000000 -6.002884E-01
-22.000000 30.000000 -5.503206E+00
-22.000000 28.000000 -9.838636E+00
-22.000000 26.000000 -1.414001E+01
-22.000000 24.000000 -2.426581E+01
-22.000000 22.000000 -3.219563E+01
-22.000000 20.000000 -3.257926E+01
-22.000000 18.000000 -2.204017E+01
-22.000000 16.000000 -7.785238E+00
-22.000000 14.000000 -1.019503E+00
-22.000000 12.000000 -8.064972E+00
-22.000000 10.000000 -2.490398E+01
-22.000000 8.000000 -4.260123E+01
-22.000000 6.000000 -5.005499E+01
-22.000000 4.000000 -4.364987E+01
-22.000000 2.000000 -2.966121E+01
-22.000000 0.000000 -1.803154E+01
-22.000000 -2.000000 -1.363956E+01
-22.000000 -4.000000 -1.202993E+01
-22.000000 -6.000000 -1.271630E+01
-22.000000 -8.000000 -1.359259E+01
-22.000000 -10.000000 -9.563382E+00
-22.000000 -12.000000 1.763035E+00
-22.000000 -14.000000 1.230079E+01
-22.000000 -16.000000 1.698501E+01
-22.000000 -18.000000 1.766402E+01
-22.000000 -20.000000 1.941520E+01
-22.000000 -22.000000 2.560360E+01
-22.000000 -24.000000 2.571199E+01
-22.000000 -26.000000 1.530953E+01
-22.000000 -28.000000 4.842743E+00
-22.000000 -30.000000 2.863693E+00
-22.000000 -32.000000 7.098073E+00
-22.000000 -34.000000 8.391295E+00
-22.000000 -36.000000 2.646690E+00
-22.000000 -38.000000 -7.482229E+00
-22.000000 -40.000000 -1.401197E+01
-20.000000 40.000000 -9.119652E+00
-20.000000 38.000000 -7.213163E+00
-20.000000 36.000000 -3.277813E+00
-20.000000 34.000000 -3.962746E+00
-20.000000 32.000000 -1.094817E+01
-20.000000 30.000000 -1.519730E+01
-20.000000 28.000000 -1.687059E+01
-20.000000 26.000000 -1.927143E+01
-20.000000 24.000000 -3.078599E+01
-20.000000 22.000000 -4.176820E+01
-20.000000 20.000000 -4.423928E+01
-20.000000 18.000000 -3.422385E+01
-20.000000 16.000000 -2.263211E+01
-20.000000 14.000000 -1.819389E+01
-20.000000 12.000000 -2.482427E+01
-20.000000 10.000000 -3.806201E+01
-20.000000 8.000000 -4.715009E+01
-20.000000 6.000000 -4.409250E+01
-20.000000 4.000000 -2.864595E+01
-20.000000 2.000000 -1.019176E+01
-20.000000 0.000000 3.790939E+00
-20.000000 -2.000000 7.061934E+00
-20.000000 -4.000000 5.530752E+00
-20.000000 -6.000000 -7.232599E-01
-20.000000 -8.000000 -9.321853E+00
-20.000000 -10.000000 -1.218401E+01
-20.000000 -12.000000 -4.415381E+00
-20.000000 -14.000000 4.601813E+00
-20.000000 -16.000000 7.700929E+00
-20.000000 -18.000000 5.328718E+00
-20.000000 -20.000000 4.809387E+00
-20.000000 -22.000000 1.032250E+01
-20.000000 -24.000000 1.226816E+01
-20.000000 -26.000000 2.914882E+00
-20.000000 -28.000000 -9.374221E+00
-20.000000 -30.000000 -1.308677E+01
-20.000000 -32.000000 -8.736759E+00
-20.000000 -34.000000 -4.458261E+00
-20.000000 -36.000000 -4.825498E+00
-20.000000 -38.000000 -1.040184E+01
-20.000000 -40.000000 -1.418068E+01
-18.000000 40.000000 -1.054098E+01
-18.000000 38.000000 -9.560581E+00
-18.000000 36.000000 -8.570398E+00
-18.000000 34.000000 -1.305079E+01
-18.000000 32.000000 -2.062651E+01
-18.000000 30.000000 -2.113327E+01
-18.000000 28.000000 -1.876358E+01
-18.000000 26.000000 -1.981223E+01
-18.000000 24.000000 -3.259741E+01
-18.000000 22.000000 -4.446576E+01
-18.000000 20.000000 -4.584281E+01
-18.000000 18.000000 -3.563445E+01
-18.000000 16.000000 -2.747621E+01
-18.000000 14.000000 -2.749054E+01
-18.000000 12.000000 -3.852401E+01
-18.000000 10.000000 -5.342143E+01
-18.000000 8.000000 -5.555520E+01
-18.000000 6.000000 -4.165349E+01
-18.000000 4.000000 -1.647745E+01
-18.000000 2.000000 5.277155E+00
-18.000000 0.000000 1.821066E+01
-18.000000 -2.000000 1.773119E+01
-18.000000 -4.000000 1.173636E+01
-18.000000 -6.000000 3.279696E+00
-18.000000 -8.000000 -5.282386E+00
-18.000000 -10.000000 -7.158212E+00
-18.000000 -12.000000 -3.319421E+00
-18.000000 -14.000000 -5.826168E-01
-18.000000 -16.000000 -2.975492E+00
-18.000000 -18.000000 -7.806072E+00
-18.000000 -20.000000 -6.680754E+00
-18.000000 -22.000000 1.164474E-01
-18.000000 -24.000000 2.073644E+00
-18.000000 -26.000000 -7.385033E+00
-18.000000 -28.000000 -1.998401E+01
-18.000000 -30.000000 -2.398219E+01
-18.000000 -32.000000 -2.009248E+01
-18.000000 -34.000000 -1.450024E+01
-18.000000 -36.000000 -1.215212E+01
-18.000000 -38.000000 -1.448947E+01
-18.000000 -40.000000 -1.594653E+01
-16.000000 40.000000 -1.478946E+01
-16.000000 38.000000 -1.434016E+01
-16.000000 36.000000 -1.463958E+01
-16.000000 34.000000 -1.846814E+01
-16.000000 32.000000 -2.325826E+01
-16.000000 30.000000 -1.959564E+01
-16.000000 28.000000 -1.414033E+01
-16.000000 26.000000 -1.489262E+01
-16.000000 24.000000 -2.857146E+01
-16.000000 22.000000 -4.023657E+01
-16.000000 20.000000 -3.948755E+01
-16.000000 18.000000 -2.848394E+01
-16.000000 16.000000 -2.340952E+01
-16.000000 14.000000 -2.936557E+01
-16.000000 12.000000 -4.733952E+01
-16.000000 10.000000 -6.743454E+01
-16.000000 8.000000 -6.530149E+01
-16.000000 6.000000 -4.235047E+01
-16.000000 4.000000 -9.532202E+00
-16.000000 2.000000 1.441945E+01
-16.000000 0.000000 2.456625E+01
-16.000000 -2.000000 1.728042E+01
-16.000000 -4.000000 3.605520E+00
-16.000000 -6.000000 -6.662105E+00
-16.000000 -8.000000 -1.086530E+01
-16.000000 -10.000000 -8.432464E+00
-16.000000 -12.000000 -5.531102E+00
-16.000000 -14.000000 -7.130105E+00
-16.000000 -16.000000 -1.428662E+01
-16.000000 -18.000000 -2.012073E+01
-16.000000 -20.000000 -1.614433E+01
-16.000000 -22.000000 -7.385476E+00
-16.000000 -24.000000 -5.558769E+00
-16.000000 -26.000000 -1.525650E+01
-16.000000 -28.000000 -2.676402E+01
-16.000000 -30.000000 -2.952927E+01
-16.000000 -32.000000 -2.501166E+01
-16.000000 -34.000000 -1.844272E+01
-16.000000 -36.000000 -1.597358E+01
-16.000000 -38.000000 -1.784471E+01
-16.000000 -40.000000 -1.852759E+01
-14.000000 40.000000 -2.141055E+01
-14.000000 38.000000 -2.060462E+01
-14.000000 36.000000 -1.924109E+01
-14.000000 34.000000 -1.801269E+01
-14.000000 32.000000 -1.812141E+01
-14.000000 30.000000 -1.085433E+01
-14.000000 28.000000 -3.421635E+00
-14.000000 26.000000 -4.554771E+00
-14.000000 24.000000 -1.785393E+01
-14.000000 22.000000 -2.989706E+01
-14.000000 20.000000 -2.884237E+01
-14.000000 18.000000 -1.897259E+01
-14.000000 16.000000 -1.814376E+01
-14.000000 14.000000 -3.053829E+01
-14.000000 12.000000 -5.606691E+01
-14.000000 10.000000 -8.126921E+01
-14.000000 8.000000 -7.755318E+01
-14.000000 6.000000 -4.843345E+01
-14.000000 4.000000 -1.066742E+01
-14.000000 2.000000 1.387766E+01
-14.000000 0.000000 2.194741E+01
-14.000000 -2.000000 9.802708E+00
-14.000000 -4.000000 -1.045538E+01
-14.000000 -6.000000 -2.427372E+01
-14.000000 -8.000000 -2.572054E+01
-14.000000 -10.000000 -1.932173E+01
-14.000000 -12.000000 -1.363960E+01
-14.000000 -14.000000 -1.529008E+01
-14.000000 -16.000000 -2.370146E+01
-14.000000 -18.000000 -2.822743E+01
-14.000000 -20.000000 -2.180468E+01
-14.000000 -22.000000 -1.207832E+01
-14.000000 -24.000000 -1.057816E+01
-14.000000 -26.000000 -1.984369E+01
-14.000000 -28.000000 -2.939740E+01
-14.000000 -30.000000 -3.100366E+01
-14.000000 -32.000000 -2.477898E+01
-14.000000 -34.000000 -1.748001E+01
-14.000000 -36.000000 -1.632529E+01
-14.000000 -38.000000 -1.972233E+01
-14.000000 -40.000000 -2.131698E+01
-12.000000 40.000000 -2.756267E+01
-12.000000 38.000000 -2.523785E+01
-12.000000 36.000000 -2.031979E+01
-12.000000 34.000000 -1.405457E+01
-12.000000 32.000000 -1.105735E+01
-12.000000 30.000000 -1.666504E+00
-12.000000 28.000000 6.943729E+00
-12.000000 26.000000 5.531555E+00
-12.000000 24.000000 -6.170036E+00
-12.000000 22.000000 -1.673642E+01
-12.000000 20.000000 -1.481065E+01
-12.000000 18.000000 -6.683872E+00
-12.000000 16.000000 -1.203459E+01
-12.000000 14.000000 -3.289473E+01
-12.000000 12.000000 -6.719416E+01
-12.000000 10.000000 -9.838088E+01
-12.000000 8.000000 -9.622205E+01
-12.000000 6.000000 -6.401777E+01
-12.000000 4.000000 -2.278568E+01
-12.000000 2.000000 1.775799E+00
-12.000000 0.000000 8.963335E+00
-12.000000 -2.000000 -6.079029E+00
-12.000000 -4.000000 -2.827530E+01
-12.000000 -6.000000 -4.147842E+01
-12.000000 -8.000000 -3.998617E+01
-12.000000 -10.000000 -2.983558E+01
-12.000000 -12.000000 -1.972518E+01
-12.000000 -14.000000 -1.988725E+01
-12.000000 -16.000000 -2.787596E+01
-12.000000 -18.000000 -3.077931E+01
-12.000000 -20.000000 -2.203595E+01
-12.000000 -22.000000 -1.002647E+01
-12.000000 -24.000000 -8.180906E+00
-12.000000 -26.000000 -1.818501E+01
-12.000000 -28.000000 -2.770886E+01
-12.000000 -30.000000 -2.893666E+01
-12.000000 -32.000000 -2.170240E+01
-12.000000 -34.000000 -1.499966E+01
-12.000000 -36.000000 -1.602219E+01
-12.000000 -38.000000 -2.165283E+01
-12.000000 -40.000000 -2.481105E+01
-10.000000 40.000000 -2.988951E+01
-10.000000 38.000000 -2.599914E+01
-10.000000 36.000000 -1.756583E+01
-10.000000 34.000000 -8.144596E+00
-10.000000 32.000000 -5.687653E+00
-10.000000 30.000000 2.055672E+00
-10.000000 28.000000 9.851116E+00
-10.000000 26.000000 9.400993E+00
-10.000000 24.000000 1.709068E+00
-10.000000 22.000000 -4.231857E+00
-10.000000 20.000000 -2.852592E-01
-10.000000 18.000000 4.749886E+00
-10.000000 16.000000 -8.832333E+00
-10.000000 14.000000 -3.977434E+01
-10.000000 12.000000 -8.329198E+01
-10.000000 10.000000 -1.216453E+02
-10.000000 8.000000 -1.216255E+02
-10.000000 6.000000 -8.886423E+01
-10.000000 4.000000 -4.430725E+01
-10.000000 2.000000 -1.773811E+01
-10.000000 0.000000 -9.543936E+00
-10.000000 -2.000000 -2.344669E+01
-10.000000 -4.000000 -4.129105E+01
-10.000000 -6.000000 -4.939993E+01
-10.000000 -8.000000 -4.502471E+01
-10.000000 -10.000000 -3.192652E+01
-10.000000 -12.000000 -1.826342E+01
-10.000000 -14.000000 -1.683440E+01
-10.000000 -16.000000 -2.458677E+01
-10.000000 -18.000000 -2.791865E+01
-10.000000 -20.000000 -1.780534E+01
-10.000000 -22.000000 -2.475258E+00
-10.000000 -24.000000 1.118620E+00
-10.000000 -26.000000 -1.081421E+01
-10.000000 -28.000000 -2.233471E+01
-10.000000 -30.000000 -2.452419E+01
-10.000000 -32.000000 -1.755414E+01
-10.000000 -34.000000 -1.243435E+01
-10.000000 -36.000000 -1.652666E+01
-10.000000 -38.000000 -2.437136E+01
-10.000000 -40.000000 -2.882842E+01
-8.000000 40.000000 -2.595901E+01
-8.000000 38.000000 -2.275658E+01
-8.000000 36.000000 -1.328808E+01
-8.000000 34.000000 -3.248636E+00
-8.000000 32.000000 -4.444405E+00
-8.000000 30.000000 -2.243910E+00
-8.000000 28.000000 3.338188E+00
-8.000000 26.000000 5.317188E+00
-8.000000 24.000000 3.818146E+00
-8.000000 22.000000 4.884659E+00
-8.000000 20.000000 1.169345E+01
-8.000000 18.000000 1.030114E+01
-8.000000 16.000000 -1.311637E+01
-8.000000 14.000000 -5.270486E+01
-8.000000 12.000000 -1.027719E+02
-8.000000 10.000000 -1.453723E+02
-8.000000 8.000000 -1.449464E+02
-8.000000 6.000000 -1.128645E+02
-8.000000 4.000000 -6.589246E+01
-8.000000 2.000000 -3.677610E+01
-8.000000 0.000000 -2.863515E+01
-8.000000 -2.000000 -3.550685E+01
-8.000000 -4.000000 -4.310562E+01
-8.000000 -6.000000 -4.488609E+01
-8.000000 -8.000000 -3.846354E+01
-8.000000 -10.000000 -2.357254E+01
-8.000000 -12.000000 -8.879328E+00
-8.000000 -14.000000 -7.061386E+00
-8.000000 -16.000000 -1.543313E+01
-8.000000 -18.000000 -2.069247E+01
-8.000000 -20.000000 -1.127637E+01
-8.000000 -22.000000 6.318426E+00
-8.000000 -24.000000 1.146440E+01
-8.000000 -26.000000 -1.228016E+00
-8.000000 -28.000000 -1.381932E+01
-8.000000 -30.000000 -1.867425E+01
-8.000000 -32.000000 -1.407250E+01
-8.000000 -34.000000 -1.150063E+01
-8.000000 -36.000000 -1.880589E+01
-8.000000 -38.000000 -2.784799E+01
-8.000000 -40.000000 -3.243076E+01
-6.000000 40.000000 -1.623944E+01
-6.000000 38.000000 -1.546773E+01
-6.000000 36.000000 -8.035309E+00
-6.000000 34.000000 -1.595480E+00
-6.000000 32.000000 -8.475456E+00
-6.000000 30.000000 -1.209059E+01
-6.000000 28.000000 -8.840212E+00
-6.000000 26.000000 -4.391180E+00
-6.000000 24.000000 -6.944389E-01
-6.000000 22.000000 6.552856E+00
-6.000000 20.000000 1.462272E+01
-6.000000 18.000000 7.441227E+00
-6.000000 16.000000 -2.222116E+01
-6.000000 14.000000 -6.647252E+01
-6.000000 12.000000 -1.179613E+02
-6.000000 10.000000 -1.596348E+02
-6.000000 8.000000 -1.557121E+02
-6.000000 6.000000 -1.226962E+02
-6.000000 4.000000 -7.518507E+01
-6.000000 2.000000 -4.511072E+01
-6.000000 0.000000 -3.661611E+01
-6.000000 -2.000000 -3.779852E+01
-6.000000 -4.000000 -3.820251E+01
-6.000000 -6.000000 -3.420028E+01
-6.000000 -8.000000 -2.540983E+01
-6.000000 -10.000000 -1.034378E+01
-6.000000 -12.000000 2.596560E+00
-6.000000 -14.000000 3.336761E+00
-6.000000 -16.000000 -5.969948E+00
-6.000000 -18.000000 -1.194246E+01
-6.000000 -20.000000 -3.642366E+00
-6.000000 -22.000000 1.410629E+01
-6.000000 -24.000000 1.927496E+01
-6.000000 -26.000000 6.604841E+00
-6.000000 -28.000000 -7.324503E+00
-6.000000 -30.000000 -1.433681E+01
-6.000000 -32.000000 -1.211037E+01
-6.000000 -34.000000 -1.162954E+01
-6.000000 -36.000000 -2.123807E+01
-6.000000 -38.000000 -3.158476E+01
-6.000000 -40.000000 -3.602976E+01
-4.000000 40.000000 -2.195209E+00
-4.000000 38.000000 -4.943425E+00
-4.000000 36.000000 -1.950373E+00
-4.000000 34.000000 -2.366690E+00
-4.000000 32.000000 -1.475117E+01
-4.000000 30.000000 -2.151994E+01
-4.000000 28.000000 -1.995621E+01
-4.000000 26.000000 -1.497216E+01
-4.000000 24.000000 -1.028273E+01
-4.000000 22.000000 -2.422829E+00
-4.000000 20.000000 1.968876E+00
-4.000000 18.000000 -7.329952E+00
-4.000000 16.000000 -3.369566E+01
-4.000000 14.000000 -7.294289E+01
-4.000000 12.000000 -1.181011E+02
-4.000000 10.000000 -1.536344E+02
-4.000000 8.000000 -1.461832E+02
-4.000000 6.000000 -1.122514E+02
-4.000000 4.000000 -6.639049E+01
-4.000000 2.000000 -3.667650E+01
-4.000000 0.000000 -2.738654E+01
-4.000000 -2.000000 -2.681110E+01
-4.000000 -4.000000 -2.447867E+01
-4.000000 -6.000000 -1.969622E+01
-4.000000 -8.000000 -1.410429E+01
-4.000000 -10.000000 -2.554785E+00
-4.000000 -12.000000 7.909681E+00
-4.000000 -14.000000 7.542873E+00
-4.000000 -16.000000 -1.442116E+00
-4.000000 -18.000000 -6.752981E+00
-4.000000 -20.000000 9.190464E-01
-4.000000 -22.000000 1.651672E+01
-4.000000 -24.000000 2.061963E+01
-4.000000 -26.000000 6.860773E+00
-4.000000 -28.000000 -9.263769E+00
-4.000000 -30.000000 -1.553419E+01
-4.000000 -32.000000 -1.222934E+01
-4.000000 -34.000000 -1.125093E+01
-4.000000 -36.000000 -2.140255E+01
-4.000000 -38.000000 -3.338214E+01
-4.000000 -40.000000 -3.820759E+01
-2.000000 40.000000 1.286131E+01
-2.000000 38.000000 6.637087E+00
-2.000000 36.000000 5.648241E+00
-2.000000 34.000000 -9.074059E-01
-2.000000 32.000000 -1.740699E+01
-2.000000 30.000000 -2.550394E+01
-2.000000 28.000000 -2.477340E+01
-2.000000 26.000000 -2.196752E+01
-2.000000 24.000000 -2.273870E+01
-2.000000 22.000000 -2.010913E+01
-2.000000 20.000000 -2.083729E+01
-2.000000 18.000000 -2.872319E+01
-2.000000 16.000000 -4.415659E+01
-2.000000 14.000000 -6.742652E+01
-2.000000 12.000000 -9.757716E+01
-2.000000 10.000000 -1.220069E+02
-2.000000 8.000000 -1.156982E+02
-2.000000 6.000000 -8.507126E+01
-2.000000 4.000000 -4.383243E+01
-2.000000 2.000000 -1.591894E+01
-2.000000 0.000000 -5.881250E+00
-2.000000 -2.000000 -5.502764E+00
-2.000000 -4.000000 -4.959282E+00
-2.000000 -6.000000 -6.092886E+00
-2.000000 -8.000000 -8.589525E+00
-2.000000 -10.000000 -4.808065E+00
-2.000000 -12.000000 1.424652E+00
-2.000000 -14.000000 2.471237E-01
-2.000000 -16.000000 -6.049034E+00
-2.000000 -18.000000 -9.150447E+00
-2.000000 -20.000000 -2.338497E+00
-2.000000 -22.000000 9.967255E+00
-2.000000 -24.000000 1.230598E+01
-2.000000 -26.000000 -2.155071E+00
-2.000000 -28.000000 -1.793135E+01
-2.000000 -30.000000 -2.094445E+01
-2.000000 -32.000000 -1.413105E+01
-2.000000 -34.000000 -1.060642E+01
-2.000000 -36.000000 -1.933825E+01
-2.000000 -38.000000 -3.132557E+01
-2.000000 -40.000000 -3.654656E+01
0.000000 40.000000 2.573874E+01
0.000000 38.000000 1.895616E+01
0.000000 36.000000 1.630663E+01
0.000000 34.000000 5.498205E+00
0.000000 32.000000 -1.356653E+01
0.000000 30.000000 -2.241048E+01
0.000000 28.000000 -2.236756E+01
0.000000 26.000000 -2.334484E+01
0.000000 24.000000 -3.149868E+01
0.000000 22.000000 -3.489065E+01
0.000000 20.000000 -3.795513E+01
0.000000 18.000000 -4.157581E+01
0.000000 16.000000 -4.588813E+01
0.000000 14.000000 -5.444450E+01
0.000000 12.000000 -7.096327E+01
0.000000 10.000000 -8.531317E+01
0.000000 8.000000 -8.247095E+01
0.000000 6.000000 -5.542691E+01
0.000000 4.000000 -1.735842E+01
0.000000 2.000000 8.775013E+00
0.000000 0.000000 1.927493E+01
0.000000 -2.000000 1.784348E+01
0.000000 -4.000000 1.203226E+01
0.000000 -6.000000 1.972282E+00
0.000000 -8.000000 -8.061420E+00
0.000000 -10.000000 -1.350138E+01
0.000000 -12.000000 -1.432013E+01
0.000000 -14.000000 -1.654928E+01
0.000000 -16.000000 -1.806045E+01
0.000000 -18.000000 -1.677977E+01
0.000000 -20.000000 -1.108652E+01
0.000000 -22.000000 -2.713646E+00
0.000000 -24.000000 -1.966379E+00
0.000000 -26.000000 -1.403763E+01
0.000000 -28.000000 -2.612060E+01
0.000000 -30.000000 -2.533976E+01
0.000000 -32.000000 -1.500226E+01
0.000000 -34.000000 -8.668453E+00
0.000000 -36.000000 -1.518745E+01
0.000000 -38.000000 -2.612204E+01
0.000000 -40.000000 -3.233717E+01
2.000000 40.000000 3.638272E+01
2.000000 38.000000 3.127064E+01
2.000000 36.000000 2.766378E+01
2.000000 34.000000 1.507943E+01
2.000000 32.000000 -3.235780E+00
2.000000 30.000000 -1.206569E+01
2.000000 28.000000 -1.358264E+01
2.000000 26.000000 -1.724597E+01
2.000000 24.000000 -2.924295E+01
2.000000 22.000000 -3.724941E+01
2.000000 20.000000 -4.011935E+01
2.000000 18.000000 -3.796563E+01
2.000000 16.000000 -3.636694E+01
2.000000 14.000000 -4.117531E+01
2.000000 12.000000 -5.539231E+01
2.000000 10.000000 -7.029456E+01
2.000000 8.000000 -7.220364E+01
2.000000 6.000000 -4.827282E+01
2.000000 4.000000 -8.684238E+00
2.000000 2.000000 2.302157E+01
2.000000 0.000000 3.946188E+01
2.000000 -2.000000 3.835934E+01
2.000000 -4.000000 2.622091E+01
2.000000 -6.000000 7.741707E+00
2.000000 -8.000000 -7.308352E+00
2.000000 -10.000000 -1.825048E+01
2.000000 -12.000000 -2.402456E+01
2.000000 -14.000000 -2.667745E+01
2.000000 -16.000000 -2.423140E+01
2.000000 -18.000000 -2.077990E+01
2.000000 -20.000000 -1.856410E+01
2.000000 -22.000000 -1.529053E+01
2.000000 -24.000000 -1.548746E+01
2.000000 -26.000000 -2.266675E+01
2.000000 -28.000000 -3.017091E+01
2.000000 -30.000000 -2.536148E+01
2.000000 -32.000000 -1.150882E+01
2.000000 -34.000000 -3.275770E+00
2.000000 -36.000000 -8.864762E+00
2.000000 -38.000000 -2.031677E+01
2.000000 -40.000000 -2.861051E+01
4.000000 40.000000 4.532296E+01
4.000000 38.000000 4.113419E+01
4.000000 36.000000 3.689355E+01
4.000000 34.000000 2.468853E+01
4.000000 32.000000 8.727682E+00
4.000000 30.000000 1.404243E+00
4.000000 28.000000 -2.866936E-02
4.000000 26.000000 -3.472784E+00
4.000000 24.000000 -1.613688E+01
4.000000 22.000000 -2.737160E+01
4.000000 20.000000 -2.965459E+01
4.000000 18.000000 -2.438784E+01
4.000000 16.000000 -2.184625E+01
4.000000 14.000000 -2.985713E+01
4.000000 12.000000 -5.175405E+01
4.000000 10.000000 -7.907332E+01
4.000000 8.000000 -9.065707E+01
4.000000 6.000000 -7.323209E+01
4.000000 4.000000 -2.786682E+01
4.000000 2.000000 1.786959E+01
4.000000 0.000000 4.651436E+01
4.000000 -2.000000 5.067375E+01
4.000000 -4.000000 3.618217E+01
4.000000 -6.000000 1.272099E+01
4.000000 -8.000000 -3.252882E+00
4.000000 -10.000000 -1.107776E+01
4.000000 -12.000000 -1.373055E+01
4.000000 -14.000000 -1.434636E+01
4.000000 -16.000000 -1.320323E+01
4.000000 -18.000000 -1.422595E+01
4.000000 -20.000000 -1.765840E+01
4.000000 -22.000000 -1.974691E+01
4.000000 -24.000000 -2.252429E+01
4.000000 -26.000000 -2.735182E+01
4.000000 -28.000000 -2.969176E+01
4.000000 -30.000000 -1.977012E+01
4.000000 -32.000000 -2.970301E+00
4.000000 -34.000000 5.236422E+00
4.000000 -36.000000 -1.977543E+00
4.000000 -38.000000 -1.559882E+01
4.000000 -40.000000 -2.661153E+01
6.000000 40.000000 5.286950E+01
6.000000 38.000000 4.772015E+01
6.000000 36.000000 4.235826E+01
6.000000 34.000000 2.994871E+01
6.000000 32.000000 1.565243E+01
6.000000 30.000000 1.196303E+01
6.000000 28.000000 1.422698E+01
6.000000 26.000000 1.249334E+01
6.000000 24.000000 -4.375401E-01
6.000000 22.000000 -1.405674E+01
6.000000 20.000000 -1.614233E+01
6.000000 18.000000 -9.335558E+00
6.000000 16.000000 -6.710720E+00
6.000000 14.000000 -1.798755E+01
6.000000 12.000000 -5.003937E+01
6.000000 10.000000 -9.487510E+01
6.000000 8.000000 -1.213715E+02
6.000000 6.000000 -1.126991E+02
6.000000 4.000000 -5.986078E+01
6.000000 2.000000 1.471069E+00
6.000000 0.000000 4.266096E+01
6.000000 -2.000000 5.305044E+01
6.000000 -4.000000 3.971456E+01
6.000000 -6.000000 1.661454E+01
6.000000 -8.000000 2.930527E+00
6.000000 -10.000000 2.646614E+00
6.000000 -12.000000 7.878681E+00
6.000000 -14.000000 1.076486E+01
6.000000 -16.000000 7.535385E+00
6.000000 -18.000000 1.130733E-01
6.000000 -20.000000 -7.517068E+00
6.000000 -22.000000 -1.231091E+01
6.000000 -24.000000 -1.809353E+01
6.000000 -26.000000 -2.578161E+01
6.000000 -28.000000 -2.383356E+01
6.000000 -30.000000 -8.634924E+00
6.000000 -32.000000 9.311983E+00
6.000000 -34.000000 1.538241E+01
6.000000 -36.000000 4.660303E+00
6.000000 -38.000000 -1.207733E+01
6.000000 -40.000000 -2.634854E+01
8.000000 40.000000 6.015042E+01
8.000000 38.000000 5.106569E+01
8.000000 36.000000 4.209559E+01
8.000000 34.000000 2.818729E+01
8.000000 32.000000 1.555530E+01
8.000000 30.000000 1.565175E+01
8.000000 28.000000 2.225374E+01
8.000000 26.000000 2.255054E+01
8.000000 24.000000 1.024728E+01
8.000000 22.000000 -4.650346E+00
8.000000 20.000000 -7.780128E+00
8.000000 18.000000 -4.564533E-01
8.000000 16.000000 4.595009E+00
8.000000 14.000000 -4.079998E+00
8.000000 12.000000 -4.084619E+01
8.000000 10.000000 -9.895998E+01
8.000000 8.000000 -1.409624E+02
8.000000 6.000000 -1.415756E+02
8.000000 4.000000 -8.686394E+01
8.000000 2.000000 -1.554892E+01
8.000000 0.000000 3.686592E+01
8.000000 -2.000000 5.375988E+01
8.000000 -4.000000 4.150712E+01
8.000000 -6.000000 1.789603E+01
8.000000 -8.000000 5.538418E+00
8.000000 -10.000000 9.408426E+00
8.000000 -12.000000 1.884491E+01
8.000000 -14.000000 2.436308E+01
8.000000 -16.000000 2.092779E+01
8.000000 -18.000000 1.236581E+01
8.000000 -20.000000 4.792786E+00
8.000000 -22.000000 2.488878E+00
8.000000 -24.000000 -7.021646E-01
8.000000 -26.000000 -8.045969E+00
8.000000 -28.000000 -6.920838E+00
8.000000 -30.000000 7.275507E+00
8.000000 -32.000000 2.341853E+01
8.000000 -34.000000 2.611236E+01
8.000000 -36.000000 1.130746E+01
8.000000 -38.000000 -9.692404E+00
8.000000 -40.000000 -2.814539E+01
10.000000 40.000000 6.666396E+01
10.000000 38.000000 5.183267E+01
10.000000 36.000000 3.806116E+01
10.000000 34.000000 2.183440E+01
10.000000 32.000000 1.020492E+01
10.000000 30.000000 1.164899E+01
10.000000 28.000000 2.040186E+01
10.000000 26.000000 2.336385E+01
10.000000 24.000000 1.320850E+01
10.000000 22.000000 -6.562929E-01
10.000000 20.000000 -3.526797E+00
10.000000 18.000000 3.182112E+00
10.000000 16.000000 1.019759E+01
10.000000 14.000000 6.686357E+00
10.000000 12.000000 -2.956601E+01
10.000000 10.000000 -9.233788E+01
10.000000 8.000000 -1.441636E+02
10.000000 6.000000 -1.537701E+02
10.000000 4.000000 -1.045973E+02
10.000000 2.000000 -3.148079E+01
10.000000 0.000000 2.845781E+01
10.000000 -2.000000 5.220794E+01
10.000000 -4.000000 4.331372E+01
10.000000 -6.000000 1.888292E+01
10.000000 -8.000000 4.908710E+00
10.000000 -10.000000 6.738176E+00
10.000000 -12.000000 1.446667E+01
10.000000 -14.000000 1.998756E+01
10.000000 -16.000000 2.203986E+01
10.000000 -18.000000 2.148452E+01
10.000000 -20.000000 2.066124E+01
10.000000 -22.000000 2.434375E+01
10.000000 -24.000000 2.612820E+01
10.000000 -26.000000 2.277383E+01
10.000000 -28.000000 1.962824E+01
10.000000 -30.000000 2.564402E+01
10.000000 -32.000000 3.615732E+01
10.000000 -34.000000 3.506021E+01
10.000000 -36.000000 1.638793E+01
10.000000 -38.000000 -8.939737E+00
10.000000 -40.000000 -3.138260E+01
12.000000 40.000000 7.121100E+01
12.000000 38.000000 5.236866E+01
12.000000 36.000000 3.501115E+01
12.000000 34.000000 1.535659E+01
12.000000 32.000000 2.979129E+00
12.000000 30.000000 3.375254E+00
12.000000 28.000000 1.043048E+01
12.000000 26.000000 1.390417E+01
12.000000 24.000000 5.716657E+00
12.000000 22.000000 -2.974885E+00
12.000000 20.000000 -1.898687E+00
12.000000 18.000000 4.698030E+00
12.000000 16.000000 1.156411E+01
12.000000 14.000000 9.316210E+00
12.000000 12.000000 -2.570291E+01
12.000000 10.000000 -8.908228E+01
12.000000 8.000000 -1.434366E+02
12.000000 6.000000 -1.571416E+02
12.000000 4.000000 -1.158105E+02
12.000000 2.000000 -4.854018E+01
12.000000 0.000000 1.219095E+01
12.000000 -2.000000 4.231367E+01
12.000000 -4.000000 4.147330E+01
12.000000 -6.000000 2.070698E+01
12.000000 -8.000000 5.853180E+00
12.000000 -10.000000 5.153503E+00
12.000000 -12.000000 9.969654E+00
12.000000 -14.000000 1.438158E+01
12.000000 -16.000000 2.392896E+01
12.000000 -18.000000 3.830386E+01
12.000000 -20.000000 4.888150E+01
12.000000 -22.000000 5.633548E+01
12.000000 -24.000000 5.639046E+01
12.000000 -26.000000 4.930718E+01
12.000000 -28.000000 4.171804E+01
12.000000 -30.000000 4.055931E+01
12.000000 -32.000000 4.491450E+01
12.000000 -34.000000 4.036007E+01
12.000000 -36.000000 1.814086E+01
12.000000 -38.000000 -1.032787E+01
12.000000 -40.000000 -3.527337E+01
14.000000 40.000000 7.429758E+01
14.000000 38.000000 5.334990E+01
14.000000 36.000000 3.400387E+01
14.000000 34.000000 1.151981E+01
14.000000 32.000000 -3.196435E+00
14.000000 30.000000 -5.877636E+00
14.000000 28.000000 -3.618220E+00
14.000000 26.000000 -3.442428E+00
14.000000 24.000000 -1.094184E+01
14.000000 22.000000 -1.359139E+01
14.000000 20.000000 -8.089862E+00
14.000000 18.000000 5.818348E-01
14.000000 16.000000 9.231195E+00
14.000000 14.000000 8.532804E+00
14.000000 12.000000 -2.402824E+01
14.000000 10.000000 -8.742006E+01
14.000000 8.000000 -1.430561E+02
14.000000 6.000000 -1.610644E+02
14.000000 4.000000 -1.311156E+02
14.000000 2.000000 -7.400813E+01
14.000000 0.000000 -1.480352E+01
14.000000 -2.000000 2.404282E+01
14.000000 -4.000000 3.543804E+01
14.000000 -6.000000 2.309215E+01
14.000000 -8.000000 1.045623E+01
14.000000 -10.000000 1.060042E+01
14.000000 -12.000000 1.604555E+01
14.000000 -14.000000 2.412535E+01
14.000000 -16.000000 4.388841E+01
14.000000 -18.000000 7.151704E+01
14.000000 -20.000000 8.899382E+01
14.000000 -22.000000 9.301833E+01
14.000000 -24.000000 8.395370E+01
14.000000 -26.000000 6.634591E+01
14.000000 -28.000000 5.130045E+01
14.000000 -30.000000 4.448770E+01
14.000000 -32.000000 4.540427E+01
14.000000 -34.000000 3.922601E+01
14.000000 -36.000000 1.563498E+01
14.000000 -38.000000 -1.360661E+01
14.000000 -40.000000 -3.941937E+01
16.000000 40.000000 7.573895E+01
16.000000 38.000000 5.303446E+01
16.000000 36.000000 3.301321E+01
16.000000 34.000000 9.698732E+00
16.000000 32.000000 -8.160868E+00
16.000000 30.000000 -1.494459E+01
16.000000 28.000000 -1.640358E+01
16.000000 26.000000 -1.982378E+01
16.000000 24.000000 -2.795018E+01
16.000000 22.000000 -2.651642E+01
16.000000 20.000000 -1.790957E+01
16.000000 18.000000 -6.256259E+00
16.000000 16.000000 5.949174E+00
16.000000 14.000000 1.081752E+01
16.000000 12.000000 -1.705338E+01
16.000000 10.000000 -8.018745E+01
16.000000 8.000000 -1.421784E+02
16.000000 6.000000 -1.702263E+02
16.000000 4.000000 -1.549891E+02
16.000000 2.000000 -1.081387E+02
16.000000 0.000000 -4.999584E+01
16.000000 -2.000000 -2.232700E+00
16.000000 -4.000000 2.100198E+01
16.000000 -6.000000 1.970312E+01
16.000000 -8.000000 1.522832E+01
16.000000 -10.000000 2.089659E+01
16.000000 -12.000000 3.306177E+01
16.000000 -14.000000 5.146835E+01
16.000000 -16.000000 8.187779E+01
16.000000 -18.000000 1.152517E+02
16.000000 -20.000000 1.316324E+02
16.000000 -22.000000 1.259225E+02
16.000000 -24.000000 1.018921E+02
16.000000 -26.000000 7.250556E+01
16.000000 -28.000000 4.899974E+01
16.000000 -30.000000 3.673520E+01
16.000000 -32.000000 3.617832E+01
16.000000 -34.000000 3.076254E+01
16.000000 -36.000000 9.302845E+00
16.000000 -38.000000 -1.769915E+01
16.000000 -40.000000 -4.364526E+01
18.000000 40.000000 7.476393E+01
18.000000 38.000000 5.174496E+01
18.000000 36.000000 3.167421E+01
18.000000 34.000000 8.036113E+00
18.000000 32.000000 -1.191032E+01
18.000000 30.000000 -2.128473E+01
18.000000 28.000000 -2.359165E+01
18.000000 26.000000 -2.838722E+01
18.000000 24.000000 -3.737812E+01
18.000000 22.000000 -3.186889E+01
18.000000 20.000000 -2.024674E+01
18.000000 18.000000 -6.375336E+00
18.000000 16.000000 6.696470E+00
18.000000 14.000000 1.203702E+01
18.000000 12.000000 -1.570336E+01
18.000000 10.000000 -7.919670E+01
18.000000 8.000000 -1.467146E+02
18.000000 6.000000 -1.841693E+02
18.000000 4.000000 -1.791945E+02
18.000000 2.000000 -1.353657E+02
18.000000 0.000000 -7.501203E+01
18.000000 -2.000000 -2.183873E+01
18.000000 -4.000000 5.416681E+00
18.000000 -6.000000 9.692534E+00
18.000000 -8.000000 1.510403E+01
18.000000 -10.000000 3.086219E+01
18.000000 -12.000000 5.607664E+01
18.000000 -14.000000 8.765386E+01
18.000000 -16.000000 1.243480E+02
18.000000 -18.000000 1.537142E+02
18.000000 -20.000000 1.604475E+02
18.000000 -22.000000 1.428104E+02
18.000000 -24.000000 1.051141E+02
18.000000 -26.000000 6.486727E+01
18.000000 -28.000000 3.620302E+01
18.000000 -30.000000 2.187543E+01
18.000000 -32.000000 2.123379E+01
18.000000 -34.000000 1.852154E+01
18.000000 -36.000000 1.486816E+00
18.000000 -38.000000 -2.230267E+01
18.000000 -40.000000 -4.799604E+01
20.000000 40.000000 7.208797E+01
20.000000 38.000000 5.036992E+01
20.000000 36.000000 2.968591E+01
20.000000 34.000000 5.631820E+00
20.000000 32.000000 -1.457404E+01
20.000000 30.000000 -2.452024E+01
20.000000 28.000000 -2.690294E+01
20.000000 26.000000 -3.095320E+01
20.000000 24.000000 -3.775326E+01
20.000000 22.000000 -2.779195E+01
20.000000 20.000000 -1.291062E+01
20.000000 18.000000 1.272227E+00
20.000000 16.000000 1.096457E+01
20.000000 14.000000 8.228776E+00
20.000000 12.000000 -2.587277E+01
20.000000 10.000000 -9.002576E+01
20.000000 8.000000 -1.580050E+02
20.000000 6.000000 -2.006024E+02
20.000000 4.000000 -1.958502E+02
20.000000 2.000000 -1.439513E+02
20.000000 0.000000 -7.537651E+01
20.000000 -2.000000 -1.924898E+01
20.000000 -4.000000 4.110969E+00
20.000000 -6.000000 5.445260E+00
20.000000 -8.000000 1.529335E+01
20.000000 -10.000000 4.117051E+01
20.000000 -12.000000 8.115398E+01
20.000000 -14.000000 1.239221E+02
20.000000 -16.000000 1.598975E+02
20.000000 -18.000000 1.749103E+02
20.000000 -20.000000 1.645439E+02
20.000000 -22.000000 1.349300E+02
20.000000 -24.000000 9.044938E+01
20.000000 -26.000000 4.576866E+01
20.000000 -28.000000 1.530446E+01
20.000000 -30.000000 1.569102E+00
20.000000 -32.000000 2.242409E+00
20.000000 -34.000000 3.412201E+00
20.000000 -36.000000 -7.900932E+00
20.000000 -38.000000 -2.760935E+01
20.000000 -40.000000 -5.137059E+01
22.000000 40.000000 6.915419E+01
22.000000 38.000000 4.840467E+01
22.000000 36.000000 2.717031E+01
22.000000 34.000000 3.302839E+00
22.000000 32.000000 -1.713726E+01
22.000000 30.000000 -2.720053E+01
22.000000 28.000000 -3.074363E+01
22.000000 26.000000 -3.323568E+01
22.000000 24.000000 -3.588688E+01
22.000000 22.000000 -2.299681E+01
22.000000 20.000000 -4.594614E+00
22.000000 18.000000 6.782135E+00
22.000000 16.000000 1.013037E+01
22.000000 14.000000 -4.169571E-01
22.000000 12.000000 -3.843431E+01
22.000000 10.000000 -1.010881E+02
22.000000 8.000000 -1.648789E+02
22.000000 6.000000 -2.036478E+02
22.000000 4.000000 -1.879250E+02
22.000000 2.000000 -1.222962E+02
22.000000 0.000000 -4.682717E+01
22.000000 -2.000000 5.582805E+00
22.000000 -4.000000 1.993173E+01
22.000000 -6.000000 1.328821E+01
22.000000 -8.000000 2.218708E+01
22.000000 -10.000000 5.453086E+01
22.000000 -12.000000 1.047288E+02
22.000000 -14.000000 1.504504E+02
22.000000 -16.000000 1.756628E+02
22.000000 -18.000000 1.682356E+02
22.000000 -20.000000 1.375482E+02
22.000000 -22.000000 1.004633E+02
22.000000 -24.000000 5.894087E+01
22.000000 -26.000000 2.095981E+01
22.000000 -28.000000 -6.045750E+00
22.000000 -30.000000 -1.853872E+01
22.000000 -32.000000 -1.733131E+01
22.000000 -34.000000 -1.347535E+01
22.000000 -36.000000 -1.934441E+01
22.000000 -38.000000 -3.333509E+01
22.000000 -40.000000 -5.298059E+01
24.000000 40.000000 6.783482E+01
24.000000 38.000000 4.740337E+01
24.000000 36.000000 2.635046E+01
24.000000 34.000000 2.756523E+00
24.000000 32.000000 -1.854218E+01
24.000000 30.000000 -2.966529E+01
24.000000 28.000000 -3.528472E+01
24.000000 26.000000 -3.832194E+01
24.000000 24.000000 -4.022621E+01
24.000000 22.000000 -2.732761E+01
24.000000 20.000000 -8.696253E+00
24.000000 18.000000 -3.565812E-01
24.000000 16.000000 -1.263346E+00
24.000000 14.000000 -1.490386E+01
24.000000 12.000000 -5.145698E+01
24.000000 10.000000 -1.085267E+02
24.000000 8.000000 -1.603902E+02
24.000000 6.000000 -1.821352E+02
24.000000 4.000000 -1.458207E+02
24.000000 2.000000 -6.819225E+01
24.000000 0.000000 5.484955E+00
24.000000 -2.000000 4.205970E+01
24.000000 -4.000000 4.163839E+01
24.000000 -6.000000 2.610651E+01
24.000000 -8.000000 3.306123E+01
24.000000 -10.000000 7.037258E+01
24.000000 -12.000000 1.251731E+02
24.000000 -14.000000 1.652949E+02
24.000000 -16.000000 1.696837E+02
24.000000 -18.000000 1.356845E+02
24.000000 -20.000000 8.552745E+01
24.000000 -22.000000 4.761267E+01
24.000000 -24.000000 1.949581E+01
24.000000 -26.000000 -3.064450E+00
24.000000 -28.000000 -2.073474E+01
24.000000 -30.000000 -3.163506E+01
24.000000 -32.000000 -3.214172E+01
24.000000 -34.000000 -2.781874E+01
24.000000 -36.000000 -3.011126E+01
24.000000 -38.000000 -3.875960E+01
24.000000 -40.000000 -5.346167E+01
26.000000 40.000000 6.976547E+01
26.000000 38.000000 4.955865E+01
26.000000 36.000000 2.862768E+01
26.000000 34.000000 4.565348E+00
26.000000 32.000000 -1.771420E+01
26.000000 30.000000 -2.988488E+01
26.000000 28.000000 -3.655455E+01
26.000000 26.000000 -4.196129E+01
26.000000 24.000000 -4.841214E+01
26.000000 22.000000 -4.157663E+01
26.000000 20.000000 -2.989954E+01
26.000000 18.000000 -2.180792E+01
26.000000 16.000000 -1.956173E+01
26.000000 14.000000 -2.910864E+01
26.000000 12.000000 -5.826694E+01
26.000000 10.000000 -1.055514E+02
26.000000 8.000000 -1.432097E+02
26.000000 6.000000 -1.480127E+02
26.000000 4.000000 -9.361233E+01
26.000000 2.000000 -9.455907E+00
26.000000 0.000000 5.413033E+01
26.000000 -2.000000 6.685976E+01
26.000000 -4.000000 5.147439E+01
26.000000 -6.000000 3.036978E+01
26.000000 -8.000000 3.841868E+01
26.000000 -10.000000 8.167323E+01
26.000000 -12.000000 1.400108E+02
26.000000 -14.000000 1.737558E+02
26.000000 -16.000000 1.578973E+02
26.000000 -18.000000 9.899574E+01
26.000000 -20.000000 3.290530E+01
26.000000 -22.000000 -5.984497E-02
26.000000 -24.000000 -8.786299E+00
26.000000 -26.000000 -1.512644E+01
26.000000 -28.000000 -2.518864E+01
26.000000 -30.000000 -3.679632E+01
26.000000 -32.000000 -4.122117E+01
26.000000 -34.000000 -3.822255E+01
26.000000 -36.000000 -3.845987E+01
26.000000 -38.000000 -4.283916E+01
26.000000 -40.000000 -5.313014E+01
28.000000 40.000000 7.322159E+01
28.000000 38.000000 5.277948E+01
28.000000 36.000000 3.304374E+01
28.000000 34.000000 9.474070E+00
28.000000 32.000000 -1.440245E+01
28.000000 30.000000 -2.657917E+01
28.000000 28.000000 -3.130863E+01
28.000000 26.000000 -3.815630E+01
28.000000 24.000000 -5.037418E+01
28.000000 22.000000 -5.080500E+01
28.000000 20.000000 -4.580182E+01
28.000000 18.000000 -3.611661E+01
28.000000 16.000000 -2.633081E+01
28.000000 14.000000 -2.683585E+01
28.000000 12.000000 -4.590898E+01
28.000000 10.000000 -8.315141E+01
28.000000 8.000000 -1.147875E+02
28.000000 6.000000 -1.166311E+02
28.000000 4.000000 -6.649488E+01
28.000000 2.000000 3.908178E+00
28.000000 0.000000 4.771501E+01
28.000000 -2.000000 4.558370E+01
28.000000 -4.000000 2.962039E+01
28.000000 -6.000000 1.690817E+01
28.000000 -8.000000 3.414395E+01
28.000000 -10.000000 8.562006E+01
28.000000 -12.000000 1.479360E+02
28.000000 -14.000000 1.784713E+02
28.000000 -16.000000 1.507843E+02
28.000000 -18.000000 7.876811E+01
28.000000 -20.000000 9.724273E+00
28.000000 -22.000000 -1.489629E+01
28.000000 -24.000000 -9.629320E+00
28.000000 -26.000000 -6.893255E+00
28.000000 -28.000000 -1.766022E+01
28.000000 -30.000000 -3.435717E+01
28.000000 -32.000000 -4.504796E+01
28.000000 -34.000000 -4.530266E+01
28.000000 -36.000000 -4.433402E+01
28.000000 -38.000000 -4.458088E+01
28.000000 -40.000000 -5.155245E+01
30.000000 40.000000 7.554557E+01
30.000000 38.000000 5.383126E+01
30.000000 36.000000 3.748238E+01
30.000000 34.000000 1.711311E+01
30.000000 32.000000 -6.420641E+00
30.000000 30.000000 -1.781623E+01
30.000000 28.000000 -1.933697E+01
30.000000 26.000000 -2.439803E+01
30.000000 24.000000 -3.581374E+01
30.000000 22.000000 -3.828704E+01
30.000000 20.000000 -3.398853E+01
30.000000 18.000000 -2.119721E+01
30.000000 16.000000 -6.660376E+00
30.000000 14.000000 -1.778510E+00
30.000000 12.000000 -1.655244E+01
30.000000 10.000000 -5.157643E+01
30.000000 8.000000 -8.750688E+01
30.000000 6.000000 -9.881552E+01
30.000000 4.000000 -7.577526E+01
30.000000 2.000000 -4.182511E+01
30.000000 0.000000 -2.206300E+01
30.000000 -2.000000 -1.964254E+01
30.000000 -4.000000 -1.855818E+01
30.000000 -6.000000 -8.641964E+00
30.000000 -8.000000 2.330760E+01
30.000000 -10.000000 8.299047E+01
30.000000 -12.000000 1.489924E+02
30.000000 -14.000000 1.800447E+02
30.000000 -16.000000 1.501170E+02
30.000000 -18.000000 7.865565E+01
30.000000 -20.000000 1.970904E+01
30.000000 -22.000000 5.685823E+00
30.000000 -24.000000 1.580656E+01
30.000000 -26.000000 1.767732E+01
30.000000 -28.000000 -1.140977E+00
30.000000 -30.000000 -2.581621E+01
30.000000 -32.000000 -4.363371E+01
30.000000 -34.000000 -4.709684E+01
30.000000 -36.000000 -4.479537E+01
30.000000 -38.000000 -4.200388E+01
30.000000 -40.000000 -4.813039E+01
32.000000 40.000000 7.838682E+01
32.000000 38.000000 5.470627E+01
32.000000 36.000000 4.137395E+01
32.000000 34.000000 2.486479E+01
32.000000 32.000000 5.044287E+00
32.000000 30.000000 -4.202246E+00
32.000000 28.000000 -2.899574E+00
32.000000 26.000000 -2.125528E+00
32.000000 24.000000 -5.377272E+00
32.000000 22.000000 -5.088007E+00
32.000000 20.000000 1.834675E+00
32.000000 18.000000 1.520663E+01
32.000000 16.000000 2.806224E+01
32.000000 14.000000 3.105667E+01
32.000000 12.000000 1.028752E+01
32.000000 10.000000 -3.249161E+01
32.000000 8.000000 -7.616005E+01
32.000000 6.000000 -9.890631E+01
32.000000 4.000000 -1.010035E+02
32.000000 2.000000 -9.630278E+01
32.000000 0.000000 -9.383061E+01
32.000000 -2.000000 -8.401414E+01
32.000000 -4.000000 -6.450000E+01
32.000000 -6.000000 -3.381662E+01
32.000000 -8.000000 8.808976E+00
32.000000 -10.000000 7.190787E+01
32.000000 -12.000000 1.396180E+02
32.000000 -14.000000 1.739601E+02
32.000000 -16.000000 1.521735E+02
32.000000 -18.000000 9.307267E+01
32.000000 -20.000000 4.788772E+01
32.000000 -22.000000 4.177365E+01
32.000000 -24.000000 4.965211E+01
32.000000 -26.000000 4.483925E+01
32.000000 -28.000000 1.710319E+01
32.000000 -30.000000 -1.396515E+01
32.000000 -32.000000 -3.638749E+01
32.000000 -34.000000 -4.127532E+01
32.000000 -36.000000 -3.707563E+01
32.000000 -38.000000 -3.385831E+01
32.000000 -40.000000 -4.207308E+01
34.000000 40.000000 8.234038E+01
34.000000 38.000000 6.023613E+01
34.000000 36.000000 4.960070E+01
34.000000 34.000000 3.477019E+01
34.000000 32.000000 1.706741E+01
34.000000 30.000000 9.855165E+00
34.000000 28.000000 1.435431E+01
34.000000 26.000000 2.143390E+01
34.000000 24.000000 2.559758E+01
34.000000 22.000000 2.918271E+01
34.000000 20.000000 3.934439E+01
34.000000 18.000000 5.076226E+01
34.000000 16.000000 5.709610E+01
34.000000 14.000000 5.191414E+01
34.000000 12.000000 2.087326E+01
34.000000 10.000000 -2.958697E+01
34.000000 8.000000 -7.486506E+01
34.000000 6.000000 -9.991989E+01
34.000000 4.000000 -1.101763E+02
34.000000 2.000000 -1.184826E+02
34.000000 0.000000 -1.236477E+02
34.000000 -2.000000 -1.105264E+02
34.000000 -4.000000 -8.180938E+01
34.000000 -6.000000 -4.327636E+01
34.000000 -8.000000 1.832049E+00
34.000000 -10.000000 6.120876E+01
34.000000 -12.000000 1.226861E+02
34.000000 -14.000000 1.560851E+02
34.000000 -16.000000 1.449895E+02
34.000000 -18.000000 1.051327E+02
34.000000 -20.000000 7.443648E+01
34.000000 -22.000000 7.047110E+01
34.000000 -24.000000 7.033924E+01
34.000000 -26.000000 5.672893E+01
34.000000 -28.000000 2.680732E+01
34.000000 -30.000000 -1.734474E+00
34.000000 -32.000000 -2.113501E+01
34.000000 -34.000000 -2.461493E+01
34.000000 -36.000000 -2.054890E+01
34.000000 -38.000000 -2.028017E+01
34.000000 -40.000000 -3.164971E+01
36.000000 40.000000 8.703479E+01
36.000000 38.000000 7.155536E+01
36.000000 36.000000 6.410056E+01
36.000000 34.000000 4.854830E+01
36.000000 32.000000 2.939691E+01
36.000000 30.000000 2.205408E+01
36.000000 28.000000 2.817101E+01
36.000000 26.000000 3.588958E+01
36.000000 24.000000 4.093625E+01
36.000000 22.000000 4.551869E+01
36.000000 20.000000 5.738470E+01
36.000000 18.000000 6.890149E+01
36.000000 16.000000 6.933852E+01
36.000000 14.000000 5.254121E+01
36.000000 12.000000 1.369157E+01
36.000000 10.000000 -3.612033E+01
36.000000 8.000000 -7.075069E+01
36.000000 6.000000 -8.392505E+01
36.000000 4.000000 -8.662718E+01
36.000000 2.000000 -9.496645E+01
36.000000 0.000000 -1.021953E+02
36.000000 -2.000000 -9.276018E+01
36.000000 -4.000000 -6.601216E+01
36.000000 -6.000000 -3.045424E+01
36.000000 -8.000000 8.852102E+00
36.000000 -10.000000 5.810495E+01
36.000000 -12.000000 1.056809E+02
36.000000 -14.000000 1.307723E+02
36.000000 -16.000000 1.229184E+02
36.000000 -18.000000 9.846799E+01
36.000000 -20.000000 8.144968E+01
36.000000 -22.000000 7.847988E+01
36.000000 -24.000000 7.055946E+01
36.000000 -26.000000 4.813344E+01
36.000000 -28.000000 2.236245E+01
36.000000 -30.000000 5.942495E+00
36.000000 -32.000000 8.605022E-01
36.000000 -34.000000 4.106754E+00
36.000000 -36.000000 4.599641E+00
36.000000 -38.000000 -1.625843E+00
36.000000 -40.000000 -1.653847E+01
38.000000 40.000000 9.509775E+01
38.000000 38.000000 8.490805E+01
38.000000 36.000000 7.844001E+01
38.000000 34.000000 6.116956E+01
38.000000 32.000000 3.990510E+01
38.000000 30.000000 3.161777E+01
38.000000 28.000000 3.584602E+01
38.000000 26.000000 3.886034E+01
38.000000 24.000000 3.939973E+01
38.000000 22.000000 4.110145E+01
38.000000 20.000000 5.059291E+01
38.000000 18.000000 6.281385E+01
38.000000 16.000000 6.248342E+01
38.000000 14.000000 4.315194E+01
38.000000 12.000000 5.788918E+00
38.000000 10.000000 -3.636514E+01
38.000000 8.000000 -5.649210E+01
38.000000 6.000000 -5.351204E+01
38.000000 4.000000 -4.354443E+01
38.000000 2.000000 -4.634490E+01
38.000000 0.000000 -5.314073E+01
38.000000 -2.000000 -5.117586E+01
38.000000 -4.000000 -3.304497E+01
38.000000 -6.000000 -7.357086E+00
38.000000 -8.000000 1.974724E+01
38.000000 -10.000000 5.516213E+01
38.000000 -12.000000 8.745395E+01
38.000000 -14.000000 1.023309E+02
38.000000 -16.000000 9.469202E+01
38.000000 -18.000000 8.053325E+01
38.000000 -20.000000 7.352634E+01
38.000000 -22.000000 7.208727E+01
38.000000 -24.000000 5.912820E+01
38.000000 -26.000000 3.279811E+01
38.000000 -28.000000 1.298425E+01
38.000000 -30.000000 1.004657E+01
38.000000 -32.000000 2.296156E+01
38.000000 -34.000000 3.565784E+01
38.000000 -36.000000 3.313146E+01
38.000000 -38.000000 1.918651E+01
38.000000 -40.000000 -2.073479E-02
40.000000 40.000000 1.039211E+02
40.000000 38.000000 9.571663E+01
40.000000 36.000000 8.914785E+01
40.000000 34.000000 7.086196E+01
40.000000 32.000000 4.795797E+01
40.000000 30.000000 3.852909E+01
40.000000 28.000000 3.906693E+01
40.000000 26.000000 3.612486E+01
40.000000 24.000000 2.914224E+01
40.000000 22.000000 2.619384E+01
40.000000 20.000000 3.180189E+01
40.000000 18.000000 4.385429E+01
40.000000 16.000000 4.650069E+01
40.000000 14.000000 3.384929E+01
40.000000 12.000000 5.496891E+00
40.000000 10.000000 -2.655157E+01
40.000000 8.000000 -3.539983E+01
40.000000 6.000000 -1.942336E+01
40.000000 4.000000 3.093176E-01
40.000000 2.000000 -7.677393E-01
40.000000 0.000000 -8.127954E+00
40.000000 -2.000000 -1.163936E+01
40.000000 -4.000000 -4.235076E+00
40.000000 -6.000000 7.906013E+00
40.000000 -8.000000 2.219248E+01
40.000000 -10.000000 4.419808E+01
40.000000 -12.000000 6.478452E+01
40.000000 -14.000000 7.367421E+01
40.000000 -16.000000 7.016525E+01
40.000000 -18.000000 6.581740E+01
40.000000 -20.000000 6.627227E+01
40.000000 -22.000000 6.585871E+01
40.000000 -24.000000 4.865092E+01
40.000000 -26.000000 2.239112E+01
40.000000 -28.000000 7.742887E+00
40.000000 -30.000000 1.430379E+01
40.000000 -32.000000 3.982864E+01
40.000000 -34.000000 6.023221E+01
40.000000 -36.000000 5.757756E+01
40.000000 -38.000000 3.804196E+01
40.000000 -40.000000 1.486434E+01
42.000000 40.000000 1.085135E+02
42.000000 38.000000 1.016813E+02
42.000000 36.000000 9.643601E+01
42.000000 34.000000 7.917752E+01
42.000000 32.000000 5.620182E+01
42.000000 30.000000 4.395281E+01
42.000000 28.000000 3.884910E+01
42.000000 26.000000 2.998700E+01
42.000000 24.000000 1.611800E+01
42.000000 22.000000 1.192517E+01
42.000000 20.000000 1.653684E+01
42.000000 18.000000 2.878610E+01
42.000000 16.000000 3.613331E+01
42.000000 14.000000 3.207777E+01
42.000000 12.000000 1.295341E+01
42.000000 10.000000 -1.117961E+01
42.000000 8.000000 -1.542485E+01
42.000000 6.000000 3.754198E+00
42.000000 4.000000 2.565837E+01
42.000000 2.000000 2.461852E+01
42.000000 0.000000 1.725797E+01
42.000000 -2.000000 1.075623E+01
42.000000 -4.000000 9.170720E+00
42.000000 -6.000000 9.960948E+00
42.000000 -8.000000 1.496242E+01
42.000000 -10.000000 2.877075E+01
42.000000 -12.000000 4.533846E+01
42.000000 -14.000000 5.433005E+01
42.000000 -16.000000 5.716323E+01
42.000000 -18.000000 6.213669E+01
42.000000 -20.000000 6.840368E+01
42.000000 -22.000000 6.706805E+01
42.000000 -24.000000 4.457516E+01
42.000000 -26.000000 1.581744E+01
42.000000 -28.000000 3.844322E+00
42.000000 -30.000000 1.612845E+01
42.000000 -32.000000 4.829246E+01
42.000000 -34.000000 7.413799E+01
42.000000 -36.000000 7.367246E+01
42.000000 -38.000000 5.281441E+01
