-20.000000 -4.000000 -9.508202E+00
-20.000000 -6.000000 -9.276617E+00
-20.000000 -8.000000 -2.141040E+01
-20.000000 -10.000000 -4.158902E+01
-20.000000 -12.000000 -4.426143E+01
-20.000000 -14.000000 -3.239303E+01
-20.000000 -16.000000 -2.207196E+01
-20.000000 -18.000000 -2.317138E+01
-20.000000 -20.000000 -2.633369E+01
-20.000000 -22.000000 -1.275957E+01
-20.000000 -24.000000 1.441650E+01
-20.000000 -26.000000 3.260000E+01
-20.000000 -28.000000 3.206990E+01
-20.000000 -30.000000 2.457295E+01
-20.000000 -32.000000 2.084465E+01
-20.000000 -34.000000 1.901686E+01
-20.000000 -36.000000 1.400220E+01
-20.000000 -38.000000 4.727978E+00
-20.000000 -40.000000 -1.153301E+01
-18.000000 40.000000 1.080924E+01
-18.000000 38.000000 -9.117701E+00
-18.000000 36.000000 -2.669632E+01
-18.000000 34.000000 -3.740928E+01
-18.000000 32.000000 -3.380390E+01
-18.000000 30.000000 -2.207397E+01
-18.000000 28.000000 -1.789236E+01
-18.000000 26.000000 -1.971139E+01
-18.000000 24.000000 -2.527831E+01
-18.000000 22.000000 -2.731703E+01
-18.000000 20.000000 -2.022323E+01
-18.000000 18.000000 3.706015E+00
-18.000000 16.000000 3.784652E+01
-18.000000 14.000000 6.458676E+01
-18.000000 12.000000 7.058665E+01
-18.000000 10.000000 5.789485E+01
-18.000000 8.000000 2.711908E+01
-18.000000 6.000000 -6.530159E+00
-18.000000 4.000000 -2.947065E+01
-18.000000 2.000000 -3.259812E+01
-18.000000 0.000000 -2.585773E+01
-18.000000 -2.000000 -1.398274E+01
-18.000000 -4.000000 -3.816924E+00
-18.000000 -6.000000 -3.163934E+00
-18.000000 -8.000000 -1.217637E+01
-18.000000 -10.000000 -2.723140E+01
-18.000000 -12.000000 -2.580440E+01
-18.000000 -14.000000 -1.425882E+01
-18.000000 -16.000000 -6.596062E+00
-18.000000 -18.000000 -1.012851E+01
-18.000000 -20.000000 -1.560076E+01
-18.000000 -22.000000 -5.169976E+00
-18.000000 -24.000000 1.734643E+01
-18.000000 -26.000000 3.318743E+01
-18.000000 -28.000000 3.370983E+01
-18.000000 -30.000000 2.867819E+01
-18.000000 -32.000000 2.605905E+01
-18.000000 -34.000000 2.302448E+01
-18.000000 -36.000000 1.220500E+01
-18.000000 -38.000000 -1.486893E-01
-18.000000 -40.000000 -1.665620E+01
-16.000000 40.000000 1.241853E+01
-16.000000 38.000000 -1.074273E+01
-16.000000 36.000000 -3.137062E+01
-16.000000 34.000000 -4.844252E+01
-16.000000 32.000000 -5.065712E+01
-16.000000 30.000000 -4.511816E+01
-16.000000 28.000000 -4.449106E+01
-16.000000 26.000000 -4.844759E+01
-16.000000 24.000000 -6.025803E+01
-16.000000 22.000000 -6.706142E+01
-16.000000 20.000000 -6.913728E+01
-16.000000 18.000000 -4.752098E+01
-16.000000 16.000000 -3.462248E+00
-16.000000 14.000000 3.889222E+01
-16.000000 12.000000 6.363708E+01
-16.000000 10.000000 6.870206E+01
-16.000000 8.000000 5.052113E+01
-16.000000 6.000000 2.612631E+01
-16.000000 4.000000 6.849781E+00
-16.000000 2.000000 3.611794E-01
-16.000000 0.000000 1.883493E+00
-16.000000 -2.000000 8.490756E+00
-16.000000 -4.000000 1.565927E+01
-16.000000 -6.000000 1.983020E+01
-16.000000 -8.000000 1.724666E+01
-16.000000 -10.000000 1.132293E+01
-16.000000 -12.000000 1.665688E+01
-16.000000 -14.000000 2.907509E+01
-16.000000 -16.000000 3.272858E+01
-16.000000 -18.000000 2.180490E+01
-16.000000 -20.000000 7.071019E+00
-16.000000 -22.000000 6.359563E+00
-16.000000 -24.000000 1.724583E+01
-16.000000 -26.000000 2.538243E+01
-16.000000 -28.000000 2.427973E+01
-16.000000 -30.000000 2.035595E+01
-16.000000 -32.000000 2.025916E+01
-16.000000 -34.000000 1.866140E+01
-16.000000 -36.000000 6.470963E+00
-16.000000 -38.000000 -5.710973E+00
-16.000000 -40.000000 -2.155291E+01
-14.000000 40.000000 1.374713E+01
-14.000000 38.000000 -1.192535E+01
-14.000000 36.000000 -3.504745E+01
-14.000000 34.000000 -5.445981E+01
-14.000000 32.000000 -5.940458E+01
-14.000000 30.000000 -5.784833E+01
-14.000000 28.000000 -6.080135E+01
-14.000000 26.000000 -6.358201E+01
-14.000000 24.000000 -7.380166E+01
-14.000000 22.000000 -8.315273E+01
-14.000000 20.000000 -9.140500E+01
-14.000000 18.000000 -7.546285E+01
-14.000000 16.000000 -3.216779E+01
-14.000000 14.000000 1.303987E+01
-14.000000 12.000000 4.502283E+01
-14.000000 10.000000 5.976528E+01
-14.000000 8.000000 5.502472E+01
-14.000000 6.000000 4.469167E+01
-14.000000 4.000000 3.745885E+01
-14.000000 2.000000 3.557752E+01
-14.000000 0.000000 3.704981E+01
-14.000000 -2.000000 3.860001E+01
-14.000000 -4.000000 4.009415E+01
-14.000000 -6.000000 4.538975E+01
-14.000000 -8.000000 4.838582E+01
-14.000000 -10.000000 5.169000E+01
-14.000000 -12.000000 6.003024E+01
-14.000000 -14.000000 7.293652E+01
-14.000000 -16.000000 7.357985E+01
-14.000000 -18.000000 5.683806E+01
-14.000000 -20.000000 3.320462E+01
-14.000000 -22.000000 1.867169E+01
-14.000000 -24.000000 1.341595E+01
-14.000000 -26.000000 1.038573E+01
-14.000000 -28.000000 8.373700E+00
-14.000000 -30.000000 7.444419E+00
-14.000000 -32.000000 9.758413E+00
-14.000000 -34.000000 1.055142E+01
-14.000000 -36.000000 5.269623E-01
-14.000000 -38.000000 -1.165514E+01
-14.000000 -40.000000 -2.791141E+01
-12.000000 40.000000 9.530553E+00
-12.000000 38.000000 -1.528569E+01
-12.000000 36.000000 -3.476588E+01
-12.000000 34.000000 -4.812836E+01
-12.000000 32.000000 -5.066574E+01
-12.000000 30.000000 -4.941025E+01
-12.000000 28.000000 -5.354413E+01
-12.000000 26.000000 -5.391068E+01
-12.000000 24.000000 -5.750639E+01
-12.000000 22.000000 -6.551271E+01
-12.000000 20.000000 -7.584363E+01
-12.000000 18.000000 -6.832009E+01
-12.000000 16.000000 -3.708135E+01
-12.000000 14.000000 -3.616896E+00
-12.000000 12.000000 2.121451E+01
-12.000000 10.000000 3.508987E+01
-12.000000 8.000000 4.265835E+01
-12.000000 6.000000 4.744840E+01
-12.000000 4.000000 5.548097E+01
-12.000000 2.000000 6.300563E+01
-12.000000 0.000000 6.906966E+01
-12.000000 -2.000000 6.713263E+01
-12.000000 -4.000000 6.236816E+01
-12.000000 -6.000000 6.314369E+01
-12.000000 -8.000000 6.497802E+01
-12.000000 -10.000000 6.913821E+01
-12.000000 -12.000000 7.585679E+01
-12.000000 -14.000000 8.650235E+01
-12.000000 -16.000000 8.630465E+01
-12.000000 -18.000000 6.876524E+01
-12.000000 -20.000000 4.316453E+01
-12.000000 -22.000000 2.387024E+01
-12.000000 -24.000000 1.017569E+01
-12.000000 -26.000000 -1.083765E-01
-12.000000 -28.000000 -3.744922E+00
-12.000000 -30.000000 -3.421032E+00
-12.000000 -32.000000 2.514172E-01
-12.000000 -34.000000 2.944523E+00
-12.000000 -36.000000 -4.253942E+00
-12.000000 -38.000000 -1.588487E+01
-12.000000 -40.000000 -3.231862E+01
-10.000000 40.000000 -1.435910E+00
-10.000000 38.000000 -1.990747E+01
-10.000000 36.000000 -2.736266E+01
-10.000000 34.000000 -2.583092E+01
-10.000000 32.000000 -2.038931E+01
-10.000000 30.000000 -1.856777E+01
-10.000000 28.000000 -2.276168E+01
-10.000000 26.000000 -2.303607E+01
-10.000000 24.000000 -2.283209E+01
-10.000000 22.000000 -2.882682E+01
-10.000000 20.000000 -3.639335E+01
-10.000000 18.000000 -3.192106E+01
-10.000000 16.000000 -1.193152E+01
-10.000000 14.000000 6.226940E+00
-10.000000 12.000000 1.591850E+01
-10.000000 10.000000 1.943038E+01
-10.000000 8.000000 2.753417E+01
-10.000000 6.000000 3.309338E+01
-10.000000 4.000000 4.290227E+01
-10.000000 2.000000 5.519096E+01
-10.000000 0.000000 6.689745E+01
-10.000000 -2.000000 6.907831E+01
-10.000000 -4.000000 6.595965E+01
-10.000000 -6.000000 6.349571E+01
-10.000000 -8.000000 6.050751E+01
-10.000000 -10.000000 5.791498E+01
-10.000000 -12.000000 5.863786E+01
-10.000000 -14.000000 6.599085E+01
-10.000000 -16.000000 6.681119E+01
-10.000000 -18.000000 5.269918E+01
-10.000000 -20.000000 3.292461E+01
-10.000000 -22.000000 2.021544E+01
-10.000000 -24.000000 1.018886E+01
-10.000000 -26.000000 5.348911E-01
-10.000000 -28.000000 -5.882771E+00
-10.000000 -30.000000 -8.206318E+00
-10.000000 -32.000000 -5.461817E+00
-10.000000 -34.000000 -2.420531E+00
-10.000000 -36.000000 -7.865749E+00
-10.000000 -38.000000 -1.743425E+01
-10.000000 -40.000000 -3.229647E+01
-8.000000 40.000000 -1.324228E+01
-8.000000 38.000000 -2.092148E+01
-8.000000 36.000000 -1.252011E+01
-8.000000 34.000000 6.028706E+00
-8.000000 32.000000 1.965995E+01
-8.000000 30.000000 2.067906E+01
-8.000000 28.000000 1.317596E+01
-8.000000 26.000000 9.369833E+00
-8.000000 24.000000 9.602190E+00
-8.000000 22.000000 3.732195E+00
-8.000000 20.000000 3.050968E+00
-8.000000 18.000000 1.548322E+01
-8.000000 16.000000 3.539767E+01
-8.000000 14.000000 4.662902E+01
-8.000000 12.000000 4.395881E+01
-8.000000 10.000000 3.478358E+01
-8.000000 8.000000 2.847135E+01
-8.000000 6.000000 1.526905E+01
-8.000000 4.000000 4.704269E+00
-8.000000 2.000000 1.013410E+01
-8.000000 0.000000 2.395524E+01
-8.000000 -2.000000 3.649602E+01
-8.000000 -4.000000 4.283691E+01
-8.000000 -6.000000 4.190996E+01
-8.000000 -8.000000 3.618836E+01
-8.000000 -10.000000 2.649107E+01
-8.000000 -12.000000 2.137032E+01
-8.000000 -14.000000 2.699619E+01
-8.000000 -16.000000 3.041887E+01
-8.000000 -18.000000 2.233090E+01
-8.000000 -20.000000 1.296828E+01
-8.000000 -22.000000 1.204886E+01
-8.000000 -24.000000 1.305995E+01
-8.000000 -26.000000 9.174937E+00
-8.000000 -28.000000 6.208210E-01
-8.000000 -30.000000 -5.849646E+00
-8.000000 -32.000000 -5.185680E+00
-8.000000 -34.000000 -2.654499E+00
-8.000000 -36.000000 -7.939817E+00
-8.000000 -38.000000 -1.722840E+01
-8.000000 -40.000000 -3.081565E+01
-6.000000 40.000000 -1.981227E+01
-6.000000 38.000000 -1.680742E+01
-6.000000 36.000000 4.767016E+00
-6.000000 34.000000 3.505771E+01
-6.000000 32.000000 5.292952E+01
-6.000000 30.000000 5.135113E+01
-6.000000 28.000000 3.750534E+01
-6.000000 26.000000 2.898795E+01
-6.000000 24.000000 2.781532E+01
-6.000000 22.000000 2.081395E+01
-6.000000 20.000000 2.656535E+01
-6.000000 18.000000 5.057770E+01
-6.000000 16.000000 7.695584E+01
-6.000000 14.000000 8.874373E+01
-6.000000 12.000000 8.157716E+01
-6.000000 10.000000 6.731373E+01
-6.000000 8.000000 4.951801E+01
-6.000000 6.000000 1.692261E+01
-6.000000 4.000000 -2.084969E+01
-6.000000 2.000000 -3.235748E+01
-6.000000 0.000000 -2.317710E+01
-6.000000 -2.000000 -4.614155E+00
-6.000000 -4.000000 8.136824E+00
-6.000000 -6.000000 1.097094E+01
-6.000000 -8.000000 6.051655E+00
-6.000000 -10.000000 -7.881813E+00
-6.000000 -12.000000 -1.562957E+01
-6.000000 -14.000000 -1.092244E+01
-6.000000 -16.000000 -5.408546E+00
-6.000000 -18.000000 -8.684292E+00
-6.000000 -20.000000 -1.040483E+01
-6.000000 -22.000000 -2.408600E-02
-6.000000 -24.000000 1.444399E+01
-6.000000 -26.000000 1.854237E+01
-6.000000 -28.000000 9.955959E+00
-6.000000 -30.000000 1.591057E+00
-6.000000 -32.000000 1.448055E+00
-6.000000 -34.000000 2.437796E+00
-6.000000 -36.000000 -4.470552E+00
-6.000000 -38.000000 -1.601838E+01
-6.000000 -40.000000 -2.993361E+01
-4.000000 40.000000 -1.845596E+01
-4.000000 38.000000 -1.042428E+01
-4.000000 36.000000 1.595380E+01
-4.000000 34.000000 4.926287E+01
-4.000000 32.000000 6.752746E+01
-4.000000 30.000000 6.262903E+01
-4.000000 28.000000 4.345241E+01
-4.000000 26.000000 3.231505E+01
-4.000000 24.000000 2.873156E+01
-4.000000 22.000000 2.085962E+01
-4.000000 20.000000 2.988751E+01
-4.000000 18.000000 6.084530E+01
-4.000000 16.000000 9.421161E+01
-4.000000 14.000000 1.110454E+02
-4.000000 12.000000 1.080352E+02
-4.000000 10.000000 1.001015E+02
-4.000000 8.000000 8.261580E+01
-4.000000 6.000000 4.008512E+01
-4.000000 4.000000 -2.007726E+01
-4.000000 2.000000 -4.910845E+01
-4.000000 0.000000 -4.678047E+01
-4.000000 -2.000000 -2.725320E+01
-4.000000 -4.000000 -1.278609E+01
-4.000000 -6.000000 -8.210003E+00
-4.000000 -8.000000 -1.193136E+01
-4.000000 -10.000000 -2.708332E+01
-4.000000 -12.000000 -3.546148E+01
-4.000000 -14.000000 -3.288760E+01
-4.000000 -16.000000 -2.774214E+01
-4.000000 -18.000000 -2.923380E+01
-4.000000 -20.000000 -2.761731E+01
-4.000000 -22.000000 -1.047707E+01
-4.000000 -24.000000 1.290452E+01
-4.000000 -26.000000 2.364552E+01
-4.000000 -28.000000 1.776218E+01
-4.000000 -30.000000 1.074480E+01
-4.000000 -32.000000 9.118167E+00
-4.000000 -34.000000 6.898740E+00
-4.000000 -36.000000 -1.641558E+00
-4.000000 -38.000000 -1.413652E+01
-4.000000 -40.000000 -2.876414E+01
-2.000000 40.000000 -1.109139E+01
-2.000000 38.000000 -4.158592E+00
-2.000000 36.000000 1.907741E+01
-2.000000 34.000000 4.768389E+01
-2.000000 32.000000 6.242986E+01
-2.000000 30.000000 5.450877E+01
-2.000000 28.000000 3.299976E+01
-2.000000 26.000000 2.055458E+01
-2.000000 24.000000 1.329529E+01
-2.000000 22.000000 5.492289E+00
-2.000000 20.000000 1.496439E+01
-2.000000 18.000000 4.696990E+01
-2.000000 16.000000 8.426564E+01
-2.000000 14.000000 1.078287E+02
-2.000000 12.000000 1.167716E+02
-2.000000 10.000000 1.232826E+02
-2.000000 8.000000 1.128061E+02
-2.000000 6.000000 7.022843E+01
-2.000000 4.000000 1.297264E+00
-2.000000 2.000000 -3.693623E+01
-2.000000 0.000000 -3.886641E+01
-2.000000 -2.000000 -2.084767E+01
-2.000000 -4.000000 -5.850334E+00
-2.000000 -6.000000 -9.594383E-01
-2.000000 -8.000000 -6.580734E+00
-2.000000 -10.000000 -2.344713E+01
-2.000000 -12.000000 -3.334712E+01
-2.000000 -14.000000 -3.308918E+01
-2.000000 -16.000000 -2.922895E+01
-2.000000 -18.000000 -3.227404E+01
-2.000000 -20.000000 -3.177994E+01
-2.000000 -22.000000 -1.493412E+01
-2.000000 -24.000000 9.773275E+00
-2.000000 -26.000000 2.395023E+01
-2.000000 -28.000000 2.059383E+01
-2.000000 -30.000000 1.456509E+01
-2.000000 -32.000000 1.108576E+01
-2.000000 -34.000000 7.237498E+00
-2.000000 -36.000000 -2.675667E-01
-2.000000 -38.000000 -1.133674E+01
-2.000000 -40.000000 -2.559195E+01
0.000000 40.000000 -1.643456E+00
0.000000 38.000000 3.986473E-01
0.000000 36.000000 1.498002E+01
0.000000 34.000000 3.384190E+01
0.000000 32.000000 4.292419E+01
0.000000 30.000000 3.427582E+01
0.000000 28.000000 1.405458E+01
0.000000 26.000000 6.466675E-01
0.000000 24.000000 -1.068689E+01
0.000000 22.000000 -1.834645E+01
0.000000 20.000000 -1.012318E+01
0.000000 18.000000 2.224564E+01
0.000000 16.000000 6.131429E+01
0.000000 14.000000 9.050838E+01
0.000000 12.000000 1.132756E+02
0.000000 10.000000 1.336259E+02
0.000000 8.000000 1.310678E+02
0.000000 6.000000 9.395385E+01
0.000000 4.000000 2.934162E+01
0.000000 2.000000 -8.292439E+00
0.000000 0.000000 -1.116188E+01
0.000000 -2.000000 4.914806E+00
0.000000 -4.000000 1.995964E+01
0.000000 -6.000000 2.553430E+01
0.000000 -8.000000 1.780509E+01
0.000000 -10.000000 -8.818779E-01
0.000000 -12.000000 -1.357674E+01
0.000000 -14.000000 -1.345887E+01
0.000000 -16.000000 -1.061308E+01
0.000000 -18.000000 -1.792704E+01
0.000000 -20.000000 -2.206789E+01
0.000000 -22.000000 -1.170375E+01
0.000000 -24.000000 8.156431E+00
0.000000 -26.000000 2.067485E+01
0.000000 -28.000000 1.731758E+01
0.000000 -30.000000 1.078304E+01
0.000000 -32.000000 7.325438E+00
0.000000 -34.000000 5.142727E+00
0.000000 -36.000000 6.935482E-01
0.000000 -38.000000 -7.576118E+00
0.000000 -40.000000 -1.956210E+01
2.000000 40.000000 6.753476E+00
2.000000 38.000000 2.042918E+00
2.000000 36.000000 4.895327E+00
2.000000 34.000000 1.123297E+01
2.000000 32.000000 1.508972E+01
2.000000 30.000000 9.851570E+00
2.000000 28.000000 -5.668633E+00
2.000000 26.000000 -1.703298E+01
2.000000 24.000000 -2.941571E+01
2.000000 22.000000 -3.810190E+01
2.000000 20.000000 -3.183398E+01
2.000000 18.000000 9.122353E-01
2.000000 16.000000 4.050571E+01
2.000000 14.000000 7.494903E+01
2.000000 12.000000 1.081719E+02
2.000000 10.000000 1.362846E+02
2.000000 8.000000 1.368021E+02
2.000000 6.000000 1.052212E+02
2.000000 4.000000 5.238202E+01
2.000000 2.000000 2.148949E+01
2.000000 0.000000 1.974234E+01
2.000000 -2.000000 3.358910E+01
2.000000 -4.000000 4.630076E+01
2.000000 -6.000000 5.225162E+01
2.000000 -8.000000 4.486840E+01
2.000000 -10.000000 2.712649E+01
2.000000 -12.000000 1.309677E+01
2.000000 -14.000000 1.431680E+01
2.000000 -16.000000 1.602307E+01
2.000000 -18.000000 5.590130E+00
2.000000 -20.000000 -4.420252E+00
2.000000 -22.000000 -2.545715E+00
2.000000 -24.000000 1.040573E+01
2.000000 -26.000000 1.796776E+01
2.000000 -28.000000 1.398337E+01
2.000000 -30.000000 8.511012E+00
2.000000 -32.000000 5.910213E+00
2.000000 -34.000000 4.302856E+00
2.000000 -36.000000 7.552624E-01
2.000000 -38.000000 -3.860662E+00
2.000000 -40.000000 -1.233065E+01
4.000000 40.000000 1.207442E+01
4.000000 38.000000 1.250472E+00
4.000000 36.000000 -6.477562E+00
4.000000 34.000000 -1.158160E+01
4.000000 32.000000 -1.229579E+01
4.000000 30.000000 -1.183164E+01
4.000000 28.000000 -1.926749E+01
4.000000 26.000000 -2.465597E+01
4.000000 24.000000 -3.515534E+01
4.000000 22.000000 -4.510121E+01
4.000000 20.000000 -4.096883E+01
4.000000 18.000000 -1.145777E+01
4.000000 16.000000 2.550857E+01
4.000000 14.000000 6.332214E+01
4.000000 12.000000 1.017658E+02
4.000000 10.000000 1.331049E+02
4.000000 8.000000 1.342155E+02
4.000000 6.000000 1.084597E+02
4.000000 4.000000 6.891213E+01
4.000000 2.000000 4.612660E+01
4.000000 0.000000 4.771955E+01
4.000000 -2.000000 5.827022E+01
4.000000 -4.000000 6.497524E+01
4.000000 -6.000000 6.735236E+01
4.000000 -8.000000 5.902184E+01
4.000000 -10.000000 4.370309E+01
4.000000 -12.000000 3.284639E+01
4.000000 -14.000000 3.627763E+01
4.000000 -16.000000 3.716911E+01
4.000000 -18.000000 2.518789E+01
4.000000 -20.000000 1.011773E+01
4.000000 -22.000000 6.597420E+00
4.000000 -24.000000 1.512111E+01
4.000000 -26.000000 2.047054E+01
4.000000 -28.000000 1.673401E+01
4.000000 -30.000000 1.368565E+01
4.000000 -32.000000 1.232886E+01
4.000000 -34.000000 9.513618E+00
4.000000 -36.000000 3.543555E+00
4.000000 -38.000000 3.311081E-01
4.000000 -40.000000 -6.382664E+00
6.000000 40.000000 1.280900E+01
6.000000 38.000000 -4.315567E-02
6.000000 36.000000 -1.268390E+01
6.000000 34.000000 -2.387345E+01
6.000000 32.000000 -2.806150E+01
6.000000 30.000000 -2.408136E+01
6.000000 28.000000 -2.286591E+01
6.000000 26.000000 -2.137772E+01
6.000000 24.000000 -2.884786E+01
6.000000 22.000000 -3.837835E+01
6.000000 20.000000 -3.691715E+01
6.000000 18.000000 -1.577955E+01
6.000000 16.000000 1.508512E+01
6.000000 14.000000 5.127220E+01
6.000000 12.000000 8.818753E+01
6.000000 10.000000 1.180376E+02
6.000000 8.000000 1.210346E+02
6.000000 6.000000 1.031632E+02
6.000000 4.000000 7.719307E+01
6.000000 2.000000 6.466083E+01
6.000000 0.000000 7.050234E+01
6.000000 -2.000000 7.633707E+01
6.000000 -4.000000 7.419421E+01
6.000000 -6.000000 6.797383E+01
6.000000 -8.000000 5.525652E+01
6.000000 -10.000000 4.131207E+01
6.000000 -12.000000 3.752167E+01
6.000000 -14.000000 4.607841E+01
6.000000 -16.000000 4.876184E+01
6.000000 -18.000000 3.623349E+01
6.000000 -20.000000 1.900969E+01
6.000000 -22.000000 1.212307E+01
6.000000 -24.000000 1.798988E+01
6.000000 -26.000000 2.597595E+01
6.000000 -28.000000 2.446964E+01
6.000000 -30.000000 2.398490E+01
6.000000 -32.000000 2.549799E+01
6.000000 -34.000000 2.257237E+01
6.000000 -36.000000 1.298381E+01
6.000000 -38.000000 6.135911E+00
6.000000 -40.000000 -2.511522E+00
8.000000 40.000000 7.513643E+00
8.000000 38.000000 -7.669353E-02
8.000000 36.000000 -8.439259E+00
8.000000 34.000000 -1.789146E+01
8.000000 32.000000 -2.377497E+01
8.000000 30.000000 -2.073872E+01
8.000000 28.000000 -1.674624E+01
8.000000 26.000000 -1.215940E+01
8.000000 24.000000 -1.544256E+01
8.000000 22.000000 -2.515984E+01
8.000000 20.000000 -2.777541E+01
8.000000 18.000000 -1.601775E+01
8.000000 16.000000 7.132359E+00
8.000000 14.000000 3.670300E+01
8.000000 12.000000 6.449543E+01
8.000000 10.000000 8.718382E+01
8.000000 8.000000 9.328465E+01
8.000000 6.000000 8.411189E+01
8.000000 4.000000 7.197585E+01
8.000000 2.000000 7.299908E+01
8.000000 0.000000 8.185284E+01
8.000000 -2.000000 8.346289E+01
8.000000 -4.000000 7.387824E+01
8.000000 -6.000000 5.891975E+01
8.000000 -8.000000 4.245100E+01
8.000000 -10.000000 2.862286E+01
8.000000 -12.000000 3.154899E+01
8.000000 -14.000000 4.738663E+01
8.000000 -16.000000 5.570454E+01
8.000000 -18.000000 4.481348E+01
8.000000 -20.000000 2.660666E+01
8.000000 -22.000000 1.475214E+01
8.000000 -24.000000 1.587223E+01
8.000000 -26.000000 2.450903E+01
8.000000 -28.000000 2.919304E+01
8.000000 -30.000000 3.547430E+01
8.000000 -32.000000 4.170473E+01
8.000000 -34.000000 3.908399E+01
8.000000 -36.000000 2.633668E+01
8.000000 -38.000000 1.371365E+01
8.000000 -40.000000 1.242352E+00
10.000000 40.000000 -1.358506E+00
10.000000 38.000000 1.221087E+00
10.000000 36.000000 4.430130E+00
10.000000 34.000000 2.994356E+00
10.000000 32.000000 -3.189316E+00
10.000000 30.000000 -4.520840E+00
10.000000 28.000000 -4.612762E+00
10.000000 26.000000 -7.237911E-01
10.000000 24.000000 -7.661781E-01
10.000000 22.000000 -1.211024E+01
10.000000 20.000000 -1.815450E+01
10.000000 18.000000 -1.389439E+01
10.000000 16.000000 3.528290E-01
10.000000 14.000000 1.938085E+01
10.000000 12.000000 3.532862E+01
10.000000 10.000000 4.707747E+01
10.000000 8.000000 5.213121E+01
10.000000 6.000000 4.832993E+01
10.000000 4.000000 4.848400E+01
10.000000 2.000000 6.316310E+01
10.000000 0.000000 7.839502E+01
10.000000 -2.000000 8.118433E+01
10.000000 -4.000000 6.968191E+01
10.000000 -6.000000 5.163288E+01
10.000000 -8.000000 3.345153E+01
10.000000 -10.000000 1.871864E+01
10.000000 -12.000000 2.620997E+01
10.000000 -14.000000 4.941511E+01
10.000000 -16.000000 6.445458E+01
10.000000 -18.000000 5.578581E+01
10.000000 -20.000000 3.421388E+01
10.000000 -22.000000 1.599249E+01
10.000000 -24.000000 1.144958E+01
10.000000 -26.000000 1.679076E+01
10.000000 -28.000000 2.878772E+01
10.000000 -30.000000 4.406744E+01
10.000000 -32.000000 5.444378E+01
10.000000 -34.000000 5.135797E+01
10.000000 -36.000000 3.682827E+01
10.000000 -38.000000 2.051627E+01
10.000000 -40.000000 5.749328E+00
12.000000 40.000000 -4.951727E+00
12.000000 38.000000 4.264513E+00
12.000000 36.000000 1.545583E+01
12.000000 34.000000 2.178626E+01
12.000000 32.000000 1.650947E+01
12.000000 30.000000 1.057759E+01
12.000000 28.000000 5.790941E+00
12.000000 26.000000 8.274103E+00
12.000000 24.000000 1.030853E+01
12.000000 22.000000 -5.345535E-01
12.000000 20.000000 -9.119877E+00
12.000000 18.000000 -1.105920E+01
12.000000 16.000000 -4.739006E+00
12.000000 14.000000 3.424725E+00
12.000000 12.000000 8.883823E+00
12.000000 10.000000 1.172564E+01
12.000000 8.000000 1.390745E+01
12.000000 6.000000 1.291471E+01
12.000000 4.000000 2.172791E+01
12.000000 2.000000 4.636300E+01
12.000000 0.000000 6.979487E+01
12.000000 -2.000000 7.800167E+01
12.000000 -4.000000 6.960985E+01
12.000000 -6.000000 5.247116E+01
12.000000 -8.000000 3.128966E+01
12.000000 -10.000000 1.178552E+01
12.000000 -12.000000 2.031150E+01
12.000000 -14.000000 5.007795E+01
12.000000 -16.000000 7.270919E+01
12.000000 -18.000000 6.608241E+01
12.000000 -20.000000 4.066401E+01
12.000000 -22.000000 1.969487E+01
12.000000 -24.000000 1.295176E+01
12.000000 -26.000000 1.645843E+01
12.000000 -28.000000 2.963049E+01
12.000000 -30.000000 4.720271E+01
12.000000 -32.000000 5.796152E+01
12.000000 -34.000000 5.332140E+01
12.000000 -36.000000 3.769169E+01
12.000000 -38.000000 2.176322E+01
12.000000 -40.000000 9.044146E+00
14.000000 40.000000 -1.593714E+00
14.000000 38.000000 9.902496E+00
14.000000 36.000000 2.335253E+01
14.000000 34.000000 3.281111E+01
14.000000 32.000000 2.642919E+01
14.000000 30.000000 1.416388E+01
14.000000 28.000000 4.703753E+00
14.000000 26.000000 5.505333E+00
14.000000 24.000000 9.004992E+00
14.000000 22.000000 3.107224E+00
14.000000 20.000000 -3.317074E+00
14.000000 18.000000 -5.432835E+00
14.000000 16.000000 -2.683502E+00
14.000000 14.000000 -1.696419E+00
14.000000 12.000000 -5.247234E+00
14.000000 10.000000 -9.914192E+00
14.000000 8.000000 -9.869812E+00
14.000000 6.000000 -7.746742E+00
14.000000 4.000000 1.158846E+01
14.000000 2.000000 4.693568E+01
14.000000 0.000000 7.823668E+01
14.000000 -2.000000 9.101575E+01
14.000000 -4.000000 8.415870E+01
14.000000 -6.000000 6.290169E+01
14.000000 -8.000000 3.279094E+01
14.000000 -10.000000 4.564175E+00
14.000000 -12.000000 1.041053E+01
14.000000 -14.000000 4.429692E+01
14.000000 -16.000000 7.449373E+01
14.000000 -18.000000 7.124314E+01
14.000000 -20.000000 4.423083E+01
14.000000 -22.000000 2.328705E+01
14.000000 -24.000000 1.616156E+01
14.000000 -26.000000 1.953970E+01
14.000000 -28.000000 2.916601E+01
14.000000 -30.000000 4.165470E+01
14.000000 -32.000000 4.926439E+01
14.000000 -34.000000 4.369427E+01
14.000000 -36.000000 2.951240E+01
14.000000 -38.000000 1.841261E+01
14.000000 -40.000000 1.180781E+01
16.000000 40.000000 1.776413E+00
16.000000 38.000000 1.655912E+01
16.000000 36.000000 3.359858E+01
16.000000 34.000000 4.280861E+01
16.000000 32.000000 3.139113E+01
16.000000 30.000000 1.031922E+01
16.000000 28.000000 -6.825310E+00
16.000000 26.000000 -9.129044E+00
16.000000 24.000000 -5.284750E+00
16.000000 22.000000 -4.541351E+00
16.000000 20.000000 -4.288364E+00
16.000000 18.000000 -6.262283E-01
16.000000 16.000000 3.007969E+00
16.000000 14.000000 1.370575E+00
16.000000 12.000000 -6.734119E+00
16.000000 10.000000 -1.508695E+01
16.000000 8.000000 -1.374541E+01
16.000000 6.000000 -6.132774E+00
16.000000 4.000000 2.445477E+01
16.000000 2.000000 6.962567E+01
16.000000 0.000000 1.060691E+02
16.000000 -2.000000 1.186615E+02
16.000000 -4.000000 1.085435E+02
16.000000 -6.000000 7.889600E+01
16.000000 -8.000000 3.719498E+01
16.000000 -10.000000 -4.344673E-01
16.000000 -12.000000 1.280775E+00
16.000000 -14.000000 3.806815E+01
16.000000 -16.000000 7.365621E+01
16.000000 -18.000000 7.188991E+01
16.000000 -20.000000 4.307550E+01
16.000000 -22.000000 2.068111E+01
16.000000 -24.000000 1.321551E+01
16.000000 -26.000000 1.580482E+01
16.000000 -28.000000 2.126155E+01
16.000000 -30.000000 2.583077E+01
16.000000 -32.000000 2.859321E+01
16.000000 -34.000000 2.449416E+01
16.000000 -36.000000 1.698555E+01
16.000000 -38.000000 1.467387E+01
16.000000 -40.000000 1.620312E+01
18.000000 40.000000 2.511437E+00
18.000000 38.000000 2.194158E+01
18.000000 36.000000 4.512218E+01
18.000000 34.000000 5.544857E+01
18.000000 32.000000 3.856063E+01
18.000000 30.000000 7.165424E+00
18.000000 28.000000 -2.018167E+01
18.000000 26.000000 -2.704909E+01
18.000000 24.000000 -2.644900E+01
18.000000 22.000000 -2.305148E+01
18.000000 20.000000 -1.677375E+01
18.000000 18.000000 -3.643307E+00
18.000000 16.000000 6.041651E+00
18.000000 14.000000 7.420187E+00
18.000000 12.000000 1.493748E+00
18.000000 10.000000 -3.252483E+00
18.000000 8.000000 4.686417E+00
18.000000 6.000000 1.999181E+01
18.000000 4.000000 5.622943E+01
18.000000 2.000000 1.034982E+02
18.000000 0.000000 1.374390E+02
18.000000 -2.000000 1.403613E+02
18.000000 -4.000000 1.199596E+02
18.000000 -6.000000 8.363335E+01
18.000000 -8.000000 3.723059E+01
18.000000 -10.000000 -4.725735E+00
18.000000 -12.000000 -4.274612E+00
18.000000 -14.000000 3.827559E+01
18.000000 -16.000000 7.801495E+01
18.000000 -18.000000 7.299137E+01
18.000000 -20.000000 3.815655E+01
18.000000 -22.000000 1.204382E+01
18.000000 -24.000000 5.006433E+00
18.000000 -26.000000 6.283759E+00
18.000000 -28.000000 8.371938E+00
18.000000 -30.000000 6.727237E+00
18.000000 -32.000000 5.308957E+00
18.000000 -34.000000 3.641047E+00
18.000000 -36.000000 4.458166E+00
18.000000 -38.000000 1.063132E+01
18.000000 -40.000000 1.900875E+01
20.000000 40.000000 -2.497089E-01
20.000000 38.000000 2.413572E+01
20.000000 36.000000 5.544940E+01
20.000000 34.000000 7.214978E+01
20.000000 32.000000 5.281156E+01
20.000000 30.000000 1.156569E+01
20.000000 28.000000 -2.574495E+01
20.000000 26.000000 -3.855009E+01
20.000000 24.000000 -4.558004E+01
20.000000 22.000000 -4.474073E+01
20.000000 20.000000 -3.629242E+01
20.000000 18.000000 -1.442999E+01
20.000000 16.000000 4.901236E+00
20.000000 14.000000 1.192403E+01
20.000000 12.000000 1.162728E+01
20.000000 10.000000 1.672125E+01
20.000000 8.000000 3.454322E+01
20.000000 6.000000 5.666634E+01
20.000000 4.000000 9.187134E+01
20.000000 2.000000 1.317153E+02
20.000000 0.000000 1.552415E+02
20.000000 -2.000000 1.448646E+02
20.000000 -4.000000 1.140426E+02
20.000000 -6.000000 7.446735E+01
20.000000 -8.000000 2.821174E+01
20.000000 -10.000000 -1.277364E+01
20.000000 -12.000000 -7.908667E+00
20.000000 -14.000000 4.109781E+01
20.000000 -16.000000 8.243183E+01
20.000000 -18.000000 7.238772E+01
20.000000 -20.000000 3.129114E+01
20.000000 -22.000000 1.998802E+00
20.000000 -24.000000 -4.536263E+00
20.000000 -26.000000 -3.165599E+00
20.000000 -28.000000 -2.761210E+00
20.000000 -30.000000 -7.467985E+00
20.000000 -32.000000 -1.138908E+01
20.000000 -34.000000 -1.099975E+01
20.000000 -36.000000 -4.522201E+00
20.000000 -38.000000 5.509599E+00
20.000000 -40.000000 1.637362E+01
22.000000 40.000000 -8.583911E+00
22.000000 38.000000 2.058238E+01
22.000000 36.000000 6.152763E+01
22.000000 34.000000 8.950798E+01
22.000000 32.000000 7.403449E+01
22.000000 30.000000 2.841698E+01
22.000000 28.000000 -1.594335E+01
22.000000 26.000000 -3.733422E+01
22.000000 24.000000 -5.354018E+01
22.000000 22.000000 -5.403772E+01
22.000000 20.000000 -4.449321E+01
22.000000 18.000000 -1.918991E+01
22.000000 16.000000 6.003403E+00
22.000000 14.000000 1.670493E+01
22.000000 12.000000 2.103170E+01
22.000000 10.000000 3.399669E+01
22.000000 8.000000 5.906325E+01
22.000000 6.000000 8.452152E+01
22.000000 4.000000 1.131350E+02
22.000000 2.000000 1.383714E+02
22.000000 0.000000 1.477791E+02
22.000000 -2.000000 1.287568E+02
22.000000 -4.000000 9.540907E+01
22.000000 -6.000000 5.674114E+01
22.000000 -8.000000 1.231835E+01
22.000000 -10.000000 -2.512229E+01
22.000000 -12.000000 -1.258376E+01
22.000000 -14.000000 3.976777E+01
22.000000 -16.000000 7.862969E+01
22.000000 -18.000000 6.328956E+01
22.000000 -20.000000 1.858076E+01
22.000000 -22.000000 -1.043433E+01
22.000000 -24.000000 -1.320180E+01
22.000000 -26.000000 -8.364527E+00
22.000000 -28.000000 -9.762537E+00
22.000000 -30.000000 -1.691946E+01
22.000000 -32.000000 -2.121526E+01
22.000000 -34.000000 -1.839858E+01
22.000000 -36.000000 -9.706258E+00
22.000000 -38.000000 6.145282E-01
22.000000 -40.000000 1.074380E+01
24.000000 40.000000 -2.264656E+01
24.000000 38.000000 9.639048E+00
24.000000 36.000000 5.868744E+01
24.000000 34.000000 9.999007E+01
24.000000 32.000000 9.527712E+01
24.000000 30.000000 5.332275E+01
24.000000 28.000000 6.979734E+00
24.000000 26.000000 -2.093372E+01
24.000000 24.000000 -4.153447E+01
24.000000 22.000000 -4.154605E+01
24.000000 20.000000 -2.948844E+01
24.000000 18.000000 -2.191742E+00
24.000000 16.000000 2.298937E+01
24.000000 14.000000 3.408325E+01
24.000000 12.000000 3.910678E+01
24.000000 10.000000 5.150415E+01
24.000000 8.000000 7.314351E+01
24.000000 6.000000 9.183644E+01
24.000000 4.000000 1.056604E+02
24.000000 2.000000 1.137069E+02
24.000000 0.000000 1.125510E+02
24.000000 -2.000000 9.550540E+01
24.000000 -4.000000 6.973530E+01
24.000000 -6.000000 3.627260E+01
24.000000 -8.000000 -4.924334E+00
24.000000 -10.000000 -3.990593E+01
24.000000 -12.000000 -2.529226E+01
24.000000 -14.000000 2.454576E+01
24.000000 -16.000000 5.725245E+01
24.000000 -18.000000 3.716441E+01
24.000000 -20.000000 -6.000086E+00
24.000000 -22.000000 -2.877273E+01
24.000000 -24.000000 -2.181716E+01
24.000000 -26.000000 -1.080935E+01
24.000000 -28.000000 -1.398313E+01
24.000000 -30.000000 -2.218082E+01
24.000000 -32.000000 -2.538518E+01
24.000000 -34.000000 -2.071690E+01
24.000000 -36.000000 -1.234804E+01
24.000000 -38.000000 -2.813845E+00
24.000000 -40.000000 5.595189E+00
26.000000 40.000000 -4.225722E+01
26.000000 38.000000 -7.748293E+00
26.000000 36.000000 4.667145E+01
26.000000 34.000000 1.005507E+02
26.000000 32.000000 1.077130E+02
26.000000 30.000000 7.376600E+01
26.000000 28.000000 3.276956E+01
26.000000 26.000000 8.635338E+00
26.000000 24.000000 -6.149574E+00
26.000000 22.000000 -7.203844E+00
26.000000 20.000000 5.552364E+00
26.000000 18.000000 3.178517E+01
26.000000 16.000000 5.272851E+01
26.000000 14.000000 6.184928E+01
26.000000 12.000000 6.413586E+01
26.000000 10.000000 7.083352E+01
26.000000 8.000000 8.070445E+01
26.000000 6.000000 8.423905E+01
26.000000 4.000000 7.755803E+01
26.000000 2.000000 7.005878E+01
26.000000 0.000000 6.399665E+01
26.000000 -2.000000 5.677989E+01
26.000000 -4.000000 4.469950E+01
26.000000 -6.000000 1.878862E+01
26.000000 -8.000000 -1.948987E+01
26.000000 -10.000000 -5.395020E+01
26.000000 -12.000000 -4.438608E+01
26.000000 -14.000000 -5.474178E+00
26.000000 -16.000000 1.483548E+01
26.000000 -18.000000 -8.477075E+00
26.000000 -20.000000 -4.430632E+01
26.000000 -22.000000 -5.524507E+01
26.000000 -24.000000 -3.616310E+01
26.000000 -26.000000 -1.733225E+01
26.000000 -28.000000 -1.657755E+01
26.000000 -30.000000 -2.107719E+01
26.000000 -32.000000 -2.441439E+01
26.000000 -34.000000 -2.161049E+01
26.000000 -36.000000 -1.460280E+01
26.000000 -38.000000 -4.740685E+00
26.000000 -40.000000 2.640195E+00
28.000000 40.000000 -6.509500E+01
28.000000 38.000000 -3.066878E+01
28.000000 36.000000 2.536443E+01
28.000000 34.000000 8.716782E+01
28.000000 32.000000 1.055060E+02
28.000000 30.000000 8.347125E+01
28.000000 28.000000 5.441033E+01
28.000000 26.000000 4.186406E+01
28.000000 24.000000 3.999567E+01
28.000000 22.000000 3.695275E+01
28.000000 20.000000 4.399973E+01
28.000000 18.000000 6.063562E+01
28.000000 16.000000 7.227390E+01
28.000000 14.000000 7.718626E+01
28.000000 12.000000 7.820713E+01
28.000000 10.000000 8.517644E+01
28.000000 8.000000 9.006102E+01
28.000000 6.000000 8.261589E+01
28.000000 4.000000 5.816711E+01
28.000000 2.000000 3.727180E+01
28.000000 0.000000 2.645252E+01
28.000000 -2.000000 2.723212E+01
28.000000 -4.000000 2.607558E+01
28.000000 -6.000000 7.683565E+00
28.000000 -8.000000 -2.966838E+01
28.000000 -10.000000 -6.719114E+01
28.000000 -12.000000 -6.714135E+01
28.000000 -14.000000 -4.232164E+01
28.000000 -16.000000 -3.529607E+01
28.000000 -18.000000 -6.224732E+01
28.000000 -20.000000 -9.236446E+01
28.000000 -22.000000 -9.165030E+01
28.000000 -24.000000 -5.965342E+01
28.000000 -26.000000 -2.954715E+01
28.000000 -28.000000 -1.953390E+01
28.000000 -30.000000 -1.697528E+01
28.000000 -32.000000 -1.993999E+01
28.000000 -34.000000 -1.992534E+01
28.000000 -36.000000 -1.509559E+01
28.000000 -38.000000 -5.321836E+00
28.000000 -40.000000 1.075231E+00
30.000000 40.000000 -8.627739E+01
30.000000 38.000000 -5.737058E+01
30.000000 36.000000 -5.948981E+00
30.000000 34.000000 5.639410E+01
30.000000 32.000000 8.604536E+01
30.000000 30.000000 7.950655E+01
30.000000 28.000000 6.527363E+01
30.000000 26.000000 6.522299E+01
30.000000 24.000000 7.669544E+01
30.000000 22.000000 7.320092E+01
30.000000 20.000000 7.047144E+01
30.000000 18.000000 6.961189E+01
30.000000 16.000000 6.620974E+01
30.000000 14.000000 6.515272E+01
30.000000 12.000000 6.992186E+01
30.000000 10.000000 8.620196E+01
30.000000 8.000000 9.844267E+01
30.000000 6.000000 9.183452E+01
30.000000 4.000000 6.038484E+01
30.000000 2.000000 3.167446E+01
30.000000 0.000000 1.646799E+01
30.000000 -2.000000 1.823521E+01
30.000000 -4.000000 2.003474E+01
30.000000 -6.000000 3.289982E+00
30.000000 -8.000000 -3.685755E+01
30.000000 -10.000000 -8.018224E+01
30.000000 -12.000000 -8.914852E+01
30.000000 -14.000000 -7.530019E+01
30.000000 -16.000000 -7.702931E+01
30.000000 -18.000000 -1.068578E+02
30.000000 -20.000000 -1.347505E+02
30.000000 -22.000000 -1.287583E+02
30.000000 -24.000000 -8.792026E+01
30.000000 -26.000000 -4.609256E+01
30.000000 -28.000000 -2.542886E+01
30.000000 -30.000000 -1.434743E+01
30.000000 -32.000000 -1.219316E+01
30.000000 -34.000000 -1.154067E+01
30.000000 -36.000000 -1.038095E+01
30.000000 -38.000000 -5.015219E+00
30.000000 -40.000000 -2.014719E+00
32.000000 40.000000 -1.006016E+02
32.000000 38.000000 -8.328158E+01
32.000000 36.000000 -4.383503E+01
32.000000 34.000000 1.265735E+01
32.000000 32.000000 5.014761E+01
32.000000 30.000000 5.687399E+01
32.000000 28.000000 5.752629E+01
32.000000 26.000000 6.863397E+01
32.000000 24.000000 8.914133E+01
32.000000 22.000000 8.732757E+01
32.000000 20.000000 7.646859E+01
32.000000 18.000000 5.898745E+01
32.000000 16.000000 4.264638E+01
32.000000 14.000000 3.529804E+01
32.000000 12.000000 4.504982E+01
32.000000 10.000000 7.260636E+01
32.000000 8.000000 9.755060E+01
32.000000 6.000000 9.961369E+01
32.000000 4.000000 7.376115E+01
32.000000 2.000000 4.756650E+01
32.000000 0.000000 3.192340E+01
32.000000 -2.000000 2.791680E+01
32.000000 -4.000000 2.518191E+01
32.000000 -6.000000 4.093591E+00
32.000000 -8.000000 -4.096426E+01
32.000000 -10.000000 -8.947248E+01
32.000000 -12.000000 -1.058373E+02
32.000000 -14.000000 -9.972795E+01
32.000000 -16.000000 -1.027793E+02
32.000000 -18.000000 -1.287062E+02
32.000000 -20.000000 -1.534382E+02
32.000000 -22.000000 -1.490813E+02
32.000000 -24.000000 -1.090258E+02
32.000000 -26.000000 -6.316045E+01
32.000000 -28.000000 -3.348823E+01
32.000000 -30.000000 -1.329405E+01
32.000000 -32.000000 -3.112273E+00
32.000000 -34.000000 1.012789E+00
32.000000 -36.000000 -1.005350E+00
32.000000 -38.000000 -3.692584E+00
32.000000 -40.000000 -7.679161E+00
34.000000 40.000000 -1.079540E+02
34.000000 38.000000 -1.052444E+02
34.000000 36.000000 -8.230925E+01
34.000000 34.000000 -3.662189E+01
34.000000 32.000000 3.699820E+00
34.000000 30.000000 1.980157E+01
34.000000 28.000000 3.230205E+01
34.000000 26.000000 5.121724E+01
34.000000 24.000000 7.473716E+01
34.000000 22.000000 7.571683E+01
34.000000 20.000000 6.311132E+01
34.000000 18.000000 3.962247E+01
34.000000 16.000000 2.017731E+01
34.000000 14.000000 1.254970E+01
34.000000 12.000000 2.734387E+01
34.000000 10.000000 6.060410E+01
34.000000 8.000000 9.047710E+01
34.000000 6.000000 9.620179E+01
34.000000 4.000000 7.724133E+01
34.000000 2.000000 5.633905E+01
34.000000 0.000000 4.376825E+01
34.000000 -2.000000 3.662379E+01
34.000000 -4.000000 2.952266E+01
34.000000 -6.000000 4.738811E+00
34.000000 -8.000000 -4.114327E+01
34.000000 -10.000000 -9.117107E+01
34.000000 -12.000000 -1.144475E+02
34.000000 -14.000000 -1.128668E+02
34.000000 -16.000000 -1.107952E+02
34.000000 -18.000000 -1.252169E+02
34.000000 -20.000000 -1.432895E+02
34.000000 -22.000000 -1.420512E+02
34.000000 -24.000000 -1.088214E+02
34.000000 -26.000000 -6.763518E+01
34.000000 -28.000000 -3.622917E+01
34.000000 -30.000000 -1.130459E+01
34.000000 -32.000000 4.189723E+00
34.000000 -34.000000 1.108400E+01
34.000000 -36.000000 6.893229E+00
34.000000 -38.000000 -4.036903E+00
34.000000 -40.000000 -1.667808E+01
36.000000 40.000000 -1.133763E+02
36.000000 38.000000 -1.238113E+02
36.000000 36.000000 -1.159951E+02
36.000000 34.000000 -8.353804E+01
36.000000 32.000000 -4.272852E+01
36.000000 30.000000 -1.798433E+01
36.000000 28.000000 1.943507E+00
36.000000 26.000000 2.374273E+01
36.000000 24.000000 4.614378E+01
36.000000 22.000000 4.996535E+01
36.000000 20.000000 4.103353E+01
36.000000 18.000000 2.497902E+01
36.000000 16.000000 1.352656E+01
36.000000 14.000000 1.257516E+01
36.000000 12.000000 3.016593E+01
36.000000 10.000000 5.976301E+01
36.000000 8.000000 8.074667E+01
36.000000 6.000000 7.875031E+01
36.000000 4.000000 5.802463E+01
36.000000 2.000000 3.906587E+01
36.000000 0.000000 2.996837E+01
36.000000 -2.000000 2.533732E+01
36.000000 -4.000000 1.992594E+01
36.000000 -6.000000 -1.048011E+00
36.000000 -8.000000 -4.090365E+01
36.000000 -10.000000 -8.738411E+01
36.000000 -12.000000 -1.141464E+02
36.000000 -14.000000 -1.135964E+02
36.000000 -16.000000 -1.038122E+02
36.000000 -18.000000 -1.042042E+02
36.000000 -20.000000 -1.124668E+02
36.000000 -22.000000 -1.106924E+02
36.000000 -24.000000 -8.425467E+01
36.000000 -26.000000 -5.145681E+01
36.000000 -28.000000 -2.640826E+01
36.000000 -30.000000 -5.153004E+00
36.000000 -32.000000 8.261230E+00
36.000000 -34.000000 1.335606E+01
36.000000 -36.000000 6.033344E+00
36.000000 -38.000000 -1.080549E+01
36.000000 -40.000000 -3.008503E+01
38.000000 40.000000 -1.186972E+02
38.000000 38.000000 -1.385352E+02
38.000000 36.000000 -1.399520E+02
38.000000 34.000000 -1.168110E+02
38.000000 32.000000 -7.567971E+01
38.000000 30.000000 -4.537426E+01
38.000000 28.000000 -2.275128E+01
38.000000 26.000000 -1.701024E+00
38.000000 24.000000 1.528760E+01
38.000000 22.000000 2.009654E+01
38.000000 20.000000 1.847537E+01
38.000000 18.000000 1.871101E+01
38.000000 16.000000 2.220490E+01
38.000000 14.000000 3.020737E+01
38.000000 12.000000 4.604650E+01
38.000000 10.000000 6.428361E+01
38.000000 8.000000 6.830905E+01
38.000000 6.000000 5.223920E+01
38.000000 4.000000 2.360356E+01
38.000000 2.000000 4.752936E+00
38.000000 0.000000 -1.913670E+00
38.000000 -2.000000 -4.427614E-01
38.000000 -4.000000 7.544470E-01
38.000000 -6.000000 -1.221836E+01
38.000000 -8.000000 -4.405455E+01
38.000000 -10.000000 -8.496266E+01
38.000000 -12.000000 -1.092399E+02
38.000000 -14.000000 -1.061330E+02
38.000000 -16.000000 -8.892740E+01
38.000000 -18.000000 -7.814615E+01
38.000000 -20.000000 -7.644935E+01
38.000000 -22.000000 -7.169308E+01
38.000000 -24.000000 -5.025042E+01
38.000000 -26.000000 -2.487721E+01
38.000000 -28.000000 -8.492657E+00
38.000000 -30.000000 3.595434E+00
38.000000 -32.000000 8.946539E+00
38.000000 -34.000000 8.688647E+00
38.000000 -36.000000 -2.946549E+00
38.000000 -38.000000 -2.347423E+01
38.000000 -40.000000 -4.657074E+01
40.000000 40.000000 -1.221323E+02
40.000000 38.000000 -1.467951E+02
40.000000 36.000000 -1.501714E+02
40.000000 34.000000 -1.286371E+02
40.000000 32.000000 -8.684064E+01
40.000000 30.000000 -5.636257E+01
40.000000 28.000000 -3.659034E+01
40.000000 26.000000 -1.886595E+01
40.000000 24.000000 -1.075949E+01
40.000000 22.000000 -8.497437E+00
40.000000 20.000000 -2.940744E+00
40.000000 18.000000 1.300548E+01
40.000000 16.000000 3.008898E+01
40.000000 14.000000 4.472815E+01
40.000000 12.000000 5.638916E+01
40.000000 10.000000 6.302386E+01
40.000000 8.000000 5.296231E+01
40.000000 6.000000 2.653029E+01
40.000000 4.000000 -8.156481E+00
40.000000 2.000000 -2.674624E+01
40.000000 0.000000 -3.071176E+01
40.000000 -2.000000 -2.360019E+01
40.000000 -4.000000 -1.644146E+01
40.000000 -6.000000 -2.193982E+01
40.000000 -8.000000 -4.546241E+01
40.000000 -10.000000 -7.938917E+01
40.000000 -12.000000 -9.799556E+01
40.000000 -14.000000 -9.116338E+01
40.000000 -16.000000 -7.160578E+01
40.000000 -18.000000 -5.895785E+01
40.000000 -20.000000 -5.368360E+01
40.000000 -22.000000 -4.614027E+01
40.000000 -24.000000 -2.509627E+01
40.000000 -26.000000 -2.475026E+00
40.000000 -28.000000 6.788306E+00
40.000000 -30.000000 8.995573E+00
40.000000 -32.000000 5.186580E+00
40.000000 -34.000000 -8.488760E-01
40.000000 -36.000000 -1.686520E+01
40.000000 -38.000000 -3.884907E+01
40.000000 -40.000000 -6.316352E+01
42.000000 40.000000 -1.212644E+02
42.000000 38.000000 -1.457311E+02
42.000000 36.000000 -1.477691E+02
42.000000 34.000000 -1.232130E+02
42.000000 32.000000 -7.909078E+01
42.000000 30.000000 -4.937139E+01
42.000000 28.000000 -3.551052E+01
42.000000 26.000000 -2.493052E+01
42.000000 24.000000 -2.817096E+01
42.000000 22.000000 -3.233497E+01
42.000000 20.000000 -2.356703E+01
42.000000 18.000000 3.230543E+00
42.000000 16.000000 2.826992E+01
42.000000 14.000000 4.348570E+01
42.000000 12.000000 4.880104E+01
42.000000 10.000000 4.659696E+01
42.000000 8.000000 3.076903E+01
42.000000 6.000000 3.779950E+00
42.000000 4.000000 -2.833990E+01
42.000000 2.000000 -4.311368E+01
42.000000 0.000000 -4.223579E+01
42.000000 -2.000000 -3.175387E+01
42.000000 -4.000000 -2.229777E+01
42.000000 -6.000000 -2.216332E+01
42.000000 -8.000000 -3.833174E+01
42.000000 -10.000000 -6.518268E+01
42.000000 -12.000000 -7.811199E+01
42.000000 -14.000000 -6.877055E+01
42.000000 -16.000000 -5.284477E+01
42.000000 -18.000000 -4.873010E+01
42.000000 -20.000000 -4.948994E+01
42.000000 -22.000000 -4.145553E+01
42.000000 -24.000000 -1.717690E+01
42.000000 -26.000000 5.839727E+00
42.000000 -28.000000 1.032398E+01
42.000000 -30.000000 5.499978E+00
42.000000 -32.000000 -5.018754E+00
42.000000 -34.000000 -1.571669E+01
42.000000 -36.000000 -3.424326E+01
42.000000 -38.000000 -5.435345E+01
42.000000 -40.000000 -7.734251E+01
44.000000 40.000000 -1.167234E+02
44.000000 38.000000 -1.356679E+02
44.000000 36.000000 -1.346044E+02
44.000000 34.000000 -1.063591E+02
44.000000 32.000000 -5.985743E+01
44.000000 30.000000 -2.929755E+01
44.000000 28.000000 -2.040520E+01
44.000000 26.000000 -2.045430E+01
44.000000 24.000000 -3.536896E+01
44.000000 22.000000 -4.628786E+01
44.000000 20.000000 -3.744456E+01
44.000000 18.000000 -6.633343E+00
44.000000 16.000000 1.942077E+01
44.000000 14.000000 2.906235E+01
44.000000 12.000000 2.601078E+01
44.000000 10.000000 1.469129E+01
44.000000 8.000000 -1.919954E+00
44.000000 6.000000 -2.374790E+01
44.000000 4.000000 -4.574515E+01
44.000000 2.000000 -4.947813E+01
44.000000 0.000000 -3.913533E+01
44.000000 -2.000000 -2.399981E+01
44.000000 -4.000000 -1.243835E+01
44.000000 -6.000000 -9.448455E+00
44.000000 -8.000000 -2.073566E+01
44.000000 -10.000000 -4.059086E+01
44.000000 -12.000000 -4.989841E+01
44.000000 -14.000000 -4.172709E+01
44.000000 -16.000000 -3.483240E+01
44.000000 -18.000000 -4.504354E+01
44.000000 -20.000000 -5.785041E+01
44.000000 -22.000000 -5.278962E+01
44.000000 -24.000000 -2.600444E+01
44.000000 -26.000000 -2.030765E+00
44.000000 -28.000000 -1.197453E-01
44.000000 -30.000000 -8.160952E+00
44.000000 -32.000000 -2.189456E+01
44.000000 -34.000000 -3.451664E+01
44.000000 -36.000000 -5.241020E+01
44.000000 -38.000000 -6.765335E+01
44.000000 -40.000000 -8.745899E+01
46.000000 40.000000 -1.116886E+02
46.000000 38.000000 -1.216281E+02
46.000000 36.000000 -1.136163E+02
46.000000 34.000000 -8.210230E+01
46.000000 32.000000 -3.691422E+01
46.000000 30.000000 -8.004059E+00
46.000000 28.000000 -1.092993E+00
46.000000 26.000000 -6.888267E+00
46.000000 24.000000 -2.782857E+01
46.000000 22.000000 -4.335107E+01
46.000000 20.000000 -3.714036E+01
46.000000 18.000000 -9.592870E+00
46.000000 16.000000 1.158205E+01
46.000000 14.000000 1.299463E+01
46.000000 12.000000 2.169290E-01
46.000000 10.000000 -2.130600E+01
46.000000 8.000000 -3.898971E+01
46.000000 6.000000 -5.632481E+01
46.000000 4.000000 -6.495230E+01
46.000000 2.000000 -5.280186E+01
46.000000 0.000000 -2.990271E+01
46.000000 -2.000000 -8.782684E+00
46.000000 -4.000000 4.893289E+00
46.000000 -6.000000 8.165989E+00
46.000000 -8.000000 -7.924322E-01
46.000000 -10.000000 -1.588690E+01
46.000000 -12.000000 -2.475178E+01
46.000000 -14.000000 -2.085746E+01
46.000000 -16.000000 -2.491303E+01
46.000000 -18.000000 -4.861803E+01
46.000000 -20.000000 -7.315870E+01
46.000000 -22.000000 -7.276244E+01
46.000000 -24.000000 -4.474131E+01
46.000000 -26.000000 -1.851930E+01
46.000000 -28.000000 -1.840376E+01
46.000000 -30.000000 -2.821718E+01
46.000000 -32.000000 -4.056829E+01
46.000000 -34.000000 -5.063021E+01
46.000000 -36.000000 -6.598182E+01
46.000000 -38.000000 -7.693433E+01
46.000000 -40.000000 -9.320336E+01
48.000000 40.000000 -1.083971E+02
48.000000 38.000000 -1.094565E+02
48.000000 36.000000 -9.350251E+01
48.000000 34.000000 -5.989346E+01
48.000000 32.000000 -1.970841E+01
48.000000 30.000000 4.787345E+00
48.000000 28.000000 1.380978E+01
48.000000 26.000000 1.238274E+01
48.000000 24.000000 -5.411277E+00
48.000000 22.000000 -2.237233E+01
48.000000 20.000000 -1.972756E+01
48.000000 18.000000 6.822791E-01
48.000000 16.000000 1.381620E+01
48.000000 14.000000 6.760139E+00
48.000000 12.000000 -1.441245E+01
48.000000 10.000000 -4.269987E+01
48.000000 8.000000 -6.290330E+01
48.000000 6.000000 -8.089638E+01
48.000000 4.000000 -8.182582E+01
48.000000 2.000000 -5.879299E+01
48.000000 0.000000 -2.730031E+01
48.000000 -2.000000 -8.877279E-01
48.000000 -4.000000 1.591373E+01
48.000000 -6.000000 1.991889E+01
48.000000 -8.000000 1.066558E+01
48.000000 -10.000000 -4.581536E+00
48.000000 -12.000000 -1.607611E+01
48.000000 -14.000000 -1.760125E+01
48.000000 -16.000000 -2.914147E+01
48.000000 -18.000000 -5.948525E+01
48.000000 -20.000000 -8.913288E+01
48.000000 -22.000000 -9.228062E+01
48.000000 -24.000000 -6.508300E+01
48.000000 -26.000000 -3.816317E+01
48.000000 -28.000000 -3.902430E+01
48.000000 -30.000000 -4.759467E+01
48.000000 -32.000000 -5.449157E+01
48.000000 -34.000000 -5.900337E+01
48.000000 -36.000000 -7.138176E+01
48.000000 -38.000000 -8.053362E+01
48.000000 -40.000000 -9.337962E+01
50.000000 40.000000 -1.071911E+02
50.000000 38.000000 -1.024465E+02
50.000000 36.000000 -8.196443E+01
50.000000 34.000000 -4.851343E+01
50.000000 32.000000 -1.532829E+01
50.000000 30.000000 5.237553E+00
50.000000 28.000000 1.991690E+01
50.000000 26.000000 2.842560E+01
50.000000 24.000000 1.974735E+01
50.000000 22.000000 3.994979E+00
