-26.000000 36.000000 -4.459869E+00
-26.000000 34.000000 -1.212706E+01
-26.000000 32.000000 -1.862129E+01
-26.000000 30.000000 -2.088174E+01
-26.000000 28.000000 -2.452186E+01
-26.000000 26.000000 -2.886995E+01
-26.000000 24.000000 -3.111273E+01
-26.000000 22.000000 -3.093856E+01
-26.000000 20.000000 -2.849646E+01
-26.000000 18.000000 -2.427455E+01
-26.000000 16.000000 -1.950926E+01
-26.000000 14.000000 -1.608813E+01
-26.000000 12.000000 -1.229573E+01
-26.000000 10.000000 -4.042735E+00
-26.000000 8.000000 3.050079E-01
-26.000000 6.000000 -4.450502E+00
-26.000000 4.000000 -1.408859E+01
-26.000000 2.000000 -1.706951E+01
-26.000000 0.000000 -1.213451E+01
-26.000000 -2.000000 -9.820152E+00
-26.000000 -4.000000 -1.288157E+01
-26.000000 -6.000000 -9.896526E+00
-26.000000 -8.000000 9.500132E+00
-26.000000 -10.000000 3.306342E+01
-26.000000 -12.000000 4.368831E+01
-26.000000 -14.000000 4.469894E+01
-26.000000 -16.000000 4.029067E+01
-26.000000 -18.000000 3.514636E+01
-26.000000 -20.000000 3.318353E+01
-26.000000 -22.000000 3.455619E+01
-26.000000 -24.000000 3.576304E+01
-26.000000 -26.000000 2.992156E+01
-26.000000 -28.000000 2.558410E+01
-26.000000 -30.000000 1.896875E+01
-26.000000 -32.000000 8.091085E+00
-26.000000 -34.000000 -1.985015E+00
-26.000000 -36.000000 -9.921988E+00
-26.000000 -38.000000 -1.174358E+01
-26.000000 -40.000000 -1.459696E+01
-24.000000 40.000000 1.457930E+01
-24.000000 38.000000 4.118312E+00
-24.000000 36.000000 -7.072811E+00
-24.000000 34.000000 -1.786788E+01
-24.000000 32.000000 -2.632999E+01
-24.000000 30.000000 -2.666522E+01
-24.000000 28.000000 -2.662361E+01
-24.000000 26.000000 -2.771544E+01
-24.000000 24.000000 -3.052008E+01
-24.000000 22.000000 -3.490376E+01
-24.000000 20.000000 -3.572739E+01
-24.000000 18.000000 -3.179807E+01
-24.000000 16.000000 -2.503109E+01
-24.000000 14.000000 -2.049805E+01
-24.000000 12.000000 -1.616461E+01
-24.000000 10.000000 -6.096719E+00
-24.000000 8.000000 4.768801E-02
-24.000000 6.000000 -3.338533E+00
-24.000000 4.000000 -1.114348E+01
-24.000000 2.000000 -1.287336E+01
-24.000000 0.000000 -7.007316E+00
-24.000000 -2.000000 -1.502195E+00
-24.000000 -4.000000 1.355610E+00
-24.000000 -6.000000 1.001022E+01
-24.000000 -8.000000 2.728499E+01
-24.000000 -10.000000 4.557964E+01
-24.000000 -12.000000 4.989292E+01
-24.000000 -14.000000 4.739379E+01
-24.000000 -16.000000 4.156419E+01
-24.000000 -18.000000 3.674596E+01
-24.000000 -20.000000 3.447458E+01
-24.000000 -22.000000 3.331975E+01
-24.000000 -24.000000 2.907194E+01
-24.000000 -26.000000 1.918012E+01
-24.000000 -28.000000 1.598998E+01
-24.000000 -30.000000 1.184896E+01
-24.000000 -32.000000 2.555526E+00
-24.000000 -34.000000 -5.694583E+00
-24.000000 -36.000000 -1.105731E+01
-24.000000 -38.000000 -1.116408E+01
-24.000000 -40.000000 -1.286159E+01
-22.000000 40.000000 1.316379E+01
-22.000000 38.000000 2.874935E+00
-22.000000 36.000000 -6.433967E+00
-22.000000 34.000000 -2.096157E+01
-22.000000 32.000000 -3.356318E+01
-22.000000 30.000000 -3.290131E+01
-22.000000 28.000000 -2.868608E+01
-22.000000 26.000000 -2.651333E+01
-22.000000 24.000000 -3.031574E+01
-22.000000 22.000000 -3.779627E+01
-22.000000 20.000000 -4.033164E+01
-22.000000 18.000000 -3.498860E+01
-22.000000 16.000000 -2.550636E+01
-22.000000 14.000000 -2.084138E+01
-22.000000 12.000000 -1.635102E+01
-22.000000 10.000000 -5.448222E+00
-22.000000 8.000000 2.093009E+00
-22.000000 6.000000 1.969837E+00
-22.000000 4.000000 -5.024605E+00
-22.000000 2.000000 -6.196185E+00
-22.000000 0.000000 9.736280E-01
-22.000000 -2.000000 8.157911E+00
-22.000000 -4.000000 1.469158E+01
-22.000000 -6.000000 2.303798E+01
-22.000000 -8.000000 3.278457E+01
-22.000000 -10.000000 4.113010E+01
-22.000000 -12.000000 3.859888E+01
-22.000000 -14.000000 3.386863E+01
-22.000000 -16.000000 3.095822E+01
-22.000000 -18.000000 3.127812E+01
-22.000000 -20.000000 3.260581E+01
-22.000000 -22.000000 3.171769E+01
-22.000000 -24.000000 2.515274E+01
-22.000000 -26.000000 1.540993E+01
-22.000000 -28.000000 1.155358E+01
-22.000000 -30.000000 7.924771E+00
-22.000000 -32.000000 1.149706E+00
-22.000000 -34.000000 -4.827891E+00
-22.000000 -36.000000 -8.421796E+00
-22.000000 -38.000000 -8.457128E+00
-22.000000 -40.000000 -1.121284E+01
-20.000000 40.000000 1.223301E+01
-20.000000 38.000000 3.692471E+00
-20.000000 36.000000 -2.915333E+00
-20.000000 34.000000 -1.692629E+01
-20.000000 32.000000 -3.159826E+01
-20.000000 30.000000 -3.254460E+01
-20.000000 28.000000 -2.802897E+01
-20.000000 26.000000 -2.629879E+01
-20.000000 24.000000 -3.204529E+01
-20.000000 22.000000 -3.960011E+01
-20.000000 20.000000 -4.056446E+01
-20.000000 18.000000 -3.200677E+01
-20.000000 16.000000 -2.099624E+01
-20.000000 14.000000 -1.710122E+01
-20.000000 12.000000 -1.598792E+01
-20.000000 10.000000 -8.375305E+00
-20.000000 8.000000 -1.923365E+00
-20.000000 6.000000 1.557602E+00
-20.000000 4.000000 -2.097393E+00
-20.000000 2.000000 -2.546566E+00
-20.000000 0.000000 5.110275E+00
-20.000000 -2.000000 1.315414E+01
-20.000000 -4.000000 2.109434E+01
-20.000000 -6.000000 2.646240E+01
-20.000000 -8.000000 2.737519E+01
-20.000000 -10.000000 2.336532E+01
-20.000000 -12.000000 1.383000E+01
-20.000000 -14.000000 8.484947E+00
-20.000000 -16.000000 1.249721E+01
-20.000000 -18.000000 2.102134E+01
-20.000000 -20.000000 2.651082E+01
-20.000000 -22.000000 2.671962E+01
-20.000000 -24.000000 2.244938E+01
-20.000000 -26.000000 1.784467E+01
-20.000000 -28.000000 1.426946E+01
-20.000000 -30.000000 9.799714E+00
-20.000000 -32.000000 4.705895E+00
-20.000000 -34.000000 1.008493E+00
-20.000000 -36.000000 -2.261791E+00
-20.000000 -38.000000 -5.798068E+00
-20.000000 -40.000000 -1.112650E+01
-18.000000 40.000000 1.049551E+01
-18.000000 38.000000 5.078123E+00
-18.000000 36.000000 1.327785E+00
-18.000000 34.000000 -5.742783E+00
-18.000000 32.000000 -1.591239E+01
-18.000000 30.000000 -2.001824E+01
-18.000000 28.000000 -2.113460E+01
-18.000000 26.000000 -2.376256E+01
-18.000000 24.000000 -3.253473E+01
-18.000000 22.000000 -3.847141E+01
-18.000000 20.000000 -3.654565E+01
-18.000000 18.000000 -2.491734E+01
-18.000000 16.000000 -1.364281E+01
-18.000000 14.000000 -1.289025E+01
-18.000000 12.000000 -2.013718E+01
-18.000000 10.000000 -2.123694E+01
-18.000000 8.000000 -1.912477E+01
-18.000000 6.000000 -1.482136E+01
-18.000000 4.000000 -1.293782E+01
-18.000000 2.000000 -1.098530E+01
-18.000000 0.000000 -2.848114E+00
-18.000000 -2.000000 8.897932E+00
-18.000000 -4.000000 2.172330E+01
-18.000000 -6.000000 2.727215E+01
-18.000000 -8.000000 2.044200E+01
-18.000000 -10.000000 3.933975E+00
-18.000000 -12.000000 -1.182413E+01
-18.000000 -14.000000 -1.662851E+01
-18.000000 -16.000000 -5.547064E+00
-18.000000 -18.000000 1.078313E+01
-18.000000 -20.000000 2.016895E+01
-18.000000 -22.000000 2.167904E+01
-18.000000 -24.000000 2.103429E+01
-18.000000 -26.000000 2.040406E+01
-18.000000 -28.000000 1.804991E+01
-18.000000 -30.000000 1.351962E+01
-18.000000 -32.000000 9.029853E+00
-18.000000 -34.000000 6.367903E+00
-18.000000 -36.000000 2.277942E+00
-18.000000 -38.000000 -4.055780E+00
-18.000000 -40.000000 -1.079241E+01
-16.000000 40.000000 8.175059E+00
-16.000000 38.000000 6.350679E+00
-16.000000 36.000000 6.755260E+00
-16.000000 34.000000 9.797678E+00
-16.000000 32.000000 6.704655E+00
-16.000000 30.000000 1.922226E-01
-16.000000 28.000000 -8.081093E+00
-16.000000 26.000000 -1.677404E+01
-16.000000 24.000000 -2.895761E+01
-16.000000 22.000000 -3.367928E+01
-16.000000 20.000000 -2.964184E+01
-16.000000 18.000000 -1.798213E+01
-16.000000 16.000000 -8.859984E+00
-16.000000 14.000000 -1.403897E+01
-16.000000 12.000000 -3.195972E+01
-16.000000 10.000000 -4.632067E+01
-16.000000 8.000000 -4.890415E+01
-16.000000 6.000000 -4.367644E+01
-16.000000 4.000000 -3.595313E+01
-16.000000 2.000000 -2.886192E+01
-16.000000 0.000000 -1.789707E+01
-16.000000 -2.000000 -6.415901E-01
-16.000000 -4.000000 1.935840E+01
-16.000000 -6.000000 2.715926E+01
-16.000000 -8.000000 1.562426E+01
-16.000000 -10.000000 -6.949759E+00
-16.000000 -12.000000 -2.548754E+01
-16.000000 -14.000000 -2.966394E+01
-16.000000 -16.000000 -1.617965E+01
-16.000000 -18.000000 2.901811E+00
-16.000000 -20.000000 1.472771E+01
-16.000000 -22.000000 1.844900E+01
-16.000000 -24.000000 2.015667E+01
-16.000000 -26.000000 2.063027E+01
-16.000000 -28.000000 1.854168E+01
-16.000000 -30.000000 1.463843E+01
-16.000000 -32.000000 1.031318E+01
-16.000000 -34.000000 6.913372E+00
-16.000000 -36.000000 1.978303E+00
-16.000000 -38.000000 -3.808202E+00
-16.000000 -40.000000 -1.000277E+01
-14.000000 40.000000 6.165535E+00
-14.000000 38.000000 7.361246E+00
-14.000000 36.000000 1.235829E+01
-14.000000 34.000000 2.369544E+01
-14.000000 32.000000 2.647302E+01
-14.000000 30.000000 2.046166E+01
-14.000000 28.000000 9.111744E+00
-14.000000 26.000000 -4.218803E+00
-14.000000 24.000000 -1.875430E+01
-14.000000 22.000000 -2.534499E+01
-14.000000 20.000000 -2.251638E+01
-14.000000 18.000000 -1.368226E+01
-14.000000 16.000000 -1.129476E+01
-14.000000 14.000000 -2.505135E+01
-14.000000 12.000000 -5.332732E+01
-14.000000 10.000000 -8.080783E+01
-14.000000 8.000000 -8.338175E+01
-14.000000 6.000000 -7.143945E+01
-14.000000 4.000000 -5.400182E+01
-14.000000 2.000000 -3.842549E+01
-14.000000 0.000000 -2.315878E+01
-14.000000 -2.000000 -6.244183E+00
-14.000000 -4.000000 1.061705E+01
-14.000000 -6.000000 1.785744E+01
-14.000000 -8.000000 1.092497E+01
-14.000000 -10.000000 -5.035396E+00
-14.000000 -12.000000 -2.072916E+01
-14.000000 -14.000000 -2.591683E+01
-14.000000 -16.000000 -1.901599E+01
-14.000000 -18.000000 -6.328820E+00
-14.000000 -20.000000 4.911327E+00
-14.000000 -22.000000 1.234941E+01
-14.000000 -24.000000 1.599735E+01
-14.000000 -26.000000 1.658698E+01
-14.000000 -28.000000 1.478523E+01
-14.000000 -30.000000 1.146532E+01
-14.000000 -32.000000 7.481874E+00
-14.000000 -34.000000 3.268913E+00
-14.000000 -36.000000 -1.097533E+00
-14.000000 -38.000000 -4.784621E+00
-14.000000 -40.000000 -9.985740E+00
-12.000000 40.000000 6.164968E+00
-12.000000 38.000000 8.295275E+00
-12.000000 36.000000 1.499108E+01
-12.000000 34.000000 2.883024E+01
-12.000000 32.000000 3.585089E+01
-12.000000 30.000000 3.375888E+01
-12.000000 28.000000 2.505810E+01
-12.000000 26.000000 1.150171E+01
-12.000000 24.000000 -3.936356E+00
-12.000000 22.000000 -1.458336E+01
-12.000000 20.000000 -1.564903E+01
-12.000000 18.000000 -1.162956E+01
-12.000000 16.000000 -1.829638E+01
-12.000000 14.000000 -4.252115E+01
-12.000000 12.000000 -7.929562E+01
-12.000000 10.000000 -1.111144E+02
-12.000000 8.000000 -1.072487E+02
-12.000000 6.000000 -8.484392E+01
-12.000000 4.000000 -5.604033E+01
-12.000000 2.000000 -3.325120E+01
-12.000000 0.000000 -1.659981E+01
-12.000000 -2.000000 -5.831193E+00
-12.000000 -4.000000 1.120190E+00
-12.000000 -6.000000 5.586659E+00
-12.000000 -8.000000 7.053346E+00
-12.000000 -10.000000 2.370807E+00
-12.000000 -12.000000 -7.560608E+00
-12.000000 -14.000000 -1.475782E+01
-12.000000 -16.000000 -1.781481E+01
-12.000000 -18.000000 -1.489621E+01
-12.000000 -20.000000 -6.840116E+00
-12.000000 -22.000000 2.687451E+00
-12.000000 -24.000000 8.175194E+00
-12.000000 -26.000000 8.986148E+00
-12.000000 -28.000000 7.233600E+00
-12.000000 -30.000000 3.715513E+00
-12.000000 -32.000000 -1.424427E-01
-12.000000 -34.000000 -4.160485E+00
-12.000000 -36.000000 -6.097062E+00
-12.000000 -38.000000 -6.609170E+00
-12.000000 -40.000000 -9.755076E+00
-10.000000 40.000000 9.103704E+00
-10.000000 38.000000 9.271109E+00
-10.000000 36.000000 1.376178E+01
-10.000000 34.000000 2.563860E+01
-10.000000 32.000000 3.383289E+01
-10.000000 30.000000 3.517845E+01
-10.000000 28.000000 3.115757E+01
-10.000000 26.000000 2.107900E+01
-10.000000 24.000000 8.073469E+00
-10.000000 22.000000 -3.475803E+00
-10.000000 20.000000 -6.782112E+00
-10.000000 18.000000 -8.420023E+00
-10.000000 16.000000 -2.338683E+01
-10.000000 14.000000 -5.684328E+01
-10.000000 12.000000 -9.789341E+01
-10.000000 10.000000 -1.246331E+02
-10.000000 8.000000 -1.121400E+02
-10.000000 6.000000 -8.240741E+01
-10.000000 4.000000 -4.836612E+01
-10.000000 2.000000 -2.383088E+01
-10.000000 0.000000 -7.135151E+00
-10.000000 -2.000000 -7.956429E-01
-10.000000 -4.000000 -1.247513E+00
-10.000000 -6.000000 5.444508E-01
-10.000000 -8.000000 6.960087E+00
-10.000000 -10.000000 9.598210E+00
-10.000000 -12.000000 3.386945E+00
-10.000000 -14.000000 -6.649021E+00
-10.000000 -16.000000 -1.707437E+01
-10.000000 -18.000000 -2.122822E+01
-10.000000 -20.000000 -1.657440E+01
-10.000000 -22.000000 -6.541208E+00
-10.000000 -24.000000 1.441418E+00
-10.000000 -26.000000 2.990750E+00
-10.000000 -28.000000 9.046459E-02
-10.000000 -30.000000 -5.035561E+00
-10.000000 -32.000000 -1.022760E+01
-10.000000 -34.000000 -1.391351E+01
-10.000000 -36.000000 -1.299944E+01
-10.000000 -38.000000 -9.632925E+00
-10.000000 -40.000000 -8.919768E+00
-8.000000 40.000000 1.348639E+01
-8.000000 38.000000 1.031630E+01
-8.000000 36.000000 1.118672E+01
-8.000000 34.000000 1.976362E+01
-8.000000 32.000000 2.585902E+01
-8.000000 30.000000 2.696033E+01
-8.000000 28.000000 2.504457E+01
-8.000000 26.000000 1.864058E+01
-8.000000 24.000000 1.030503E+01
-8.000000 22.000000 3.767853E-01
-8.000000 20.000000 -2.358826E+00
-8.000000 18.000000 -6.970110E+00
-8.000000 16.000000 -2.619615E+01
-8.000000 14.000000 -6.168154E+01
-8.000000 12.000000 -9.871100E+01
-8.000000 10.000000 -1.162318E+02
-8.000000 8.000000 -1.001646E+02
-8.000000 6.000000 -7.012058E+01
-8.000000 4.000000 -3.758899E+01
-8.000000 2.000000 -1.499524E+01
-8.000000 0.000000 9.558296E-02
-8.000000 -2.000000 4.237469E+00
-8.000000 -4.000000 2.002375E+00
-8.000000 -6.000000 4.023319E+00
-8.000000 -8.000000 1.158528E+01
-8.000000 -10.000000 1.584157E+01
-8.000000 -12.000000 9.754032E+00
-8.000000 -14.000000 -3.138322E+00
-8.000000 -16.000000 -1.719397E+01
-8.000000 -18.000000 -2.532178E+01
-8.000000 -20.000000 -2.284060E+01
-8.000000 -22.000000 -1.290483E+01
-8.000000 -24.000000 -2.258754E+00
-8.000000 -26.000000 1.172135E+00
-8.000000 -28.000000 -3.252804E+00
-8.000000 -30.000000 -1.057340E+01
-8.000000 -32.000000 -1.800364E+01
-8.000000 -34.000000 -2.185605E+01
-8.000000 -36.000000 -1.937346E+01
-8.000000 -38.000000 -1.289137E+01
-8.000000 -40.000000 -8.047500E+00
-6.000000 40.000000 1.842972E+01
-6.000000 38.000000 1.260366E+01
-6.000000 36.000000 1.012962E+01
-6.000000 34.000000 1.404385E+01
-6.000000 32.000000 1.601507E+01
-6.000000 30.000000 1.429174E+01
-6.000000 28.000000 1.153167E+01
-6.000000 26.000000 6.617382E+00
-6.000000 24.000000 2.899628E-01
-6.000000 22.000000 -7.163944E+00
-6.000000 20.000000 -9.694767E+00
-6.000000 18.000000 -1.455360E+01
-6.000000 16.000000 -3.142298E+01
-6.000000 14.000000 -6.071210E+01
-6.000000 12.000000 -8.729679E+01
-6.000000 10.000000 -9.363349E+01
-6.000000 8.000000 -7.624910E+01
-6.000000 6.000000 -4.971303E+01
-6.000000 4.000000 -2.346897E+01
-6.000000 2.000000 -5.958759E+00
-6.000000 0.000000 4.942255E+00
-6.000000 -2.000000 6.570755E+00
-6.000000 -4.000000 5.364923E+00
-6.000000 -6.000000 1.011619E+01
-6.000000 -8.000000 1.890272E+01
-6.000000 -10.000000 2.321000E+01
-6.000000 -12.000000 1.573087E+01
-6.000000 -14.000000 8.080959E-01
-6.000000 -16.000000 -1.488168E+01
-6.000000 -18.000000 -2.549277E+01
-6.000000 -20.000000 -2.483382E+01
-6.000000 -22.000000 -1.573800E+01
-6.000000 -24.000000 -3.217329E+00
-6.000000 -26.000000 2.342408E+00
-6.000000 -28.000000 -2.794926E+00
-6.000000 -30.000000 -1.134958E+01
-6.000000 -32.000000 -2.057260E+01
-6.000000 -34.000000 -2.514507E+01
-6.000000 -36.000000 -2.237722E+01
-6.000000 -38.000000 -1.410104E+01
-6.000000 -40.000000 -6.599009E+00
-4.000000 40.000000 2.504686E+01
-4.000000 38.000000 1.717342E+01
-4.000000 36.000000 1.093531E+01
-4.000000 34.000000 8.878321E+00
-4.000000 32.000000 5.589380E+00
-4.000000 30.000000 1.049791E+00
-4.000000 28.000000 -2.769140E+00
-4.000000 26.000000 -8.632830E+00
-4.000000 24.000000 -1.683992E+01
-4.000000 22.000000 -2.267660E+01
-4.000000 20.000000 -2.661461E+01
-4.000000 18.000000 -3.009529E+01
-4.000000 16.000000 -4.014994E+01
-4.000000 14.000000 -6.016330E+01
-4.000000 12.000000 -7.610239E+01
-4.000000 10.000000 -7.206089E+01
-4.000000 8.000000 -5.318958E+01
-4.000000 6.000000 -2.987771E+01
-4.000000 4.000000 -1.069785E+01
-4.000000 2.000000 2.074633E+00
-4.000000 0.000000 1.000490E+01
-4.000000 -2.000000 9.015793E+00
-4.000000 -4.000000 7.953417E+00
-4.000000 -6.000000 1.546282E+01
-4.000000 -8.000000 2.707354E+01
-4.000000 -10.000000 3.285447E+01
-4.000000 -12.000000 2.473823E+01
-4.000000 -14.000000 9.367649E+00
-4.000000 -16.000000 -7.090073E+00
-4.000000 -18.000000 -1.935521E+01
-4.000000 -20.000000 -2.143094E+01
-4.000000 -22.000000 -1.480773E+01
-4.000000 -24.000000 -2.557907E+00
-4.000000 -26.000000 4.251141E+00
-4.000000 -28.000000 5.080433E-01
-4.000000 -30.000000 -7.184409E+00
-4.000000 -32.000000 -1.688112E+01
-4.000000 -34.000000 -2.243318E+01
-4.000000 -36.000000 -1.999695E+01
-4.000000 -38.000000 -1.145861E+01
-4.000000 -40.000000 -3.847102E+00
-2.000000 40.000000 3.295178E+01
-2.000000 38.000000 2.294859E+01
-2.000000 36.000000 1.272661E+01
-2.000000 34.000000 4.519695E+00
-2.000000 32.000000 -3.383276E+00
-2.000000 30.000000 -9.151533E+00
-2.000000 28.000000 -1.342684E+01
-2.000000 26.000000 -2.086111E+01
-2.000000 24.000000 -3.074984E+01
-2.000000 22.000000 -3.648112E+01
-2.000000 20.000000 -4.148957E+01
-2.000000 18.000000 -4.414682E+01
-2.000000 16.000000 -4.981551E+01
-2.000000 14.000000 -6.301626E+01
-2.000000 12.000000 -7.188540E+01
-2.000000 10.000000 -6.259582E+01
-2.000000 8.000000 -4.357667E+01
-2.000000 6.000000 -2.188209E+01
-2.000000 4.000000 -5.192659E+00
-2.000000 2.000000 5.958681E+00
-2.000000 0.000000 1.257105E+01
-2.000000 -2.000000 1.039866E+01
-2.000000 -4.000000 9.089817E+00
-2.000000 -6.000000 1.895475E+01
-2.000000 -8.000000 3.380707E+01
-2.000000 -10.000000 4.276787E+01
-2.000000 -12.000000 3.648089E+01
-2.000000 -14.000000 2.252157E+01
-2.000000 -16.000000 5.941317E+00
-2.000000 -18.000000 -7.826344E+00
-2.000000 -20.000000 -1.297141E+01
-2.000000 -22.000000 -9.301237E+00
-2.000000 -24.000000 8.512774E-01
-2.000000 -26.000000 7.836941E+00
-2.000000 -28.000000 7.554072E+00
-2.000000 -30.000000 2.222763E+00
-2.000000 -32.000000 -7.074883E+00
-2.000000 -34.000000 -1.395760E+01
-2.000000 -36.000000 -1.256705E+01
-2.000000 -38.000000 -5.329245E+00
-2.000000 -40.000000 -3.599262E-02
0.000000 40.000000 3.939435E+01
0.000000 38.000000 2.820379E+01
0.000000 36.000000 1.504702E+01
0.000000 34.000000 2.027056E+00
0.000000 32.000000 -8.324695E+00
0.000000 30.000000 -1.379334E+01
0.000000 28.000000 -1.746505E+01
0.000000 26.000000 -2.381604E+01
0.000000 24.000000 -3.249097E+01
0.000000 22.000000 -3.897022E+01
0.000000 20.000000 -4.509385E+01
0.000000 18.000000 -4.833464E+01
0.000000 16.000000 -5.441806E+01
0.000000 14.000000 -6.795904E+01
0.000000 12.000000 -7.630164E+01
0.000000 10.000000 -6.893971E+01
0.000000 8.000000 -5.261346E+01
0.000000 6.000000 -3.159994E+01
0.000000 4.000000 -1.275275E+01
0.000000 2.000000 4.744492E-01
0.000000 0.000000 9.154354E+00
0.000000 -2.000000 9.142603E+00
0.000000 -4.000000 8.750816E+00
0.000000 -6.000000 1.954827E+01
0.000000 -8.000000 3.622183E+01
0.000000 -10.000000 4.838565E+01
0.000000 -12.000000 4.531344E+01
0.000000 -14.000000 3.414127E+01
0.000000 -16.000000 1.898790E+01
0.000000 -18.000000 5.076601E+00
0.000000 -20.000000 -1.144197E+00
0.000000 -22.000000 1.649350E+00
0.000000 -24.000000 1.031783E+01
0.000000 -26.000000 1.720068E+01
0.000000 -28.000000 1.994883E+01
0.000000 -30.000000 1.685772E+01
0.000000 -32.000000 7.425438E+00
0.000000 -34.000000 -1.039531E+00
0.000000 -36.000000 -2.077138E+00
0.000000 -38.000000 1.487528E+00
0.000000 -40.000000 2.196092E+00
2.000000 40.000000 4.313617E+01
2.000000 38.000000 3.285441E+01
2.000000 36.000000 1.892355E+01
2.000000 34.000000 3.848745E+00
2.000000 32.000000 -7.227983E+00
2.000000 30.000000 -1.252470E+01
2.000000 28.000000 -1.484852E+01
2.000000 26.000000 -1.754432E+01
2.000000 24.000000 -2.366136E+01
2.000000 22.000000 -3.075864E+01
2.000000 20.000000 -3.718378E+01
2.000000 18.000000 -4.186958E+01
2.000000 16.000000 -5.173278E+01
2.000000 14.000000 -7.099611E+01
2.000000 12.000000 -8.642938E+01
2.000000 10.000000 -8.916779E+01
2.000000 8.000000 -7.824445E+01
2.000000 6.000000 -5.797900E+01
2.000000 4.000000 -3.233196E+01
2.000000 2.000000 -9.222349E+00
2.000000 0.000000 7.130775E+00
2.000000 -2.000000 1.026702E+01
2.000000 -4.000000 9.420204E+00
2.000000 -6.000000 1.741187E+01
2.000000 -8.000000 3.270498E+01
2.000000 -10.000000 4.539122E+01
2.000000 -12.000000 4.365526E+01
2.000000 -14.000000 3.485112E+01
2.000000 -16.000000 2.342454E+01
2.000000 -18.000000 1.350039E+01
2.000000 -20.000000 1.023243E+01
2.000000 -22.000000 1.496101E+01
2.000000 -24.000000 2.383684E+01
2.000000 -26.000000 3.093147E+01
2.000000 -28.000000 3.518398E+01
2.000000 -30.000000 3.368439E+01
2.000000 -32.000000 2.416655E+01
2.000000 -34.000000 1.422548E+01
2.000000 -36.000000 9.409526E+00
2.000000 -38.000000 6.803710E+00
2.000000 -40.000000 1.239398E+00
4.000000 40.000000 4.412958E+01
4.000000 38.000000 3.629444E+01
4.000000 36.000000 2.460891E+01
4.000000 34.000000 1.100377E+01
4.000000 32.000000 4.640274E-01
4.000000 30.000000 -5.842810E+00
4.000000 28.000000 -8.636660E+00
4.000000 26.000000 -9.129410E+00
4.000000 24.000000 -1.343254E+01
4.000000 22.000000 -2.047384E+01
4.000000 20.000000 -2.451238E+01
4.000000 18.000000 -2.846845E+01
4.000000 16.000000 -4.100597E+01
4.000000 14.000000 -6.597039E+01
4.000000 12.000000 -9.238844E+01
4.000000 10.000000 -1.096824E+02
4.000000 8.000000 -1.073302E+02
4.000000 6.000000 -9.013379E+01
4.000000 4.000000 -5.471166E+01
4.000000 2.000000 -1.673179E+01
4.000000 0.000000 9.747534E+00
4.000000 -2.000000 1.503634E+01
4.000000 -4.000000 1.064815E+01
4.000000 -6.000000 1.302509E+01
4.000000 -8.000000 2.451447E+01
4.000000 -10.000000 3.418372E+01
4.000000 -12.000000 2.987497E+01
4.000000 -14.000000 2.072775E+01
4.000000 -16.000000 1.390094E+01
4.000000 -18.000000 1.215653E+01
4.000000 -20.000000 1.580595E+01
4.000000 -22.000000 2.419256E+01
4.000000 -24.000000 3.378929E+01
4.000000 -26.000000 4.061854E+01
4.000000 -28.000000 4.593160E+01
4.000000 -30.000000 4.602007E+01
4.000000 -32.000000 3.780684E+01
4.000000 -34.000000 2.756527E+01
4.000000 -36.000000 1.867957E+01
4.000000 -38.000000 1.013346E+01
4.000000 -40.000000 -6.876822E-01
6.000000 40.000000 4.289438E+01
6.000000 38.000000 3.751565E+01
6.000000 36.000000 2.934341E+01
6.000000 34.000000 1.973528E+01
6.000000 32.000000 1.098102E+01
6.000000 30.000000 3.494444E+00
6.000000 28.000000 -1.163471E+00
6.000000 26.000000 -3.657709E+00
6.000000 24.000000 -9.427780E+00
6.000000 22.000000 -1.559498E+01
6.000000 20.000000 -1.611737E+01
6.000000 18.000000 -1.522737E+01
6.000000 16.000000 -2.326998E+01
6.000000 14.000000 -4.762613E+01
6.000000 12.000000 -8.161148E+01
6.000000 10.000000 -1.114215E+02
6.000000 8.000000 -1.220425E+02
6.000000 6.000000 -1.121142E+02
6.000000 4.000000 -7.205331E+01
6.000000 2.000000 -2.350235E+01
6.000000 0.000000 1.171393E+01
6.000000 -2.000000 1.831121E+01
6.000000 -4.000000 8.893057E+00
6.000000 -6.000000 5.560881E+00
6.000000 -8.000000 1.438867E+01
6.000000 -10.000000 1.815371E+01
6.000000 -12.000000 6.847137E+00
6.000000 -14.000000 -5.778173E+00
6.000000 -16.000000 -8.644528E+00
6.000000 -18.000000 3.877296E-01
6.000000 -20.000000 1.382224E+01
6.000000 -22.000000 2.632054E+01
6.000000 -24.000000 3.571308E+01
6.000000 -26.000000 4.047024E+01
6.000000 -28.000000 4.615384E+01
6.000000 -30.000000 4.829690E+01
6.000000 -32.000000 4.345318E+01
6.000000 -34.000000 3.437209E+01
6.000000 -36.000000 2.243042E+01
6.000000 -38.000000 1.071694E+01
6.000000 -40.000000 -2.119598E+00
8.000000 40.000000 4.026802E+01
8.000000 38.000000 3.598228E+01
8.000000 36.000000 3.036981E+01
8.000000 34.000000 2.493352E+01
8.000000 32.000000 1.903207E+01
8.000000 30.000000 1.131576E+01
8.000000 28.000000 5.325893E+00
8.000000 26.000000 -4.417057E-01
8.000000 24.000000 -9.917521E+00
8.000000 22.000000 -1.527397E+01
8.000000 20.000000 -1.309998E+01
8.000000 18.000000 -6.171604E+00
8.000000 16.000000 -5.870207E+00
8.000000 14.000000 -2.304844E+01
8.000000 12.000000 -5.670726E+01
8.000000 10.000000 -9.411968E+01
8.000000 8.000000 -1.188982E+02
8.000000 6.000000 -1.175749E+02
8.000000 4.000000 -8.237509E+01
8.000000 2.000000 -3.319187E+01
8.000000 0.000000 7.124750E+00
8.000000 -2.000000 1.755828E+01
8.000000 -4.000000 6.852011E+00
8.000000 -6.000000 -6.219692E-01
8.000000 -8.000000 4.488327E+00
8.000000 -10.000000 -2.064247E-01
8.000000 -12.000000 -1.801579E+01
8.000000 -14.000000 -3.330159E+01
8.000000 -16.000000 -3.305185E+01
8.000000 -18.000000 -1.525150E+01
8.000000 -20.000000 5.996878E+00
8.000000 -22.000000 2.161520E+01
8.000000 -24.000000 3.000642E+01
8.000000 -26.000000 3.213886E+01
8.000000 -28.000000 3.644745E+01
8.000000 -30.000000 3.970804E+01
8.000000 -32.000000 3.828673E+01
8.000000 -34.000000 3.098881E+01
8.000000 -36.000000 1.884035E+01
8.000000 -38.000000 7.822992E+00
8.000000 -40.000000 -3.551560E+00
10.000000 40.000000 3.651497E+01
10.000000 38.000000 3.113965E+01
10.000000 36.000000 2.662605E+01
10.000000 34.000000 2.350050E+01
10.000000 32.000000 2.029419E+01
10.000000 30.000000 1.504337E+01
10.000000 28.000000 9.408522E+00
10.000000 26.000000 2.461432E+00
10.000000 24.000000 -8.233030E+00
10.000000 22.000000 -1.384077E+01
10.000000 20.000000 -1.012292E+01
10.000000 18.000000 1.417568E+00
10.000000 16.000000 6.720009E+00
10.000000 14.000000 -5.980885E+00
10.000000 12.000000 -3.837342E+01
10.000000 10.000000 -7.869926E+01
10.000000 8.000000 -1.100480E+02
10.000000 6.000000 -1.133924E+02
10.000000 4.000000 -8.677500E+01
10.000000 2.000000 -4.540924E+01
10.000000 0.000000 -5.515165E+00
10.000000 -2.000000 1.178294E+01
10.000000 -4.000000 7.588329E+00
10.000000 -6.000000 -2.112598E-01
10.000000 -8.000000 -2.152954E+00
10.000000 -10.000000 -1.470884E+01
10.000000 -12.000000 -3.388531E+01
10.000000 -14.000000 -4.743941E+01
10.000000 -16.000000 -4.424901E+01
10.000000 -18.000000 -2.368975E+01
10.000000 -20.000000 -3.955975E-01
10.000000 -22.000000 1.452452E+01
10.000000 -24.000000 1.889786E+01
10.000000 -26.000000 1.799318E+01
10.000000 -28.000000 2.006614E+01
10.000000 -30.000000 2.193503E+01
10.000000 -32.000000 2.245747E+01
10.000000 -34.000000 1.787699E+01
10.000000 -36.000000 9.063275E+00
10.000000 -38.000000 2.259884E+00
10.000000 -40.000000 -5.668154E+00
12.000000 40.000000 3.256756E+01
12.000000 38.000000 2.430715E+01
12.000000 36.000000 1.855010E+01
12.000000 34.000000 1.490793E+01
12.000000 32.000000 1.299730E+01
12.000000 30.000000 1.217545E+01
12.000000 28.000000 1.045247E+01
12.000000 26.000000 5.853889E+00
12.000000 24.000000 -2.682373E+00
12.000000 22.000000 -9.466555E+00
12.000000 20.000000 -5.372026E+00
12.000000 18.000000 6.801916E+00
12.000000 16.000000 1.126669E+01
12.000000 14.000000 -3.425779E+00
12.000000 12.000000 -3.832671E+01
12.000000 10.000000 -7.935481E+01
12.000000 8.000000 -1.096151E+02
12.000000 6.000000 -1.170118E+02
12.000000 4.000000 -9.817459E+01
12.000000 2.000000 -6.189236E+01
12.000000 0.000000 -2.059098E+01
12.000000 -2.000000 6.220661E+00
12.000000 -4.000000 1.311935E+01
12.000000 -6.000000 1.007294E+01
12.000000 -8.000000 3.498772E+00
12.000000 -10.000000 -1.299336E+01
12.000000 -12.000000 -3.250980E+01
12.000000 -14.000000 -4.366529E+01
12.000000 -16.000000 -3.726620E+01
12.000000 -18.000000 -1.618432E+01
12.000000 -20.000000 4.085587E+00
12.000000 -22.000000 1.229363E+01
12.000000 -24.000000 7.972631E+00
12.000000 -26.000000 9.843302E-01
12.000000 -28.000000 -1.930017E-01
12.000000 -30.000000 -1.018418E+00
12.000000 -32.000000 2.263279E-01
12.000000 -34.000000 -4.223108E-01
12.000000 -36.000000 -3.540119E+00
12.000000 -38.000000 -4.987963E+00
12.000000 -40.000000 -8.947455E+00
14.000000 40.000000 2.924575E+01
14.000000 38.000000 1.772211E+01
14.000000 36.000000 9.275206E+00
14.000000 34.000000 3.211585E+00
14.000000 32.000000 6.470051E-01
14.000000 30.000000 1.310046E+00
14.000000 28.000000 3.568352E+00
14.000000 26.000000 3.573349E+00
14.000000 24.000000 -1.246450E+00
14.000000 22.000000 -7.448412E+00
14.000000 20.000000 -2.932016E+00
14.000000 18.000000 6.403275E+00
14.000000 16.000000 5.926783E+00
14.000000 14.000000 -1.294846E+01
14.000000 12.000000 -4.971101E+01
14.000000 10.000000 -9.041807E+01
14.000000 8.000000 -1.188434E+02
14.000000 6.000000 -1.326103E+02
14.000000 4.000000 -1.209757E+02
14.000000 2.000000 -8.399417E+01
14.000000 0.000000 -3.634076E+01
14.000000 -2.000000 2.154732E+00
14.000000 -4.000000 2.189489E+01
14.000000 -6.000000 2.693632E+01
14.000000 -8.000000 2.121864E+01
14.000000 -10.000000 6.000540E+00
14.000000 -12.000000 -1.301639E+01
14.000000 -14.000000 -2.201411E+01
14.000000 -16.000000 -1.272144E+01
14.000000 -18.000000 7.469685E+00
14.000000 -20.000000 2.070050E+01
14.000000 -22.000000 1.875401E+01
14.000000 -24.000000 4.177729E+00
14.000000 -26.000000 -1.037804E+01
14.000000 -28.000000 -1.676207E+01
14.000000 -30.000000 -2.092904E+01
14.000000 -32.000000 -2.096763E+01
14.000000 -34.000000 -1.916719E+01
14.000000 -36.000000 -1.670601E+01
14.000000 -38.000000 -1.371153E+01
14.000000 -40.000000 -1.429370E+01
16.000000 40.000000 2.757864E+01
16.000000 38.000000 1.380010E+01
16.000000 36.000000 2.061134E+00
16.000000 34.000000 -7.791095E+00
16.000000 32.000000 -1.319824E+01
16.000000 30.000000 -1.456265E+01
16.000000 28.000000 -1.338592E+01
16.000000 26.000000 -1.204088E+01
16.000000 24.000000 -1.354409E+01
16.000000 22.000000 -1.700275E+01
16.000000 20.000000 -1.151892E+01
16.000000 18.000000 -4.468569E+00
16.000000 16.000000 -8.887276E+00
16.000000 14.000000 -2.948526E+01
16.000000 12.000000 -6.203069E+01
16.000000 10.000000 -9.619540E+01
16.000000 8.000000 -1.218665E+02
16.000000 6.000000 -1.402107E+02
16.000000 4.000000 -1.357165E+02
16.000000 2.000000 -1.010344E+02
16.000000 0.000000 -5.001041E+01
16.000000 -2.000000 -3.530718E+00
16.000000 -4.000000 2.543163E+01
16.000000 -6.000000 3.797055E+01
16.000000 -8.000000 3.836751E+01
16.000000 -10.000000 3.035783E+01
16.000000 -12.000000 1.579155E+01
16.000000 -14.000000 1.074517E+01
16.000000 -16.000000 2.272110E+01
16.000000 -18.000000 4.038766E+01
16.000000 -20.000000 4.482683E+01
16.000000 -22.000000 3.197273E+01
16.000000 -24.000000 9.358998E+00
16.000000 -26.000000 -9.881124E+00
16.000000 -28.000000 -2.107045E+01
16.000000 -30.000000 -2.987678E+01
16.000000 -32.000000 -3.382866E+01
16.000000 -34.000000 -3.354018E+01
16.000000 -36.000000 -2.850400E+01
16.000000 -38.000000 -2.268626E+01
16.000000 -40.000000 -2.165044E+01
18.000000 40.000000 2.840347E+01
18.000000 38.000000 1.268827E+01
18.000000 36.000000 -2.286314E+00
18.000000 34.000000 -1.696787E+01
18.000000 32.000000 -2.692258E+01
18.000000 30.000000 -3.158507E+01
18.000000 28.000000 -3.423350E+01
18.000000 26.000000 -3.577277E+01
18.000000 24.000000 -3.927336E+01
18.000000 22.000000 -4.051419E+01
18.000000 20.000000 -3.528718E+01
18.000000 18.000000 -2.804056E+01
18.000000 16.000000 -3.027252E+01
18.000000 14.000000 -4.471547E+01
18.000000 12.000000 -6.509274E+01
18.000000 10.000000 -8.581736E+01
18.000000 8.000000 -1.074242E+02
18.000000 6.000000 -1.302194E+02
18.000000 4.000000 -1.359649E+02
18.000000 2.000000 -1.082721E+02
18.000000 0.000000 -5.835646E+01
18.000000 -2.000000 -9.023150E+00
18.000000 -4.000000 2.304597E+01
18.000000 -6.000000 3.794196E+01
18.000000 -8.000000 4.433594E+01
18.000000 -10.000000 4.681783E+01
18.000000 -12.000000 4.211418E+01
18.000000 -14.000000 4.507454E+01
18.000000 -16.000000 6.041460E+01
18.000000 -18.000000 7.473908E+01
18.000000 -20.000000 7.035012E+01
18.000000 -22.000000 4.807871E+01
18.000000 -24.000000 2.150595E+01
18.000000 -26.000000 1.960355E+00
18.000000 -28.000000 -1.160600E+01
18.000000 -30.000000 -2.572541E+01
18.000000 -32.000000 -3.594947E+01
18.000000 -34.000000 -4.029621E+01
18.000000 -36.000000 -3.653536E+01
18.000000 -38.000000 -2.987786E+01
18.000000 -40.000000 -2.887580E+01
20.000000 40.000000 3.153669E+01
20.000000 38.000000 1.322373E+01
20.000000 36.000000 -4.446861E+00
20.000000 34.000000 -2.283692E+01
20.000000 32.000000 -3.729831E+01
20.000000 30.000000 -4.533871E+01
20.000000 28.000000 -5.179674E+01
20.000000 26.000000 -5.775405E+01
20.000000 24.000000 -6.743217E+01
20.000000 22.000000 -6.809661E+01
20.000000 20.000000 -6.284447E+01
20.000000 18.000000 -5.285590E+01
20.000000 16.000000 -4.821305E+01
20.000000 14.000000 -5.209176E+01
20.000000 12.000000 -5.809844E+01
20.000000 10.000000 -6.309988E+01
20.000000 8.000000 -8.236429E+01
20.000000 6.000000 -1.141853E+02
20.000000 4.000000 -1.334753E+02
20.000000 2.000000 -1.121050E+02
20.000000 0.000000 -6.233565E+01
20.000000 -2.000000 -1.220935E+01
20.000000 -4.000000 1.888161E+01
20.000000 -6.000000 3.166393E+01
20.000000 -8.000000 3.997745E+01
20.000000 -10.000000 4.975367E+01
20.000000 -12.000000 5.838103E+01
20.000000 -14.000000 7.329155E+01
20.000000 -16.000000 9.177427E+01
20.000000 -18.000000 1.012227E+02
20.000000 -20.000000 8.946931E+01
20.000000 -22.000000 6.270402E+01
20.000000 -24.000000 3.744119E+01
20.000000 -26.000000 2.178667E+01
20.000000 -28.000000 9.179693E+00
20.000000 -30.000000 -8.800045E+00
20.000000 -32.000000 -2.673238E+01
20.000000 -34.000000 -3.831379E+01
20.000000 -36.000000 -3.950540E+01
20.000000 -38.000000 -3.405833E+01
20.000000 -40.000000 -3.387504E+01
22.000000 40.000000 3.529566E+01
22.000000 38.000000 1.489110E+01
22.000000 36.000000 -4.544395E+00
22.000000 34.000000 -2.385229E+01
22.000000 32.000000 -4.000226E+01
22.000000 30.000000 -5.001750E+01
22.000000 28.000000 -5.967247E+01
22.000000 26.000000 -6.953665E+01
22.000000 24.000000 -8.339172E+01
22.000000 22.000000 -8.366916E+01
22.000000 20.000000 -7.627268E+01
22.000000 18.000000 -6.235934E+01
22.000000 16.000000 -5.090658E+01
22.000000 14.000000 -4.766693E+01
22.000000 12.000000 -4.783021E+01
22.000000 10.000000 -4.905664E+01
22.000000 8.000000 -7.314486E+01
22.000000 6.000000 -1.133642E+02
22.000000 4.000000 -1.398065E+02
22.000000 2.000000 -1.195207E+02
22.000000 0.000000 -6.658869E+01
22.000000 -2.000000 -1.454428E+01
22.000000 -4.000000 1.526587E+01
22.000000 -6.000000 2.510956E+01
22.000000 -8.000000 3.315530E+01
22.000000 -10.000000 4.595701E+01
22.000000 -12.000000 6.502948E+01
22.000000 -14.000000 9.025643E+01
22.000000 -16.000000 1.120272E+02
22.000000 -18.000000 1.170673E+02
22.000000 -20.000000 1.000089E+02
22.000000 -22.000000 7.337498E+01
22.000000 -24.000000 5.353202E+01
22.000000 -26.000000 4.481641E+01
22.000000 -28.000000 3.618645E+01
22.000000 -30.000000 1.689011E+01
22.000000 -32.000000 -8.268276E+00
22.000000 -34.000000 -2.853279E+01
22.000000 -36.000000 -3.679654E+01
22.000000 -38.000000 -3.452300E+01
22.000000 -40.000000 -3.611005E+01
24.000000 40.000000 3.758486E+01
24.000000 38.000000 1.783208E+01
24.000000 36.000000 -1.462592E+00
24.000000 34.000000 -1.917386E+01
24.000000 32.000000 -3.346919E+01
24.000000 30.000000 -4.228480E+01
24.000000 28.000000 -5.293134E+01
24.000000 26.000000 -6.438346E+01
24.000000 24.000000 -7.837929E+01
24.000000 22.000000 -7.847305E+01
24.000000 20.000000 -6.947754E+01
24.000000 18.000000 -5.219207E+01
24.000000 16.000000 -3.730234E+01
24.000000 14.000000 -3.450710E+01
24.000000 12.000000 -4.193387E+01
24.000000 10.000000 -5.629462E+01
24.000000 8.000000 -8.877677E+01
24.000000 6.000000 -1.303718E+02
24.000000 4.000000 -1.550239E+02
24.000000 2.000000 -1.326362E+02
24.000000 0.000000 -7.627560E+01
24.000000 -2.000000 -2.102358E+01
24.000000 -4.000000 1.061264E+01
24.000000 -6.000000 2.026937E+01
24.000000 -8.000000 2.833407E+01
24.000000 -10.000000 4.141560E+01
24.000000 -12.000000 6.464436E+01
24.000000 -14.000000 9.558031E+01
24.000000 -16.000000 1.208878E+02
24.000000 -18.000000 1.241732E+02
24.000000 -20.000000 1.050398E+02
24.000000 -22.000000 8.108181E+01
24.000000 -24.000000 6.772964E+01
24.000000 -26.000000 6.675706E+01
24.000000 -28.000000 6.239913E+01
24.000000 -30.000000 4.296935E+01
24.000000 -32.000000 1.312231E+01
24.000000 -34.000000 -1.378600E+01
24.000000 -36.000000 -2.839149E+01
24.000000 -38.000000 -3.091273E+01
24.000000 -40.000000 -3.543145E+01
26.000000 40.000000 3.982742E+01
26.000000 38.000000 2.313203E+01
26.000000 36.000000 5.894882E+00
26.000000 34.000000 -8.818976E+00
26.000000 32.000000 -2.042940E+01
26.000000 30.000000 -2.658168E+01
26.000000 28.000000 -3.542143E+01
26.000000 26.000000 -4.509412E+01
26.000000 24.000000 -5.680337E+01
26.000000 22.000000 -5.791695E+01
26.000000 20.000000 -4.833224E+01
26.000000 18.000000 -2.978086E+01
26.000000 16.000000 -1.744583E+01
26.000000 14.000000 -2.091406E+01
26.000000 12.000000 -3.945393E+01
26.000000 10.000000 -6.815204E+01
26.000000 8.000000 -1.063259E+02
26.000000 6.000000 -1.488889E+02
26.000000 4.000000 -1.724444E+02
26.000000 2.000000 -1.505355E+02
26.000000 0.000000 -9.561779E+01
26.000000 -2.000000 -3.803217E+01
26.000000 -4.000000 2.001181E-01
26.000000 -6.000000 1.650350E+01
26.000000 -8.000000 2.806338E+01
26.000000 -10.000000 4.107386E+01
26.000000 -12.000000 6.261049E+01
26.000000 -14.000000 9.385078E+01
26.000000 -16.000000 1.207795E+02
26.000000 -18.000000 1.245876E+02
26.000000 -20.000000 1.061025E+02
26.000000 -22.000000 8.560316E+01
26.000000 -24.000000 7.811844E+01
26.000000 -26.000000 8.253840E+01
26.000000 -28.000000 8.019953E+01
26.000000 -30.000000 6.148649E+01
26.000000 -32.000000 3.083079E+01
26.000000 -34.000000 1.662134E+00
26.000000 -36.000000 -1.646316E+01
26.000000 -38.000000 -2.296913E+01
26.000000 -40.000000 -2.976958E+01
28.000000 40.000000 4.524756E+01
28.000000 38.000000 3.209606E+01
28.000000 36.000000 1.657004E+01
28.000000 34.000000 3.698068E+00
28.000000 32.000000 -6.184678E+00
28.000000 30.000000 -1.060525E+01
28.000000 28.000000 -1.565424E+01
28.000000 26.000000 -2.180117E+01
28.000000 24.000000 -3.084984E+01
28.000000 22.000000 -3.326096E+01
28.000000 20.000000 -2.346845E+01
28.000000 18.000000 -6.732625E+00
28.000000 16.000000 -7.251301E-01
28.000000 14.000000 -1.067033E+01
28.000000 12.000000 -3.389641E+01
28.000000 10.000000 -6.599929E+01
28.000000 8.000000 -1.043384E+02
28.000000 6.000000 -1.472777E+02
28.000000 4.000000 -1.744320E+02
28.000000 2.000000 -1.630621E+02
28.000000 0.000000 -1.206733E+02
28.000000 -2.000000 -6.603421E+01
28.000000 -4.000000 -1.914851E+01
28.000000 -6.000000 1.138719E+01
28.000000 -8.000000 2.947276E+01
28.000000 -10.000000 4.254112E+01
28.000000 -12.000000 5.999522E+01
28.000000 -14.000000 8.924227E+01
28.000000 -16.000000 1.154517E+02
28.000000 -18.000000 1.201173E+02
28.000000 -20.000000 1.035860E+02
28.000000 -22.000000 8.675254E+01
28.000000 -24.000000 8.436596E+01
28.000000 -26.000000 8.978129E+01
28.000000 -28.000000 8.702099E+01
28.000000 -30.000000 7.042892E+01
28.000000 -32.000000 4.308517E+01
28.000000 -34.000000 1.604594E+01
28.000000 -36.000000 -3.292428E+00
28.000000 -38.000000 -1.206522E+01
28.000000 -40.000000 -1.972440E+01
30.000000 40.000000 5.431091E+01
30.000000 38.000000 4.385941E+01
30.000000 36.000000 2.843794E+01
30.000000 34.000000 1.386633E+01
30.000000 32.000000 3.277451E+00
30.000000 30.000000 -1.011100E-01
30.000000 28.000000 -1.269598E-01
30.000000 26.000000 -2.541230E+00
30.000000 24.000000 -9.061471E+00
30.000000 22.000000 -1.198428E+01
30.000000 20.000000 -2.156888E+00
30.000000 18.000000 1.259077E+01
30.000000 16.000000 1.410774E+01
30.000000 14.000000 1.267426E+00
30.000000 12.000000 -2.047599E+01
30.000000 10.000000 -4.632673E+01
30.000000 8.000000 -8.047727E+01
30.000000 6.000000 -1.209551E+02
30.000000 4.000000 -1.551140E+02
30.000000 2.000000 -1.631813E+02
30.000000 0.000000 -1.425022E+02
30.000000 -2.000000 -9.780342E+01
30.000000 -4.000000 -4.623469E+01
30.000000 -6.000000 -2.092755E+00
30.000000 -8.000000 2.353308E+01
30.000000 -10.000000 3.693151E+01
30.000000 -12.000000 5.318530E+01
30.000000 -14.000000 8.264729E+01
30.000000 -16.000000 1.083745E+02
30.000000 -18.000000 1.139448E+02
30.000000 -20.000000 1.006444E+02
30.000000 -22.000000 8.875199E+01
30.000000 -24.000000 8.948800E+01
30.000000 -26.000000 9.305739E+01
30.000000 -28.000000 8.888015E+01
30.000000 -30.000000 7.456076E+01
30.000000 -32.000000 5.199728E+01
30.000000 -34.000000 2.810744E+01
30.000000 -36.000000 8.378184E+00
30.000000 -38.000000 -1.902839E+00
30.000000 -40.000000 -9.894875E+00
32.000000 40.000000 6.551567E+01
32.000000 38.000000 5.642512E+01
32.000000 36.000000 3.992119E+01
32.000000 34.000000 2.109667E+01
32.000000 32.000000 7.047956E+00
32.000000 30.000000 3.653311E+00
32.000000 28.000000 9.087234E+00
32.000000 26.000000 1.139193E+01
32.000000 24.000000 7.805078E+00
32.000000 22.000000 4.946160E+00
32.000000 20.000000 1.450932E+01
32.000000 18.000000 2.809829E+01
32.000000 16.000000 2.663601E+01
32.000000 14.000000 1.179099E+01
32.000000 12.000000 -7.599633E+00
32.000000 10.000000 -2.350348E+01
32.000000 8.000000 -4.926805E+01
32.000000 6.000000 -8.354478E+01
32.000000 4.000000 -1.227160E+02
32.000000 2.000000 -1.495721E+02
32.000000 0.000000 -1.509803E+02
32.000000 -2.000000 -1.184203E+02
32.000000 -4.000000 -6.838373E+01
32.000000 -6.000000 -1.872973E+01
32.000000 -8.000000 1.241985E+01
32.000000 -10.000000 2.757641E+01
32.000000 -12.000000 4.602199E+01
32.000000 -14.000000 7.658541E+01
32.000000 -16.000000 1.013816E+02
32.000000 -18.000000 1.053278E+02
32.000000 -20.000000 9.443287E+01
32.000000 -22.000000 8.848781E+01
32.000000 -24.000000 9.192043E+01
32.000000 -26.000000 9.512001E+01
32.000000 -28.000000 8.991238E+01
32.000000 -30.000000 7.627234E+01
32.000000 -32.000000 5.591270E+01
32.000000 -34.000000 3.420372E+01
32.000000 -36.000000 1.633175E+01
32.000000 -38.000000 7.024263E+00
32.000000 -40.000000 -7.100086E-01
34.000000 40.000000 7.666832E+01
34.000000 38.000000 6.779564E+01
34.000000 36.000000 4.979848E+01
34.000000 34.000000 2.731033E+01
34.000000 32.000000 9.899175E+00
34.000000 30.000000 5.276576E+00
34.000000 28.000000 1.424461E+01
34.000000 26.000000 2.136744E+01
34.000000 24.000000 2.056131E+01
34.000000 22.000000 1.749629E+01
34.000000 20.000000 2.555114E+01
34.000000 18.000000 3.640468E+01
34.000000 16.000000 3.086310E+01
34.000000 14.000000 1.212842E+01
34.000000 12.000000 -6.746737E+00
34.000000 10.000000 -1.475109E+01
34.000000 8.000000 -2.771893E+01
34.000000 6.000000 -4.987178E+01
34.000000 4.000000 -8.475023E+01
34.000000 2.000000 -1.194074E+02
34.000000 0.000000 -1.340390E+02
34.000000 -2.000000 -1.135421E+02
34.000000 -4.000000 -7.121216E+01
34.000000 -6.000000 -2.511792E+01
34.000000 -8.000000 4.583328E+00
34.000000 -10.000000 2.068882E+01
34.000000 -12.000000 4.196611E+01
34.000000 -14.000000 7.166628E+01
34.000000 -16.000000 9.226298E+01
34.000000 -18.000000 9.151429E+01
34.000000 -20.000000 8.161644E+01
34.000000 -22.000000 8.036527E+01
34.000000 -24.000000 8.596055E+01
34.000000 -26.000000 9.043979E+01
34.000000 -28.000000 8.601688E+01
34.000000 -30.000000 7.280452E+01
34.000000 -32.000000 5.408016E+01
34.000000 -34.000000 3.583606E+01
34.000000 -36.000000 2.214662E+01
34.000000 -38.000000 1.591964E+01
34.000000 -40.000000 9.183730E+00
36.000000 40.000000 8.497194E+01
36.000000 38.000000 7.647823E+01
36.000000 36.000000 5.818104E+01
36.000000 34.000000 3.477410E+01
36.000000 32.000000 1.634027E+01
36.000000 30.000000 1.035607E+01
36.000000 28.000000 1.825286E+01
36.000000 26.000000 2.670845E+01
36.000000 24.000000 2.895855E+01
36.000000 22.000000 2.632883E+01
36.000000 20.000000 3.075015E+01
36.000000 18.000000 3.537936E+01
36.000000 16.000000 2.545973E+01
36.000000 14.000000 3.134936E+00
36.000000 12.000000 -1.665884E+01
36.000000 10.000000 -2.168269E+01
36.000000 8.000000 -2.265255E+01
36.000000 6.000000 -3.107634E+01
36.000000 4.000000 -5.093505E+01
36.000000 2.000000 -7.774298E+01
36.000000 0.000000 -9.274303E+01
36.000000 -2.000000 -8.171038E+01
36.000000 -4.000000 -5.125444E+01
36.000000 -6.000000 -1.667524E+01
36.000000 -8.000000 5.943007E+00
36.000000 -10.000000 2.057299E+01
36.000000 -12.000000 4.019439E+01
36.000000 -14.000000 6.412237E+01
36.000000 -16.000000 7.834195E+01
36.000000 -18.000000 7.305371E+01
36.000000 -20.000000 6.276306E+01
36.000000 -22.000000 6.352629E+01
36.000000 -24.000000 7.105661E+01
36.000000 -26.000000 7.690815E+01
36.000000 -28.000000 7.439757E+01
36.000000 -30.000000 6.355992E+01
36.000000 -32.000000 4.833511E+01
36.000000 -34.000000 3.529901E+01
36.000000 -36.000000 2.713392E+01
36.000000 -38.000000 2.430121E+01
36.000000 -40.000000 1.940164E+01
38.000000 40.000000 8.895440E+01
38.000000 38.000000 8.169208E+01
38.000000 36.000000 6.537168E+01
38.000000 34.000000 4.406560E+01
38.000000 32.000000 2.649567E+01
38.000000 30.000000 1.870474E+01
38.000000 28.000000 2.099053E+01
38.000000 26.000000 2.638274E+01
38.000000 24.000000 3.001668E+01
38.000000 22.000000 2.890360E+01
38.000000 20.000000 3.132489E+01
38.000000 18.000000 3.056160E+01
38.000000 16.000000 1.821807E+01
38.000000 14.000000 -4.838094E+00
38.000000 12.000000 -2.449452E+01
38.000000 10.000000 -2.937698E+01
38.000000 8.000000 -2.352116E+01
38.000000 6.000000 -2.178717E+01
38.000000 4.000000 -2.777749E+01
38.000000 2.000000 -3.984539E+01
38.000000 0.000000 -4.596969E+01
38.000000 -2.000000 -3.895882E+01
38.000000 -4.000000 -1.979186E+01
38.000000 -6.000000 1.505826E+00
38.000000 -8.000000 1.556159E+01
38.000000 -10.000000 2.607920E+01
38.000000 -12.000000 3.866288E+01
38.000000 -14.000000 5.280005E+01
38.000000 -16.000000 5.878434E+01
38.000000 -18.000000 5.032634E+01
38.000000 -20.000000 4.023970E+01
38.000000 -22.000000 4.154460E+01
38.000000 -24.000000 5.137311E+01
38.000000 -26.000000 5.961870E+01
38.000000 -28.000000 5.953891E+01
38.000000 -30.000000 5.220918E+01
38.000000 -32.000000 4.150241E+01
38.000000 -34.000000 3.344715E+01
38.000000 -36.000000 3.091689E+01
38.000000 -38.000000 3.159098E+01
38.000000 -40.000000 2.933861E+01
40.000000 40.000000 8.794909E+01
40.000000 38.000000 8.259570E+01
40.000000 36.000000 7.100949E+01
40.000000 34.000000 5.454185E+01
40.000000 32.000000 3.897544E+01
40.000000 30.000000 2.836019E+01
40.000000 28.000000 2.251325E+01
40.000000 26.000000 2.107269E+01
40.000000 24.000000 2.173246E+01
40.000000 22.000000 2.249051E+01
40.000000 20.000000 2.673725E+01
40.000000 18.000000 2.765147E+01
40.000000 16.000000 1.716946E+01
40.000000 14.000000 -3.768254E+00
40.000000 12.000000 -2.196079E+01
40.000000 10.000000 -2.688121E+01
40.000000 8.000000 -1.993770E+01
40.000000 6.000000 -1.411826E+01
40.000000 4.000000 -1.261214E+01
40.000000 2.000000 -1.400353E+01
40.000000 0.000000 -1.146625E+01
40.000000 -2.000000 -5.333931E+00
40.000000 -4.000000 5.299336E+00
40.000000 -6.000000 1.717706E+01
40.000000 -8.000000 2.567901E+01
40.000000 -10.000000 3.134448E+01
40.000000 -12.000000 3.576229E+01
40.000000 -14.000000 4.037481E+01
40.000000 -16.000000 3.866084E+01
40.000000 -18.000000 2.845337E+01
40.000000 -20.000000 1.983304E+01
40.000000 -22.000000 2.176820E+01
40.000000 -24.000000 3.386546E+01
40.000000 -26.000000 4.590316E+01
40.000000 -28.000000 4.883773E+01
40.000000 -30.000000 4.414549E+01
40.000000 -32.000000 3.705622E+01
40.000000 -34.000000 3.222600E+01
40.000000 -36.000000 3.349945E+01
40.000000 -38.000000 3.741788E+01
40.000000 -40.000000 3.772486E+01
42.000000 40.000000 8.232975E+01
42.000000 38.000000 7.979065E+01
42.000000 36.000000 7.492442E+01
42.000000 34.000000 6.529205E+01
42.000000 32.000000 5.224386E+01
42.000000 30.000000 3.761150E+01
42.000000 28.000000 2.224915E+01
42.000000 26.000000 1.119278E+01
42.000000 24.000000 4.891702E+00
42.000000 22.000000 6.641665E+00
42.000000 20.000000 1.548172E+01
42.000000 18.000000 2.570918E+01
42.000000 16.000000 2.357518E+01
42.000000 14.000000 8.019806E+00
42.000000 12.000000 -9.026176E+00
42.000000 10.000000 -1.639167E+01
42.000000 8.000000 -1.424471E+01
42.000000 6.000000 -1.030911E+01
42.000000 4.000000 -9.017251E+00
42.000000 2.000000 -6.635686E+00
42.000000 0.000000 1.699523E+00
42.000000 -2.000000 9.302957E+00
42.000000 -4.000000 1.646458E+01
42.000000 -6.000000 2.380338E+01
42.000000 -8.000000 3.008912E+01
