-26.000000 -28.000000 -3.397386E+00
-26.000000 -30.000000 -1.145452E+00
-26.000000 -32.000000 -2.923151E+00
-26.000000 -34.000000 -8.068895E+00
-26.000000 -36.000000 -1.103109E+01
-26.000000 -38.000000 -8.866241E+00
-26.000000 -40.000000 -8.646128E+00
-24.000000 40.000000 -2.603807E+00
-24.000000 38.000000 1.540964E+00
-24.000000 36.000000 7.780775E+00
-24.000000 34.000000 9.949827E+00
-24.000000 32.000000 7.889648E+00
-24.000000 30.000000 1.453622E+01
-24.000000 28.000000 2.519444E+01
-24.000000 26.000000 3.568487E+01
-24.000000 24.000000 4.303477E+01
-24.000000 22.000000 3.972465E+01
-24.000000 20.000000 3.483057E+01
-24.000000 18.000000 3.692229E+01
-24.000000 16.000000 4.537058E+01
-24.000000 14.000000 4.508086E+01
-24.000000 12.000000 3.376948E+01
-24.000000 10.000000 2.432718E+01
-24.000000 8.000000 2.496094E+01
-24.000000 6.000000 2.573475E+01
-24.000000 4.000000 2.821900E+01
-24.000000 2.000000 2.592275E+01
-24.000000 0.000000 2.032471E+01
-24.000000 -2.000000 1.831161E+01
-24.000000 -4.000000 1.901795E+01
-24.000000 -6.000000 1.883915E+01
-24.000000 -8.000000 1.911979E+01
-24.000000 -10.000000 1.987055E+01
-24.000000 -12.000000 1.946811E+01
-24.000000 -14.000000 1.814703E+01
-24.000000 -16.000000 1.373641E+01
-24.000000 -18.000000 8.548292E+00
-24.000000 -20.000000 5.410664E+00
-24.000000 -22.000000 3.353934E+00
-24.000000 -24.000000 6.726022E-01
-24.000000 -26.000000 -1.766419E+00
-24.000000 -28.000000 -2.157092E+00
-24.000000 -30.000000 -6.547029E-01
-24.000000 -32.000000 -4.104173E+00
-24.000000 -34.000000 -1.075019E+01
-24.000000 -36.000000 -1.206669E+01
-24.000000 -38.000000 -6.534659E+00
-24.000000 -40.000000 -3.159002E+00
-22.000000 40.000000 9.631275E+00
-22.000000 38.000000 1.940432E+01
-22.000000 36.000000 2.645383E+01
-22.000000 34.000000 2.577864E+01
-22.000000 32.000000 2.234538E+01
-22.000000 30.000000 2.842061E+01
-22.000000 28.000000 3.790278E+01
-22.000000 26.000000 4.572423E+01
-22.000000 24.000000 4.925973E+01
-22.000000 22.000000 4.358549E+01
-22.000000 20.000000 3.853386E+01
-22.000000 18.000000 4.429065E+01
-22.000000 16.000000 5.675139E+01
-22.000000 14.000000 5.864249E+01
-22.000000 12.000000 4.332111E+01
-22.000000 10.000000 2.495619E+01
-22.000000 8.000000 1.769811E+01
-22.000000 6.000000 1.344475E+01
-22.000000 4.000000 1.942502E+01
-22.000000 2.000000 2.611142E+01
-22.000000 0.000000 2.869512E+01
-22.000000 -2.000000 3.259269E+01
-22.000000 -4.000000 3.619496E+01
-22.000000 -6.000000 3.803856E+01
-22.000000 -8.000000 3.718587E+01
-22.000000 -10.000000 3.385003E+01
-22.000000 -12.000000 2.872553E+01
-22.000000 -14.000000 2.522620E+01
-22.000000 -16.000000 2.081779E+01
-22.000000 -18.000000 1.401815E+01
-22.000000 -20.000000 1.036086E+01
-22.000000 -22.000000 7.199625E+00
-22.000000 -24.000000 5.450821E+00
-22.000000 -26.000000 4.691362E+00
-22.000000 -28.000000 5.119657E+00
-22.000000 -30.000000 5.534194E+00
-22.000000 -32.000000 -4.394901E-01
-22.000000 -34.000000 -8.950392E+00
-22.000000 -36.000000 -9.808409E+00
-22.000000 -38.000000 -3.124580E+00
-22.000000 -40.000000 1.511340E+00
-20.000000 40.000000 2.234654E+01
-20.000000 38.000000 3.479719E+01
-20.000000 36.000000 4.175713E+01
-20.000000 34.000000 3.873025E+01
-20.000000 32.000000 3.392755E+01
-20.000000 30.000000 4.111598E+01
-20.000000 28.000000 5.064711E+01
-20.000000 26.000000 5.526709E+01
-20.000000 24.000000 5.276456E+01
-20.000000 22.000000 4.156662E+01
-20.000000 20.000000 3.301900E+01
-20.000000 18.000000 4.290537E+01
-20.000000 16.000000 6.644686E+01
-20.000000 14.000000 7.838403E+01
-20.000000 12.000000 6.556175E+01
-20.000000 10.000000 4.159789E+01
-20.000000 8.000000 2.405001E+01
-20.000000 6.000000 1.220870E+01
-20.000000 4.000000 1.649133E+01
-20.000000 2.000000 2.645841E+01
-20.000000 0.000000 3.164148E+01
-20.000000 -2.000000 3.546577E+01
-20.000000 -4.000000 4.076656E+01
-20.000000 -6.000000 4.441300E+01
-20.000000 -8.000000 4.122754E+01
-20.000000 -10.000000 3.465816E+01
-20.000000 -12.000000 2.835150E+01
-20.000000 -14.000000 2.575962E+01
-20.000000 -16.000000 2.262058E+01
-20.000000 -18.000000 1.633761E+01
-20.000000 -20.000000 1.296413E+01
-20.000000 -22.000000 1.113340E+01
-20.000000 -24.000000 1.275386E+01
-20.000000 -26.000000 1.631124E+01
-20.000000 -28.000000 1.942154E+01
-20.000000 -30.000000 1.784949E+01
-20.000000 -32.000000 8.208073E+00
-20.000000 -34.000000 -3.031913E+00
-20.000000 -36.000000 -5.014954E+00
-20.000000 -38.000000 7.460337E-01
-20.000000 -40.000000 5.553912E+00
-18.000000 40.000000 3.318529E+01
-18.000000 38.000000 4.694674E+01
-18.000000 36.000000 5.364721E+01
-18.000000 34.000000 5.047419E+01
-18.000000 32.000000 4.483375E+01
-18.000000 30.000000 5.190410E+01
-18.000000 28.000000 6.136498E+01
-18.000000 26.000000 6.397999E+01
-18.000000 24.000000 5.611406E+01
-18.000000 22.000000 3.837189E+01
-18.000000 20.000000 2.503917E+01
-18.000000 18.000000 3.676014E+01
-18.000000 16.000000 7.027507E+01
-18.000000 14.000000 9.431734E+01
-18.000000 12.000000 8.993561E+01
-18.000000 10.000000 6.516472E+01
-18.000000 8.000000 3.758643E+01
-18.000000 6.000000 1.840901E+01
-18.000000 4.000000 1.864366E+01
-18.000000 2.000000 2.679964E+01
-18.000000 0.000000 2.893299E+01
-18.000000 -2.000000 2.915758E+01
-18.000000 -4.000000 3.466184E+01
-18.000000 -6.000000 3.806765E+01
-18.000000 -8.000000 3.226760E+01
-18.000000 -10.000000 2.570923E+01
-18.000000 -12.000000 2.365373E+01
-18.000000 -14.000000 2.383299E+01
-18.000000 -16.000000 2.207798E+01
-18.000000 -18.000000 1.768714E+01
-18.000000 -20.000000 1.450960E+01
-18.000000 -22.000000 1.623681E+01
-18.000000 -24.000000 2.364548E+01
-18.000000 -26.000000 3.248774E+01
-18.000000 -28.000000 3.870376E+01
-18.000000 -30.000000 3.398399E+01
-18.000000 -32.000000 1.903153E+01
-18.000000 -34.000000 3.178706E+00
-18.000000 -36.000000 -2.230294E+00
-18.000000 -38.000000 3.695797E+00
-18.000000 -40.000000 9.834823E+00
-16.000000 40.000000 3.653031E+01
-16.000000 38.000000 5.191998E+01
-16.000000 36.000000 6.124005E+01
-16.000000 34.000000 6.235106E+01
-16.000000 32.000000 5.895839E+01
-16.000000 30.000000 6.501025E+01
-16.000000 28.000000 7.233045E+01
-16.000000 26.000000 7.286873E+01
-16.000000 24.000000 6.274950E+01
-16.000000 22.000000 4.214066E+01
-16.000000 20.000000 2.670916E+01
-16.000000 18.000000 3.683005E+01
-16.000000 16.000000 7.339663E+01
-16.000000 14.000000 1.056786E+02
-16.000000 12.000000 1.097142E+02
-16.000000 10.000000 8.683570E+01
-16.000000 8.000000 5.371682E+01
-16.000000 6.000000 2.749412E+01
-16.000000 4.000000 2.087977E+01
-16.000000 2.000000 2.389154E+01
-16.000000 0.000000 2.179554E+01
-16.000000 -2.000000 1.941860E+01
-16.000000 -4.000000 2.238150E+01
-16.000000 -6.000000 2.212827E+01
-16.000000 -8.000000 1.537535E+01
-16.000000 -10.000000 1.038849E+01
-16.000000 -12.000000 1.230871E+01
-16.000000 -14.000000 1.453453E+01
-16.000000 -16.000000 1.530810E+01
-16.000000 -18.000000 1.533929E+01
-16.000000 -20.000000 1.589513E+01
-16.000000 -22.000000 2.338538E+01
-16.000000 -24.000000 3.566891E+01
-16.000000 -26.000000 4.855458E+01
-16.000000 -28.000000 5.599629E+01
-16.000000 -30.000000 4.925327E+01
-16.000000 -32.000000 2.981574E+01
-16.000000 -34.000000 9.712292E+00
-16.000000 -36.000000 3.501749E-01
-16.000000 -38.000000 5.942578E+00
-16.000000 -40.000000 1.307036E+01
-14.000000 40.000000 3.210294E+01
-14.000000 38.000000 4.909836E+01
-14.000000 36.000000 6.279568E+01
-14.000000 34.000000 7.026596E+01
-14.000000 32.000000 7.099507E+01
-14.000000 30.000000 7.753996E+01
-14.000000 28.000000 8.256429E+01
-14.000000 26.000000 8.097999E+01
-14.000000 24.000000 7.217384E+01
-14.000000 22.000000 5.333499E+01
-14.000000 20.000000 3.968685E+01
-14.000000 18.000000 4.827887E+01
-14.000000 16.000000 8.433449E+01
-14.000000 14.000000 1.223417E+02
-14.000000 12.000000 1.340771E+02
-14.000000 10.000000 1.145396E+02
-14.000000 8.000000 7.801434E+01
-14.000000 6.000000 4.246774E+01
-14.000000 4.000000 2.244510E+01
-14.000000 2.000000 1.561106E+01
-14.000000 0.000000 8.947235E+00
-14.000000 -2.000000 5.454277E+00
-14.000000 -4.000000 5.561840E+00
-14.000000 -6.000000 2.731216E+00
-14.000000 -8.000000 -2.239487E+00
-14.000000 -10.000000 -5.640753E+00
-14.000000 -12.000000 -1.459383E+00
-14.000000 -14.000000 2.679758E+00
-14.000000 -16.000000 5.279235E+00
-14.000000 -18.000000 7.728572E+00
-14.000000 -20.000000 1.290350E+01
-14.000000 -22.000000 2.471981E+01
-14.000000 -24.000000 4.061564E+01
-14.000000 -26.000000 5.502343E+01
-14.000000 -28.000000 5.949103E+01
-14.000000 -30.000000 5.346085E+01
-14.000000 -32.000000 3.479144E+01
-14.000000 -34.000000 1.526286E+01
-14.000000 -36.000000 5.964246E+00
-14.000000 -38.000000 1.073075E+01
-14.000000 -40.000000 1.793252E+01
-12.000000 40.000000 2.476826E+01
-12.000000 38.000000 4.283904E+01
-12.000000 36.000000 5.941157E+01
-12.000000 34.000000 7.168956E+01
-12.000000 32.000000 7.434379E+01
-12.000000 30.000000 8.205114E+01
-12.000000 28.000000 8.610858E+01
-12.000000 26.000000 8.387699E+01
-12.000000 24.000000 7.844357E+01
-12.000000 22.000000 6.184387E+01
-12.000000 20.000000 4.933405E+01
-12.000000 18.000000 5.625422E+01
-12.000000 16.000000 9.412407E+01
-12.000000 14.000000 1.412187E+02
-12.000000 12.000000 1.671608E+02
-12.000000 10.000000 1.589204E+02
-12.000000 8.000000 1.175572E+02
-12.000000 6.000000 7.015709E+01
-12.000000 4.000000 3.027216E+01
-12.000000 2.000000 8.157825E+00
-12.000000 0.000000 -5.420963E+00
-12.000000 -2.000000 -1.010951E+01
-12.000000 -4.000000 -8.605488E+00
-12.000000 -6.000000 -9.079639E+00
-12.000000 -8.000000 -1.046594E+01
-12.000000 -10.000000 -1.090629E+01
-12.000000 -12.000000 -4.846836E+00
-12.000000 -14.000000 -1.005917E-01
-12.000000 -16.000000 8.560200E-01
-12.000000 -18.000000 -3.190422E-01
-12.000000 -20.000000 2.068319E+00
-12.000000 -22.000000 1.285400E+01
-12.000000 -24.000000 3.149524E+01
-12.000000 -26.000000 4.469948E+01
-12.000000 -28.000000 4.690573E+01
-12.000000 -30.000000 4.258168E+01
-12.000000 -32.000000 2.968084E+01
-12.000000 -34.000000 1.519457E+01
-12.000000 -36.000000 1.150879E+01
-12.000000 -38.000000 1.878167E+01
-12.000000 -40.000000 2.801832E+01
-10.000000 40.000000 1.802506E+01
-10.000000 38.000000 3.617695E+01
-10.000000 36.000000 5.328417E+01
-10.000000 34.000000 6.720475E+01
-10.000000 32.000000 6.786459E+01
-10.000000 30.000000 7.571259E+01
-10.000000 28.000000 7.938586E+01
-10.000000 26.000000 7.710531E+01
-10.000000 24.000000 7.243995E+01
-10.000000 22.000000 5.578773E+01
-10.000000 20.000000 4.247669E+01
-10.000000 18.000000 4.766226E+01
-10.000000 16.000000 8.982516E+01
-10.000000 14.000000 1.478286E+02
-10.000000 12.000000 1.918592E+02
-10.000000 10.000000 2.030752E+02
-10.000000 8.000000 1.643650E+02
-10.000000 6.000000 1.093420E+02
-10.000000 4.000000 4.834853E+01
-10.000000 2.000000 7.845821E+00
-10.000000 0.000000 -1.352008E+01
-10.000000 -2.000000 -1.776902E+01
-10.000000 -4.000000 -1.242704E+01
-10.000000 -6.000000 -8.622707E+00
-10.000000 -8.000000 -6.924168E+00
-10.000000 -10.000000 -4.243309E+00
-10.000000 -12.000000 4.348829E+00
-10.000000 -14.000000 8.682278E+00
-10.000000 -16.000000 5.255655E+00
-10.000000 -18.000000 -3.277922E+00
-10.000000 -20.000000 -8.016685E+00
-10.000000 -22.000000 -1.017530E+00
-10.000000 -24.000000 1.731687E+01
-10.000000 -26.000000 2.899365E+01
-10.000000 -28.000000 3.098561E+01
-10.000000 -30.000000 2.696528E+01
-10.000000 -32.000000 1.846066E+01
-10.000000 -34.000000 8.717965E+00
-10.000000 -36.000000 1.253079E+01
-10.000000 -38.000000 2.497963E+01
-10.000000 -40.000000 3.825625E+01
-8.000000 40.000000 1.387583E+01
-8.000000 38.000000 3.171822E+01
-8.000000 36.000000 4.834228E+01
-8.000000 34.000000 5.991796E+01
-8.000000 32.000000 5.480312E+01
-8.000000 30.000000 5.938249E+01
-8.000000 28.000000 6.047796E+01
-8.000000 26.000000 5.613637E+01
-8.000000 24.000000 4.838955E+01
-8.000000 22.000000 3.196677E+01
-8.000000 20.000000 1.833167E+01
-8.000000 18.000000 2.373502E+01
-8.000000 16.000000 6.771072E+01
-8.000000 14.000000 1.315249E+02
-8.000000 12.000000 1.882399E+02
-8.000000 10.000000 2.195298E+02
-8.000000 8.000000 1.975242E+02
-8.000000 6.000000 1.438686E+02
-8.000000 4.000000 6.850737E+01
-8.000000 2.000000 1.497698E+01
-8.000000 0.000000 -9.216766E+00
-8.000000 -2.000000 -8.512848E+00
-8.000000 -4.000000 6.956406E-01
-8.000000 -6.000000 6.536514E+00
-8.000000 -8.000000 7.410860E+00
-8.000000 -10.000000 1.115857E+01
-8.000000 -12.000000 2.052646E+01
-8.000000 -14.000000 2.321788E+01
-8.000000 -16.000000 1.701877E+01
-8.000000 -18.000000 4.226988E+00
-8.000000 -20.000000 -4.693701E+00
-8.000000 -22.000000 -2.015564E+00
-8.000000 -24.000000 1.078137E+01
-8.000000 -26.000000 1.969812E+01
-8.000000 -28.000000 1.999537E+01
-8.000000 -30.000000 1.403130E+01
-8.000000 -32.000000 7.479265E+00
-8.000000 -34.000000 1.639206E+00
-8.000000 -36.000000 1.111503E+01
-8.000000 -38.000000 2.719001E+01
-8.000000 -40.000000 4.335347E+01
-6.000000 40.000000 1.306634E+01
-6.000000 38.000000 3.073749E+01
-6.000000 36.000000 4.627544E+01
-6.000000 34.000000 5.208468E+01
-6.000000 32.000000 4.041634E+01
-6.000000 30.000000 3.570183E+01
-6.000000 28.000000 2.903407E+01
-6.000000 26.000000 2.150552E+01
-6.000000 24.000000 1.117782E+01
-6.000000 22.000000 -3.831821E+00
-6.000000 20.000000 -1.633858E+01
-6.000000 18.000000 -7.850246E+00
-6.000000 16.000000 3.428159E+01
-6.000000 14.000000 9.571960E+01
-6.000000 12.000000 1.571727E+02
-6.000000 10.000000 2.061873E+02
-6.000000 8.000000 2.108109E+02
-6.000000 6.000000 1.665837E+02
-6.000000 4.000000 8.349404E+01
-6.000000 2.000000 2.184554E+01
-6.000000 0.000000 -3.430901E-01
-6.000000 -2.000000 7.939198E+00
-6.000000 -4.000000 2.044539E+01
-6.000000 -6.000000 2.600267E+01
-6.000000 -8.000000 2.447880E+01
-6.000000 -10.000000 2.776225E+01
-6.000000 -12.000000 3.635257E+01
-6.000000 -14.000000 3.872240E+01
-6.000000 -16.000000 3.352758E+01
-6.000000 -18.000000 2.323731E+01
-6.000000 -20.000000 1.597465E+01
-6.000000 -22.000000 1.464231E+01
-6.000000 -24.000000 1.833362E+01
-6.000000 -26.000000 2.029227E+01
-6.000000 -28.000000 1.683751E+01
-6.000000 -30.000000 9.084070E+00
-6.000000 -32.000000 3.629942E+00
-6.000000 -34.000000 3.571510E-02
-6.000000 -36.000000 1.015285E+01
-6.000000 -38.000000 2.589468E+01
-6.000000 -40.000000 4.208349E+01
-4.000000 40.000000 1.422597E+01
-4.000000 38.000000 3.107605E+01
-4.000000 36.000000 4.398427E+01
-4.000000 34.000000 4.247874E+01
-4.000000 32.000000 2.370840E+01
-4.000000 30.000000 1.014742E+01
-4.000000 28.000000 -3.144207E+00
-4.000000 26.000000 -1.218862E+01
-4.000000 24.000000 -2.279034E+01
-4.000000 22.000000 -3.615275E+01
-4.000000 20.000000 -4.835299E+01
-4.000000 18.000000 -4.044693E+01
-4.000000 16.000000 -3.712711E+00
-4.000000 14.000000 5.105022E+01
-4.000000 12.000000 1.156739E+02
-4.000000 10.000000 1.834138E+02
-4.000000 8.000000 2.156006E+02
-4.000000 6.000000 1.806866E+02
-4.000000 4.000000 8.805166E+01
-4.000000 2.000000 1.758084E+01
-4.000000 0.000000 -4.304226E+00
-4.000000 -2.000000 1.034710E+01
-4.000000 -4.000000 2.909695E+01
-4.000000 -6.000000 3.566729E+01
-4.000000 -8.000000 3.479639E+01
-4.000000 -10.000000 4.046610E+01
-4.000000 -12.000000 5.188146E+01
-4.000000 -14.000000 5.747627E+01
-4.000000 -16.000000 5.442340E+01
-4.000000 -18.000000 4.813292E+01
-4.000000 -20.000000 4.397473E+01
-4.000000 -22.000000 4.022849E+01
-4.000000 -24.000000 3.648313E+01
-4.000000 -26.000000 3.144682E+01
-4.000000 -28.000000 2.420564E+01
-4.000000 -30.000000 1.564022E+01
-4.000000 -32.000000 8.129572E+00
-4.000000 -34.000000 1.888323E+00
-4.000000 -36.000000 7.516998E+00
-4.000000 -38.000000 2.032880E+01
-4.000000 -40.000000 3.540794E+01
-2.000000 40.000000 1.410996E+01
-2.000000 38.000000 2.994396E+01
-2.000000 36.000000 3.840139E+01
-2.000000 34.000000 2.968328E+01
-2.000000 32.000000 5.288467E+00
-2.000000 30.000000 -1.134152E+01
-2.000000 28.000000 -2.382847E+01
-2.000000 26.000000 -3.099012E+01
-2.000000 24.000000 -4.130960E+01
-2.000000 22.000000 -5.291194E+01
-2.000000 20.000000 -6.623392E+01
-2.000000 18.000000 -6.481772E+01
-2.000000 16.000000 -3.590440E+01
-2.000000 14.000000 1.328990E+01
-2.000000 12.000000 8.485973E+01
-2.000000 10.000000 1.713009E+02
-2.000000 8.000000 2.219056E+02
-2.000000 6.000000 1.899318E+02
-2.000000 4.000000 8.520111E+01
-2.000000 2.000000 4.470345E+00
-2.000000 0.000000 -1.942007E+01
-2.000000 -2.000000 1.172962E+00
-2.000000 -4.000000 2.653577E+01
-2.000000 -6.000000 3.475846E+01
-2.000000 -8.000000 3.624794E+01
-2.000000 -10.000000 4.602929E+01
-2.000000 -12.000000 6.354552E+01
-2.000000 -14.000000 7.292752E+01
-2.000000 -16.000000 6.953957E+01
-2.000000 -18.000000 6.373978E+01
-2.000000 -20.000000 6.043122E+01
-2.000000 -22.000000 5.763155E+01
-2.000000 -24.000000 5.401811E+01
-2.000000 -26.000000 4.726020E+01
-2.000000 -28.000000 3.708184E+01
-2.000000 -30.000000 2.725837E+01
-2.000000 -32.000000 1.510493E+01
-2.000000 -34.000000 2.991529E+00
-2.000000 -36.000000 2.458559E+00
-2.000000 -38.000000 1.237910E+01
-2.000000 -40.000000 2.745969E+01
0.000000 40.000000 1.004614E+01
0.000000 38.000000 2.576395E+01
0.000000 36.000000 2.892416E+01
0.000000 34.000000 1.476229E+01
0.000000 32.000000 -1.051129E+01
0.000000 30.000000 -2.498552E+01
0.000000 28.000000 -3.205759E+01
0.000000 26.000000 -3.435720E+01
0.000000 24.000000 -4.171269E+01
0.000000 22.000000 -5.156565E+01
0.000000 20.000000 -6.603333E+01
0.000000 18.000000 -7.034746E+01
0.000000 16.000000 -4.744524E+01
0.000000 14.000000 2.615204E-01
0.000000 12.000000 7.997952E+01
0.000000 10.000000 1.787250E+02
0.000000 8.000000 2.354443E+02
0.000000 6.000000 2.026570E+02
0.000000 4.000000 9.018176E+01
0.000000 2.000000 7.990570E-01
0.000000 0.000000 -2.826095E+01
0.000000 -2.000000 -6.305531E+00
0.000000 -4.000000 2.083463E+01
0.000000 -6.000000 2.853450E+01
0.000000 -8.000000 3.037871E+01
0.000000 -10.000000 3.952150E+01
0.000000 -12.000000 5.730025E+01
0.000000 -14.000000 6.740805E+01
0.000000 -16.000000 6.264862E+01
0.000000 -18.000000 5.496158E+01
0.000000 -20.000000 5.126681E+01
0.000000 -22.000000 5.323487E+01
0.000000 -24.000000 5.759875E+01
0.000000 -26.000000 5.427188E+01
0.000000 -28.000000 4.400022E+01
0.000000 -30.000000 3.364144E+01
0.000000 -32.000000 1.812554E+01
0.000000 -34.000000 2.091000E+00
0.000000 -36.000000 -1.395905E+00
0.000000 -38.000000 7.601225E+00
0.000000 -40.000000 2.374704E+01
2.000000 40.000000 2.162120E+00
2.000000 38.000000 1.883980E+01
2.000000 36.000000 1.753655E+01
2.000000 34.000000 7.656498E-01
2.000000 32.000000 -2.163139E+01
2.000000 30.000000 -3.031205E+01
2.000000 28.000000 -2.980678E+01
2.000000 26.000000 -2.545339E+01
2.000000 24.000000 -2.575878E+01
2.000000 22.000000 -3.406963E+01
2.000000 20.000000 -4.971937E+01
2.000000 18.000000 -5.744661E+01
2.000000 16.000000 -3.641747E+01
2.000000 14.000000 1.320424E+01
2.000000 12.000000 9.716306E+01
2.000000 10.000000 2.002276E+02
2.000000 8.000000 2.559843E+02
2.000000 6.000000 2.237807E+02
2.000000 4.000000 1.118926E+02
2.000000 2.000000 1.817892E+01
2.000000 0.000000 -1.883951E+01
2.000000 -2.000000 -6.137455E+00
2.000000 -4.000000 1.453983E+01
2.000000 -6.000000 2.118225E+01
2.000000 -8.000000 1.939282E+01
2.000000 -10.000000 1.999842E+01
2.000000 -12.000000 2.918283E+01
2.000000 -14.000000 3.530553E+01
2.000000 -16.000000 3.001193E+01
2.000000 -18.000000 2.058116E+01
2.000000 -20.000000 1.532833E+01
2.000000 -22.000000 2.258558E+01
2.000000 -24.000000 4.010739E+01
2.000000 -26.000000 4.737993E+01
2.000000 -28.000000 4.171879E+01
2.000000 -30.000000 3.248675E+01
2.000000 -32.000000 1.644444E+01
2.000000 -34.000000 -1.104870E-01
2.000000 -36.000000 -1.601431E+00
2.000000 -38.000000 8.342592E+00
2.000000 -40.000000 2.517378E+01
4.000000 40.000000 -9.326769E+00
4.000000 38.000000 8.155424E+00
4.000000 36.000000 6.793362E+00
4.000000 34.000000 -7.302698E+00
4.000000 32.000000 -2.424298E+01
4.000000 30.000000 -2.479235E+01
4.000000 28.000000 -1.590654E+01
4.000000 26.000000 -5.676163E+00
4.000000 24.000000 7.522583E-02
4.000000 22.000000 -7.910862E+00
4.000000 20.000000 -2.517447E+01
4.000000 18.000000 -3.580917E+01
4.000000 16.000000 -1.437695E+01
4.000000 14.000000 3.767446E+01
4.000000 12.000000 1.213647E+02
4.000000 10.000000 2.209316E+02
4.000000 8.000000 2.694376E+02
4.000000 6.000000 2.385393E+02
4.000000 4.000000 1.329839E+02
4.000000 2.000000 3.940548E+01
4.000000 0.000000 -6.322678E+00
4.000000 -2.000000 -6.805904E+00
4.000000 -4.000000 8.433073E+00
4.000000 -6.000000 1.464007E+01
4.000000 -8.000000 6.714790E+00
4.000000 -10.000000 -3.428072E+00
4.000000 -12.000000 -3.957743E+00
4.000000 -14.000000 -2.734083E+00
4.000000 -16.000000 -1.033644E+01
4.000000 -18.000000 -2.292513E+01
4.000000 -20.000000 -2.991216E+01
4.000000 -22.000000 -1.982236E+01
4.000000 -24.000000 7.745049E+00
4.000000 -26.000000 2.929784E+01
4.000000 -28.000000 3.466263E+01
4.000000 -30.000000 2.892931E+01
4.000000 -32.000000 1.397867E+01
4.000000 -34.000000 -2.680975E+00
4.000000 -36.000000 -1.180140E+00
4.000000 -38.000000 1.051590E+01
4.000000 -40.000000 2.763838E+01
6.000000 40.000000 -2.198887E+01
6.000000 38.000000 -4.066394E+00
6.000000 36.000000 -4.459705E-01
6.000000 34.000000 -6.503206E+00
6.000000 32.000000 -1.601853E+01
6.000000 30.000000 -1.035835E+01
6.000000 28.000000 2.907803E+00
6.000000 26.000000 1.595587E+01
6.000000 24.000000 2.532399E+01
6.000000 22.000000 1.833117E+01
6.000000 20.000000 1.386898E+00
6.000000 18.000000 -1.104095E+01
6.000000 16.000000 6.745316E+00
6.000000 14.000000 5.523142E+01
6.000000 12.000000 1.325478E+02
6.000000 10.000000 2.222365E+02
6.000000 8.000000 2.643417E+02
6.000000 6.000000 2.383437E+02
6.000000 4.000000 1.423659E+02
6.000000 2.000000 4.763134E+01
6.000000 0.000000 -8.180786E+00
6.000000 -2.000000 -1.773055E+01
6.000000 -4.000000 -2.636192E+00
6.000000 -6.000000 4.712627E+00
6.000000 -8.000000 -7.528976E+00
6.000000 -10.000000 -2.371192E+01
6.000000 -12.000000 -2.968307E+01
6.000000 -14.000000 -3.076962E+01
6.000000 -16.000000 -3.779278E+01
6.000000 -18.000000 -5.132342E+01
6.000000 -20.000000 -5.930898E+01
6.000000 -22.000000 -4.924261E+01
6.000000 -24.000000 -1.980177E+01
6.000000 -26.000000 1.076555E+01
6.000000 -28.000000 2.855834E+01
6.000000 -30.000000 2.695657E+01
6.000000 -32.000000 1.222013E+01
6.000000 -34.000000 -6.305050E+00
6.000000 -36.000000 -5.175667E+00
6.000000 -38.000000 9.124878E+00
6.000000 -40.000000 2.880921E+01
8.000000 40.000000 -3.144117E+01
8.000000 38.000000 -1.087692E+01
8.000000 36.000000 -1.570269E+00
8.000000 34.000000 -1.127472E-01
8.000000 32.000000 -3.714952E+00
8.000000 30.000000 3.743622E+00
8.000000 28.000000 1.567965E+01
8.000000 26.000000 2.829722E+01
8.000000 24.000000 4.085578E+01
8.000000 22.000000 3.787276E+01
8.000000 20.000000 2.535459E+01
8.000000 18.000000 1.360114E+01
8.000000 16.000000 2.321871E+01
8.000000 14.000000 5.900775E+01
8.000000 12.000000 1.225136E+02
8.000000 10.000000 1.998811E+02
8.000000 8.000000 2.433143E+02
8.000000 6.000000 2.270137E+02
8.000000 4.000000 1.417165E+02
8.000000 2.000000 4.271659E+01
8.000000 0.000000 -2.556881E+01
8.000000 -2.000000 -4.203774E+01
8.000000 -4.000000 -2.743806E+01
8.000000 -6.000000 -1.785788E+01
8.000000 -8.000000 -2.794721E+01
8.000000 -10.000000 -4.324882E+01
8.000000 -12.000000 -4.880976E+01
8.000000 -14.000000 -4.380752E+01
8.000000 -16.000000 -4.064163E+01
8.000000 -18.000000 -4.918494E+01
8.000000 -20.000000 -5.860887E+01
8.000000 -22.000000 -5.241195E+01
8.000000 -24.000000 -2.776717E+01
8.000000 -26.000000 3.574000E+00
8.000000 -28.000000 2.664144E+01
8.000000 -30.000000 2.744776E+01
8.000000 -32.000000 1.116713E+01
8.000000 -34.000000 -1.079482E+01
8.000000 -36.000000 -1.442083E+01
8.000000 -38.000000 2.714237E+00
8.000000 -40.000000 2.853624E+01
10.000000 40.000000 -3.589080E+01
10.000000 38.000000 -1.088373E+01
10.000000 36.000000 2.408485E+00
10.000000 34.000000 6.793066E+00
10.000000 32.000000 5.040350E+00
10.000000 30.000000 1.154860E+01
10.000000 28.000000 1.953079E+01
10.000000 26.000000 2.993762E+01
10.000000 24.000000 4.429526E+01
10.000000 22.000000 4.501853E+01
10.000000 20.000000 3.605660E+01
10.000000 18.000000 2.528095E+01
10.000000 16.000000 2.921231E+01
10.000000 14.000000 5.153031E+01
10.000000 12.000000 1.002203E+02
10.000000 10.000000 1.690560E+02
10.000000 8.000000 2.188228E+02
10.000000 6.000000 2.131072E+02
10.000000 4.000000 1.360581E+02
10.000000 2.000000 3.258632E+01
10.000000 0.000000 -4.809847E+01
10.000000 -2.000000 -7.483559E+01
10.000000 -4.000000 -6.472997E+01
10.000000 -6.000000 -5.250802E+01
10.000000 -8.000000 -5.751898E+01
10.000000 -10.000000 -6.697020E+01
10.000000 -12.000000 -6.018836E+01
10.000000 -14.000000 -3.653581E+01
10.000000 -16.000000 -1.615982E+01
10.000000 -18.000000 -1.775946E+01
10.000000 -20.000000 -3.102107E+01
10.000000 -22.000000 -3.417819E+01
10.000000 -24.000000 -1.797210E+01
10.000000 -26.000000 7.892179E+00
10.000000 -28.000000 2.553639E+01
10.000000 -30.000000 2.703350E+01
10.000000 -32.000000 9.522862E+00
10.000000 -34.000000 -1.514842E+01
10.000000 -36.000000 -2.228523E+01
10.000000 -38.000000 -3.854658E+00
10.000000 -40.000000 2.680766E+01
12.000000 40.000000 -3.625924E+01
12.000000 38.000000 -8.451243E+00
12.000000 36.000000 7.347131E+00
12.000000 34.000000 1.169050E+01
12.000000 32.000000 7.761012E+00
12.000000 30.000000 1.227100E+01
12.000000 28.000000 1.782463E+01
12.000000 26.000000 2.639455E+01
12.000000 24.000000 3.853772E+01
12.000000 22.000000 3.710821E+01
12.000000 20.000000 2.771658E+01
12.000000 18.000000 1.668674E+01
12.000000 16.000000 1.918327E+01
12.000000 14.000000 3.559018E+01
12.000000 12.000000 7.645778E+01
12.000000 10.000000 1.415996E+02
12.000000 8.000000 1.949337E+02
12.000000 6.000000 1.990619E+02
12.000000 4.000000 1.308719E+02
12.000000 2.000000 2.575212E+01
12.000000 0.000000 -6.321718E+01
12.000000 -2.000000 -1.008967E+02
12.000000 -4.000000 -9.736037E+01
12.000000 -6.000000 -8.609359E+01
12.000000 -8.000000 -9.048158E+01
12.000000 -10.000000 -9.423248E+01
12.000000 -12.000000 -6.521949E+01
12.000000 -14.000000 -1.224397E+01
12.000000 -16.000000 3.066559E+01
12.000000 -18.000000 3.382933E+01
12.000000 -20.000000 1.126404E+01
12.000000 -22.000000 -6.462587E+00
12.000000 -24.000000 -2.656854E+00
12.000000 -26.000000 1.389106E+01
12.000000 -28.000000 2.380524E+01
12.000000 -30.000000 2.351824E+01
12.000000 -32.000000 6.287173E+00
12.000000 -34.000000 -1.808154E+01
12.000000 -36.000000 -2.453207E+01
12.000000 -38.000000 -6.542246E+00
12.000000 -40.000000 2.497559E+01
14.000000 40.000000 -3.406505E+01
14.000000 38.000000 -5.564533E+00
14.000000 36.000000 1.207060E+01
14.000000 34.000000 1.542558E+01
14.000000 32.000000 6.759077E+00
14.000000 30.000000 7.951840E+00
14.000000 28.000000 1.194280E+01
14.000000 26.000000 1.923497E+01
14.000000 24.000000 2.497682E+01
14.000000 22.000000 1.588853E+01
14.000000 20.000000 2.857672E+00
14.000000 18.000000 -7.222672E+00
14.000000 16.000000 -1.821602E+00
14.000000 14.000000 1.563605E+01
14.000000 12.000000 5.482335E+01
14.000000 10.000000 1.176600E+02
14.000000 8.000000 1.704011E+02
14.000000 6.000000 1.812526E+02
14.000000 4.000000 1.240247E+02
14.000000 2.000000 2.559076E+01
14.000000 0.000000 -6.268855E+01
14.000000 -2.000000 -1.069157E+02
14.000000 -4.000000 -1.129394E+02
14.000000 -6.000000 -1.120410E+02
14.000000 -8.000000 -1.214100E+02
14.000000 -10.000000 -1.205201E+02
14.000000 -12.000000 -6.400613E+01
14.000000 -14.000000 2.486891E+01
14.000000 -16.000000 9.251130E+01
14.000000 -18.000000 9.646055E+01
14.000000 -20.000000 5.876027E+01
14.000000 -22.000000 2.233253E+01
14.000000 -24.000000 1.002812E+01
14.000000 -26.000000 1.581065E+01
14.000000 -28.000000 1.924742E+01
14.000000 -30.000000 1.601740E+01
14.000000 -32.000000 9.573689E-01
14.000000 -34.000000 -2.032814E+01
14.000000 -36.000000 -2.434138E+01
14.000000 -38.000000 -6.041544E+00
14.000000 -40.000000 2.572366E+01
16.000000 40.000000 -2.962980E+01
16.000000 38.000000 -1.706873E+00
16.000000 36.000000 1.662027E+01
16.000000 34.000000 1.892587E+01
16.000000 32.000000 6.827662E+00
16.000000 30.000000 3.297485E+00
16.000000 28.000000 2.984583E+00
16.000000 26.000000 6.206614E+00
16.000000 24.000000 3.648447E+00
16.000000 22.000000 -1.235248E+01
16.000000 20.000000 -2.930314E+01
16.000000 18.000000 -3.604549E+01
16.000000 16.000000 -2.437923E+01
16.000000 14.000000 -2.735592E+00
16.000000 12.000000 3.594714E+01
16.000000 10.000000 9.452873E+01
16.000000 8.000000 1.455615E+02
16.000000 6.000000 1.594914E+02
16.000000 4.000000 1.143235E+02
16.000000 2.000000 3.248936E+01
16.000000 0.000000 -4.615188E+01
16.000000 -2.000000 -9.335186E+01
16.000000 -4.000000 -1.143748E+02
16.000000 -6.000000 -1.294307E+02
16.000000 -8.000000 -1.438385E+02
16.000000 -10.000000 -1.368259E+02
16.000000 -12.000000 -5.363163E+01
16.000000 -14.000000 6.792663E+01
16.000000 -16.000000 1.554568E+02
16.000000 -18.000000 1.570014E+02
16.000000 -20.000000 1.024342E+02
16.000000 -22.000000 4.710224E+01
16.000000 -24.000000 1.784516E+01
16.000000 -26.000000 1.166233E+01
16.000000 -28.000000 8.611728E+00
16.000000 -30.000000 3.637451E+00
16.000000 -32.000000 -7.324388E+00
16.000000 -34.000000 -2.302895E+01
16.000000 -36.000000 -2.190296E+01
16.000000 -38.000000 -1.661165E+00
16.000000 -40.000000 2.984249E+01
18.000000 40.000000 -2.457236E+01
18.000000 38.000000 2.337259E+00
18.000000 36.000000 2.036735E+01
18.000000 34.000000 2.216321E+01
18.000000 32.000000 8.903357E+00
18.000000 30.000000 1.458426E+00
18.000000 28.000000 -4.285407E+00
18.000000 26.000000 -6.983826E+00
18.000000 24.000000 -1.787903E+01
18.000000 22.000000 -3.918008E+01
18.000000 20.000000 -5.780759E+01
18.000000 18.000000 -5.784304E+01
18.000000 16.000000 -3.914380E+01
18.000000 14.000000 -1.345859E+01
18.000000 12.000000 2.306681E+01
18.000000 10.000000 7.434214E+01
18.000000 8.000000 1.232455E+02
18.000000 6.000000 1.402313E+02
18.000000 4.000000 1.082691E+02
18.000000 2.000000 4.416322E+01
18.000000 0.000000 -2.357721E+01
18.000000 -2.000000 -7.391843E+01
18.000000 -4.000000 -1.095478E+02
18.000000 -6.000000 -1.369067E+02
18.000000 -8.000000 -1.524316E+02
18.000000 -10.000000 -1.363580E+02
18.000000 -12.000000 -3.590217E+01
18.000000 -14.000000 1.028438E+02
18.000000 -16.000000 1.977636E+02
18.000000 -18.000000 1.944746E+02
18.000000 -20.000000 1.276408E+02
18.000000 -22.000000 5.951755E+01
18.000000 -24.000000 1.765320E+01
18.000000 -26.000000 2.676618E+00
18.000000 -28.000000 -3.147713E+00
18.000000 -30.000000 -7.544745E+00
18.000000 -32.000000 -1.471283E+01
18.000000 -34.000000 -2.427211E+01
18.000000 -36.000000 -1.604219E+01
18.000000 -38.000000 5.646446E+00
18.000000 -40.000000 3.472464E+01
20.000000 40.000000 -2.202003E+01
20.000000 38.000000 4.595185E+00
20.000000 36.000000 2.281501E+01
20.000000 34.000000 2.621731E+01
20.000000 32.000000 1.290955E+01
20.000000 30.000000 2.910700E+00
20.000000 28.000000 -5.823284E+00
20.000000 26.000000 -1.111696E+01
20.000000 24.000000 -2.561959E+01
20.000000 22.000000 -5.007728E+01
20.000000 20.000000 -6.876756E+01
20.000000 18.000000 -6.368533E+01
20.000000 16.000000 -3.969701E+01
20.000000 14.000000 -1.129578E+01
20.000000 12.000000 2.135723E+01
20.000000 10.000000 6.278224E+01
20.000000 8.000000 1.060013E+02
20.000000 6.000000 1.247226E+02
20.000000 4.000000 1.039135E+02
20.000000 2.000000 5.267641E+01
20.000000 0.000000 -8.924848E+00
20.000000 -2.000000 -6.163386E+01
20.000000 -4.000000 -1.017444E+02
20.000000 -6.000000 -1.323850E+02
20.000000 -8.000000 -1.459499E+02
20.000000 -10.000000 -1.206401E+02
20.000000 -12.000000 -1.618871E+01
20.000000 -14.000000 1.191521E+02
20.000000 -16.000000 2.042801E+02
20.000000 -18.000000 1.926368E+02
20.000000 -20.000000 1.201674E+02
20.000000 -22.000000 4.840849E+01
20.000000 -24.000000 5.992454E+00
20.000000 -26.000000 -7.035866E+00
20.000000 -28.000000 -9.451611E+00
20.000000 -30.000000 -1.213155E+01
20.000000 -32.000000 -1.712471E+01
20.000000 -34.000000 -2.275670E+01
20.000000 -36.000000 -9.802437E+00
20.000000 -38.000000 1.210680E+01
20.000000 -40.000000 3.922920E+01
22.000000 40.000000 -2.464694E+01
22.000000 38.000000 2.768799E+00
22.000000 36.000000 2.252145E+01
22.000000 34.000000 3.148827E+01
22.000000 32.000000 2.146502E+01
22.000000 30.000000 1.008759E+01
22.000000 28.000000 1.556621E-01
22.000000 26.000000 -5.025213E+00
22.000000 24.000000 -1.743033E+01
22.000000 22.000000 -3.778717E+01
22.000000 20.000000 -5.257908E+01
22.000000 18.000000 -4.727874E+01
22.000000 16.000000 -2.377441E+01
22.000000 14.000000 3.398389E+00
22.000000 12.000000 3.093241E+01
22.000000 10.000000 6.349173E+01
22.000000 8.000000 9.859384E+01
22.000000 6.000000 1.169115E+02
22.000000 4.000000 1.027294E+02
22.000000 2.000000 5.807641E+01
22.000000 0.000000 -1.107079E+00
22.000000 -2.000000 -5.462125E+01
22.000000 -4.000000 -9.672966E+01
22.000000 -6.000000 -1.258816E+02
22.000000 -8.000000 -1.369581E+02
22.000000 -10.000000 -1.112346E+02
22.000000 -12.000000 -1.390296E+01
22.000000 -14.000000 1.081918E+02
22.000000 -16.000000 1.756524E+02
22.000000 -18.000000 1.516376E+02
22.000000 -20.000000 7.640965E+01
22.000000 -22.000000 1.162338E+01
22.000000 -24.000000 -1.477611E+01
22.000000 -26.000000 -1.296995E+01
22.000000 -28.000000 -7.579222E+00
22.000000 -30.000000 -7.960150E+00
22.000000 -32.000000 -1.330732E+01
22.000000 -34.000000 -1.935660E+01
22.000000 -36.000000 -5.688596E+00
22.000000 -38.000000 1.642512E+01
22.000000 -40.000000 4.322363E+01
24.000000 40.000000 -3.358506E+01
24.000000 38.000000 -4.231184E+00
24.000000 36.000000 1.962362E+01
24.000000 34.000000 3.550851E+01
24.000000 32.000000 3.161820E+01
24.000000 30.000000 2.260419E+01
24.000000 28.000000 1.294900E+01
24.000000 26.000000 7.881281E+00
24.000000 24.000000 7.316823E-01
24.000000 22.000000 -1.082065E+01
24.000000 20.000000 -1.761776E+01
24.000000 18.000000 -1.150634E+01
24.000000 16.000000 6.890990E+00
24.000000 14.000000 2.685625E+01
24.000000 12.000000 4.587647E+01
24.000000 10.000000 7.144366E+01
24.000000 8.000000 1.021039E+02
24.000000 6.000000 1.229516E+02
24.000000 4.000000 1.147538E+02
24.000000 2.000000 7.228492E+01
24.000000 0.000000 1.307959E+01
24.000000 -2.000000 -4.441869E+01
24.000000 -4.000000 -9.725463E+01
24.000000 -6.000000 -1.344246E+02
24.000000 -8.000000 -1.499620E+02
24.000000 -10.000000 -1.314188E+02
24.000000 -12.000000 -4.466618E+01
24.000000 -14.000000 6.420333E+01
24.000000 -16.000000 1.182061E+02
24.000000 -18.000000 8.531594E+01
24.000000 -20.000000 1.239956E+01
24.000000 -22.000000 -3.724792E+01
24.000000 -24.000000 -3.825262E+01
24.000000 -26.000000 -1.367309E+01
24.000000 -28.000000 2.210684E+00
24.000000 -30.000000 5.228682E+00
24.000000 -32.000000 -3.328383E+00
24.000000 -34.000000 -1.433001E+01
24.000000 -36.000000 -3.128730E+00
24.000000 -38.000000 1.884481E+01
24.000000 -40.000000 4.471022E+01
26.000000 40.000000 -4.508053E+01
26.000000 38.000000 -1.362178E+01
26.000000 36.000000 1.412361E+01
26.000000 34.000000 3.433445E+01
26.000000 32.000000 3.546998E+01
26.000000 30.000000 3.175753E+01
26.000000 28.000000 2.536444E+01
26.000000 26.000000 2.138711E+01
26.000000 24.000000 2.071408E+01
26.000000 22.000000 1.763658E+01
26.000000 20.000000 1.968522E+01
26.000000 18.000000 2.772404E+01
26.000000 16.000000 3.939882E+01
26.000000 14.000000 4.982536E+01
26.000000 12.000000 5.908752E+01
26.000000 10.000000 7.738706E+01
26.000000 8.000000 1.071529E+02
26.000000 6.000000 1.334976E+02
26.000000 4.000000 1.323933E+02
26.000000 2.000000 9.357330E+01
26.000000 0.000000 3.439984E+01
26.000000 -2.000000 -3.135056E+01
26.000000 -4.000000 -9.717381E+01
26.000000 -6.000000 -1.511776E+02
26.000000 -8.000000 -1.807705E+02
26.000000 -10.000000 -1.740414E+02
26.000000 -12.000000 -9.768269E+01
26.000000 -14.000000 -1.026608E+00
26.000000 -16.000000 4.562145E+01
26.000000 -18.000000 1.280558E+01
26.000000 -20.000000 -5.066549E+01
26.000000 -22.000000 -8.203019E+01
26.000000 -24.000000 -5.783881E+01
26.000000 -26.000000 -1.025263E+01
26.000000 -28.000000 1.787176E+01
26.000000 -30.000000 2.556158E+01
26.000000 -32.000000 1.108110E+01
26.000000 -34.000000 -7.768192E+00
26.000000 -36.000000 -2.423310E+00
26.000000 -38.000000 1.756185E+01
26.000000 -40.000000 4.125255E+01
28.000000 40.000000 -5.319618E+01
28.000000 38.000000 -2.229066E+01
28.000000 36.000000 3.587041E+00
28.000000 34.000000 2.350800E+01
28.000000 32.000000 2.702560E+01
28.000000 30.000000 2.932311E+01
28.000000 28.000000 2.894090E+01
28.000000 26.000000 2.773530E+01
28.000000 24.000000 3.213553E+01
28.000000 22.000000 3.437999E+01
28.000000 20.000000 4.221846E+01
28.000000 18.000000 5.066279E+01
28.000000 16.000000 5.696493E+01
28.000000 14.000000 6.164542E+01
28.000000 12.000000 6.534103E+01
28.000000 10.000000 7.620519E+01
28.000000 8.000000 1.022562E+02
28.000000 6.000000 1.309135E+02
28.000000 4.000000 1.359992E+02
28.000000 2.000000 1.046051E+02
28.000000 0.000000 4.892282E+01
28.000000 -2.000000 -2.034076E+01
28.000000 -4.000000 -9.097767E+01
28.000000 -6.000000 -1.564277E+02
28.000000 -8.000000 -2.018752E+02
28.000000 -10.000000 -2.109590E+02
28.000000 -12.000000 -1.465938E+02
28.000000 -14.000000 -6.218077E+01
28.000000 -16.000000 -1.911826E+01
28.000000 -18.000000 -4.593177E+01
28.000000 -20.000000 -9.745506E+01
28.000000 -22.000000 -1.124430E+02
28.000000 -24.000000 -6.864164E+01
28.000000 -26.000000 -3.854424E+00
28.000000 -28.000000 3.581316E+01
28.000000 -30.000000 4.748843E+01
28.000000 -32.000000 2.573958E+01
28.000000 -34.000000 -1.518662E+00
28.000000 -36.000000 -6.187740E+00
28.000000 -38.000000 1.013731E+01
28.000000 -40.000000 3.208213E+01
30.000000 40.000000 -5.839926E+01
30.000000 38.000000 -3.218431E+01
30.000000 36.000000 -1.189448E+01
30.000000 34.000000 4.216809E+00
30.000000 32.000000 8.868446E+00
30.000000 30.000000 1.552068E+01
30.000000 28.000000 1.987273E+01
30.000000 26.000000 2.079057E+01
30.000000 24.000000 2.580035E+01
30.000000 22.000000 2.939437E+01
30.000000 20.000000 3.813303E+01
30.000000 18.000000 4.654924E+01
30.000000 16.000000 5.299776E+01
30.000000 14.000000 5.895437E+01
30.000000 12.000000 6.258852E+01
30.000000 10.000000 6.870062E+01
30.000000 8.000000 8.681159E+01
30.000000 6.000000 1.087266E+02
30.000000 4.000000 1.156472E+02
30.000000 2.000000 9.375159E+01
30.000000 0.000000 4.739622E+01
30.000000 -2.000000 -1.387046E+01
30.000000 -4.000000 -7.663585E+01
30.000000 -6.000000 -1.413417E+02
30.000000 -8.000000 -1.983651E+02
30.000000 -10.000000 -2.235330E+02
30.000000 -12.000000 -1.744016E+02
30.000000 -14.000000 -1.011412E+02
30.000000 -16.000000 -5.798324E+01
30.000000 -18.000000 -7.683225E+01
30.000000 -20.000000 -1.170017E+02
30.000000 -22.000000 -1.205595E+02
30.000000 -24.000000 -6.801113E+01
30.000000 -26.000000 4.625071E+00
30.000000 -28.000000 4.958910E+01
30.000000 -30.000000 5.996734E+01
30.000000 -32.000000 3.187205E+01
30.000000 -34.000000 -1.283418E+00
30.000000 -36.000000 -1.488576E+01
30.000000 -38.000000 -1.401356E+00
30.000000 -40.000000 1.911632E+01
32.000000 40.000000 -6.429778E+01
32.000000 38.000000 -4.489421E+01
32.000000 36.000000 -3.052662E+01
32.000000 34.000000 -2.071539E+01
32.000000 32.000000 -1.590834E+01
32.000000 30.000000 -7.639038E+00
32.000000 28.000000 -1.945913E+00
32.000000 26.000000 -2.950907E-02
32.000000 24.000000 2.238949E+00
32.000000 22.000000 4.343418E+00
32.000000 20.000000 1.050513E+01
32.000000 18.000000 2.035516E+01
32.000000 16.000000 3.383620E+01
32.000000 14.000000 4.717665E+01
32.000000 12.000000 5.524994E+01
32.000000 10.000000 5.947817E+01
32.000000 8.000000 6.924499E+01
32.000000 6.000000 7.884642E+01
32.000000 4.000000 8.092628E+01
32.000000 2.000000 6.514198E+01
32.000000 0.000000 3.126322E+01
32.000000 -2.000000 -1.200536E+01
32.000000 -4.000000 -5.834560E+01
32.000000 -6.000000 -1.136981E+02
32.000000 -8.000000 -1.716184E+02
32.000000 -10.000000 -2.072985E+02
32.000000 -12.000000 -1.779473E+02
32.000000 -14.000000 -1.179362E+02
32.000000 -16.000000 -7.506986E+01
32.000000 -18.000000 -8.225460E+01
32.000000 -20.000000 -1.076301E+02
32.000000 -22.000000 -1.050656E+02
32.000000 -24.000000 -5.659242E+01
32.000000 -26.000000 8.141441E+00
32.000000 -28.000000 4.535862E+01
32.000000 -30.000000 5.066237E+01
32.000000 -32.000000 2.257275E+01
32.000000 -34.000000 -8.785370E+00
32.000000 -36.000000 -2.321902E+01
32.000000 -38.000000 -1.166510E+01
32.000000 -40.000000 5.881800E+00
34.000000 40.000000 -7.031772E+01
34.000000 38.000000 -5.915482E+01
34.000000 36.000000 -5.204669E+01
34.000000 34.000000 -5.090689E+01
34.000000 32.000000 -4.856279E+01
34.000000 30.000000 -3.956193E+01
34.000000 28.000000 -3.200014E+01
34.000000 26.000000 -2.779246E+01
34.000000 24.000000 -2.900969E+01
34.000000 22.000000 -3.051878E+01
34.000000 20.000000 -2.958487E+01
34.000000 18.000000 -1.721852E+01
34.000000 16.000000 8.657252E+00
34.000000 14.000000 3.578634E+01
34.000000 12.000000 5.404436E+01
34.000000 10.000000 6.016400E+01
34.000000 8.000000 6.150051E+01
34.000000 6.000000 5.871749E+01
34.000000 4.000000 5.201754E+01
34.000000 2.000000 3.735086E+01
34.000000 0.000000 1.302871E+01
34.000000 -2.000000 -1.443445E+01
34.000000 -4.000000 -4.221712E+01
34.000000 -6.000000 -8.320061E+01
34.000000 -8.000000 -1.376620E+02
34.000000 -10.000000 -1.787506E+02
34.000000 -12.000000 -1.666956E+02
34.000000 -14.000000 -1.223025E+02
34.000000 -16.000000 -8.421771E+01
34.000000 -18.000000 -7.759468E+01
34.000000 -20.000000 -8.679282E+01
34.000000 -22.000000 -8.095051E+01
34.000000 -24.000000 -4.243500E+01
34.000000 -26.000000 1.961214E+00
34.000000 -28.000000 2.206100E+01
34.000000 -30.000000 2.168200E+01
34.000000 -32.000000 8.675776E-01
34.000000 -34.000000 -2.088797E+01
34.000000 -36.000000 -2.869103E+01
34.000000 -38.000000 -1.816274E+01
34.000000 -40.000000 -3.597621E+00
36.000000 40.000000 -7.656201E+01
36.000000 38.000000 -7.568316E+01
36.000000 36.000000 -7.717686E+01
36.000000 34.000000 -8.249515E+01
36.000000 32.000000 -8.224806E+01
36.000000 30.000000 -7.247845E+01
36.000000 28.000000 -6.025643E+01
36.000000 26.000000 -5.125108E+01
36.000000 24.000000 -5.357362E+01
36.000000 22.000000 -5.986508E+01
36.000000 20.000000 -6.609931E+01
36.000000 18.000000 -5.250716E+01
36.000000 16.000000 -1.392722E+01
36.000000 14.000000 2.921689E+01
36.000000 12.000000 5.928872E+01
36.000000 10.000000 7.013690E+01
36.000000 8.000000 6.240773E+01
36.000000 6.000000 4.925554E+01
36.000000 4.000000 3.265345E+01
36.000000 2.000000 1.528741E+01
36.000000 0.000000 -5.239697E+00
36.000000 -2.000000 -2.311278E+01
36.000000 -4.000000 -3.420176E+01
36.000000 -6.000000 -6.044061E+01
36.000000 -8.000000 -1.114426E+02
36.000000 -10.000000 -1.559807E+02
36.000000 -12.000000 -1.536483E+02
36.000000 -14.000000 -1.215049E+02
36.000000 -16.000000 -8.936337E+01
36.000000 -18.000000 -7.252255E+01
36.000000 -20.000000 -6.943791E+01
36.000000 -22.000000 -6.163976E+01
36.000000 -24.000000 -3.326340E+01
36.000000 -26.000000 -8.968615E+00
36.000000 -28.000000 -5.344792E+00
36.000000 -30.000000 -1.252077E+01
36.000000 -32.000000 -2.367282E+01
36.000000 -34.000000 -3.398594E+01
36.000000 -36.000000 -3.476960E+01
36.000000 -38.000000 -2.302203E+01
36.000000 -40.000000 -9.008915E+00
38.000000 40.000000 -8.607145E+01
38.000000 38.000000 -9.500091E+01
38.000000 36.000000 -1.033893E+02
38.000000 34.000000 -1.083180E+02
38.000000 32.000000 -1.022172E+02
38.000000 30.000000 -8.864969E+01
38.000000 28.000000 -7.309830E+01
38.000000 26.000000 -6.047267E+01
38.000000 24.000000 -5.943379E+01
38.000000 22.000000 -6.947534E+01
38.000000 20.000000 -8.279665E+01
38.000000 18.000000 -7.213251E+01
38.000000 16.000000 -3.018760E+01
38.000000 14.000000 1.907092E+01
38.000000 12.000000 5.294886E+01
38.000000 10.000000 6.552396E+01
38.000000 8.000000 5.417770E+01
38.000000 6.000000 3.522693E+01
38.000000 4.000000 1.004415E+01
38.000000 2.000000 -1.120032E+01
38.000000 0.000000 -2.922512E+01
38.000000 -2.000000 -3.672451E+01
38.000000 -4.000000 -3.360450E+01
38.000000 -6.000000 -4.898616E+01
38.000000 -8.000000 -9.508239E+01
38.000000 -10.000000 -1.385292E+02
38.000000 -12.000000 -1.409457E+02
38.000000 -14.000000 -1.175661E+02
38.000000 -16.000000 -9.018283E+01
38.000000 -18.000000 -7.072491E+01
38.000000 -20.000000 -6.014016E+01
38.000000 -22.000000 -5.001966E+01
38.000000 -24.000000 -2.912045E+01
38.000000 -26.000000 -1.837332E+01
38.000000 -28.000000 -2.616844E+01
38.000000 -30.000000 -3.727513E+01
38.000000 -32.000000 -4.160835E+01
38.000000 -34.000000 -4.432491E+01
38.000000 -36.000000 -4.179643E+01
38.000000 -38.000000 -2.872687E+01
38.000000 -40.000000 -1.507636E+01
40.000000 40.000000 -9.951666E+01
40.000000 38.000000 -1.142586E+02
40.000000 36.000000 -1.254139E+02
40.000000 34.000000 -1.241357E+02
40.000000 32.000000 -1.032021E+02
40.000000 30.000000 -7.899376E+01
40.000000 28.000000 -6.138365E+01
40.000000 26.000000 -4.869148E+01
40.000000 24.000000 -4.354307E+01
40.000000 22.000000 -5.450368E+01
40.000000 20.000000 -7.227213E+01
40.000000 18.000000 -7.028359E+01
40.000000 16.000000 -3.913028E+01
40.000000 14.000000 -8.721752E-01
40.000000 12.000000 2.418884E+01
40.000000 10.000000 3.305946E+01
40.000000 8.000000 2.639828E+01
40.000000 6.000000 9.110365E+00
40.000000 4.000000 -1.679732E+01
40.000000 2.000000 -3.899649E+01
40.000000 0.000000 -5.170337E+01
40.000000 -2.000000 -4.960511E+01
40.000000 -4.000000 -4.199639E+01
40.000000 -6.000000 -5.195548E+01
40.000000 -8.000000 -8.806807E+01
40.000000 -10.000000 -1.238233E+02
40.000000 -12.000000 -1.277203E+02
40.000000 -14.000000 -1.118020E+02
40.000000 -16.000000 -9.210450E+01
40.000000 -18.000000 -7.897023E+01
40.000000 -20.000000 -6.655174E+01
40.000000 -22.000000 -5.189722E+01
40.000000 -24.000000 -3.211947E+01
40.000000 -26.000000 -2.456199E+01
40.000000 -28.000000 -3.392752E+01
40.000000 -30.000000 -4.401075E+01
40.000000 -32.000000 -4.730865E+01
40.000000 -34.000000 -4.783317E+01
40.000000 -36.000000 -4.560016E+01
40.000000 -38.000000 -3.528146E+01
40.000000 -40.000000 -2.556761E+01
42.000000 40.000000 -1.140125E+02
42.000000 38.000000 -1.292965E+02
42.000000 36.000000 -1.392289E+02
42.000000 34.000000 -1.277039E+02
42.000000 32.000000 -8.957320E+01
42.000000 30.000000 -5.112927E+01
42.000000 28.000000 -2.850188E+01
42.000000 26.000000 -1.838422E+01
42.000000 24.000000 -1.312986E+01
42.000000 22.000000 -2.406601E+01
42.000000 20.000000 -4.438993E+01
42.000000 18.000000 -5.224815E+01
42.000000 16.000000 -3.759139E+01
42.000000 14.000000 -2.016645E+01
42.000000 12.000000 -1.229715E+01
42.000000 10.000000 -1.080463E+01
42.000000 8.000000 -9.062403E+00
42.000000 6.000000 -1.948735E+01
42.000000 4.000000 -3.886723E+01
42.000000 2.000000 -5.680990E+01
42.000000 0.000000 -6.557908E+01
42.000000 -2.000000 -6.138874E+01
42.000000 -4.000000 -5.605616E+01
42.000000 -6.000000 -6.292283E+01
42.000000 -8.000000 -8.496457E+01
42.000000 -10.000000 -1.085300E+02
42.000000 -12.000000 -1.129509E+02
42.000000 -14.000000 -1.047277E+02
42.000000 -16.000000 -9.887932E+01
42.000000 -18.000000 -1.007293E+02
42.000000 -20.000000 -9.491824E+01
42.000000 -22.000000 -7.613092E+01
42.000000 -24.000000 -4.817698E+01
42.000000 -26.000000 -3.085026E+01
42.000000 -28.000000 -3.226524E+01
42.000000 -30.000000 -3.766780E+01
42.000000 -32.000000 -4.328196E+01
42.000000 -34.000000 -4.560535E+01
42.000000 -36.000000 -4.685716E+01
42.000000 -38.000000 -4.222557E+01
42.000000 -40.000000 -3.738979E+01
44.000000 40.000000 -1.251360E+02
44.000000 38.000000 -1.362664E+02
44.000000 36.000000 -1.409875E+02
44.000000 34.000000 -1.189744E+02
44.000000 32.000000 -7.082095E+01
44.000000 30.000000 -2.331586E+01
44.000000 28.000000 5.459735E+00
44.000000 26.000000 1.408681E+01
44.000000 24.000000 1.773487E+01
44.000000 22.000000 6.268663E+00
44.000000 20.000000 -1.459462E+01
44.000000 18.000000 -2.796984E+01
44.000000 16.000000 -2.290817E+01
44.000000 14.000000 -1.904569E+01
44.000000 12.000000 -2.460394E+01
44.000000 10.000000 -3.151649E+01
44.000000 8.000000 -2.841254E+01
44.000000 6.000000 -3.477485E+01
44.000000 4.000000 -4.803748E+01
44.000000 2.000000 -6.087331E+01
44.000000 0.000000 -7.083546E+01
