-28.000000 10.000000 1.282819E+01
-28.000000 8.000000 -1.238664E+01
-28.000000 6.000000 -2.877662E+01
-28.000000 4.000000 -1.456980E+01
-28.000000 2.000000 7.004339E+00
-28.000000 0.000000 2.989205E+01
-28.000000 -2.000000 5.341657E+01
-28.000000 -4.000000 7.441768E+01
-28.000000 -6.000000 9.270152E+01
-28.000000 -8.000000 1.031839E+02
-28.000000 -10.000000 1.092429E+02
-28.000000 -12.000000 1.168909E+02
-28.000000 -14.000000 1.282972E+02
-28.000000 -16.000000 1.366629E+02
-28.000000 -18.000000 1.387706E+02
-28.000000 -20.000000 1.323828E+02
-28.000000 -22.000000 1.201310E+02
-28.000000 -24.000000 9.947537E+01
-28.000000 -26.000000 7.458734E+01
-28.000000 -28.000000 5.377763E+01
-28.000000 -30.000000 4.117860E+01
-28.000000 -32.000000 3.637814E+01
-28.000000 -34.000000 3.596047E+01
-28.000000 -36.000000 3.568443E+01
-28.000000 -38.000000 3.328564E+01
-28.000000 -40.000000 2.834129E+01
-26.000000 40.000000 5.224045E+00
-26.000000 38.000000 -3.145012E+00
-26.000000 36.000000 -2.090715E+01
-26.000000 34.000000 -4.184855E+01
-26.000000 32.000000 -4.879653E+01
-26.000000 30.000000 -4.605142E+01
-26.000000 28.000000 -4.457787E+01
-26.000000 26.000000 -4.599093E+01
-26.000000 24.000000 -5.225887E+01
-26.000000 22.000000 -5.138723E+01
-26.000000 20.000000 -4.902172E+01
-26.000000 18.000000 -3.600966E+01
-26.000000 16.000000 -1.153711E+01
-26.000000 14.000000 1.521374E+01
-26.000000 12.000000 2.939548E+01
-26.000000 10.000000 1.591687E+01
-26.000000 8.000000 -1.808179E+01
-26.000000 6.000000 -4.212495E+01
-26.000000 4.000000 -3.019591E+01
-26.000000 2.000000 -5.055676E+00
-26.000000 0.000000 2.106076E+01
-26.000000 -2.000000 4.709918E+01
-26.000000 -4.000000 6.901948E+01
-26.000000 -6.000000 8.519924E+01
-26.000000 -8.000000 8.797049E+01
-26.000000 -10.000000 8.074206E+01
-26.000000 -12.000000 8.393601E+01
-26.000000 -14.000000 9.425400E+01
-26.000000 -16.000000 1.038113E+02
-26.000000 -18.000000 1.101876E+02
-26.000000 -20.000000 1.098010E+02
-26.000000 -22.000000 1.053785E+02
-26.000000 -24.000000 9.065725E+01
-26.000000 -26.000000 6.559288E+01
-26.000000 -28.000000 4.484116E+01
-26.000000 -30.000000 3.316196E+01
-26.000000 -32.000000 2.999140E+01
-26.000000 -34.000000 3.133734E+01
-26.000000 -36.000000 3.477473E+01
-26.000000 -38.000000 3.437526E+01
-26.000000 -40.000000 2.953677E+01
-24.000000 40.000000 3.517624E+00
-24.000000 38.000000 -6.251301E+00
-24.000000 36.000000 -2.607746E+01
-24.000000 34.000000 -4.982080E+01
-24.000000 32.000000 -5.899495E+01
-24.000000 30.000000 -5.161854E+01
-24.000000 28.000000 -4.071891E+01
-24.000000 26.000000 -3.318301E+01
-24.000000 24.000000 -3.200524E+01
-24.000000 22.000000 -3.422988E+01
-24.000000 20.000000 -3.221032E+01
-24.000000 18.000000 -1.905866E+01
-24.000000 16.000000 6.694801E+00
-24.000000 14.000000 3.576843E+01
-24.000000 12.000000 4.853745E+01
-24.000000 10.000000 3.238536E+01
-24.000000 8.000000 -5.938994E+00
-24.000000 6.000000 -3.599219E+01
-24.000000 4.000000 -3.594712E+01
-24.000000 2.000000 -1.728421E+01
-24.000000 0.000000 8.930636E+00
-24.000000 -2.000000 3.748860E+01
-24.000000 -4.000000 6.060880E+01
-24.000000 -6.000000 7.166324E+01
-24.000000 -8.000000 6.032507E+01
-24.000000 -10.000000 3.782585E+01
-24.000000 -12.000000 3.419036E+01
-24.000000 -14.000000 3.976840E+01
-24.000000 -16.000000 4.792821E+01
-24.000000 -18.000000 5.800194E+01
-24.000000 -20.000000 6.808618E+01
-24.000000 -22.000000 7.632590E+01
-24.000000 -24.000000 7.183064E+01
-24.000000 -26.000000 5.301348E+01
-24.000000 -28.000000 3.215242E+01
-24.000000 -30.000000 2.001520E+01
-24.000000 -32.000000 1.927858E+01
-24.000000 -34.000000 2.430413E+01
-24.000000 -36.000000 3.278279E+01
-24.000000 -38.000000 3.581768E+01
-24.000000 -40.000000 3.272332E+01
-22.000000 40.000000 -3.258636E+00
-22.000000 38.000000 -1.398536E+01
-22.000000 36.000000 -3.532245E+01
-22.000000 34.000000 -5.972340E+01
-22.000000 32.000000 -6.584942E+01
-22.000000 30.000000 -5.066005E+01
-22.000000 28.000000 -3.280143E+01
-22.000000 26.000000 -1.923976E+01
-22.000000 24.000000 -1.307903E+01
-22.000000 22.000000 -1.737488E+01
-22.000000 20.000000 -1.697636E+01
-22.000000 18.000000 -5.997618E+00
-22.000000 16.000000 1.859319E+01
-22.000000 14.000000 4.949279E+01
-22.000000 12.000000 6.384440E+01
-22.000000 10.000000 5.022104E+01
-22.000000 8.000000 1.285597E+01
-22.000000 6.000000 -1.662411E+01
-22.000000 4.000000 -2.277487E+01
-22.000000 2.000000 -1.365932E+01
-22.000000 0.000000 4.483440E+00
-22.000000 -2.000000 2.738778E+01
-22.000000 -4.000000 4.610222E+01
-22.000000 -6.000000 5.056627E+01
-22.000000 -8.000000 3.083147E+01
-22.000000 -10.000000 1.600710E+00
-22.000000 -12.000000 -7.644878E+00
-22.000000 -14.000000 -7.601381E+00
-22.000000 -16.000000 -2.763914E+00
-22.000000 -18.000000 6.010912E+00
-22.000000 -20.000000 2.079706E+01
-22.000000 -22.000000 3.750198E+01
-22.000000 -24.000000 4.157938E+01
-22.000000 -26.000000 3.122549E+01
-22.000000 -28.000000 1.550055E+01
-22.000000 -30.000000 5.013403E+00
-22.000000 -32.000000 7.773237E+00
-22.000000 -34.000000 1.737154E+01
-22.000000 -36.000000 3.055810E+01
-22.000000 -38.000000 3.736806E+01
-22.000000 -40.000000 3.798711E+01
-20.000000 40.000000 -1.246669E+01
-20.000000 38.000000 -2.394930E+01
-20.000000 36.000000 -4.496580E+01
-20.000000 34.000000 -6.439322E+01
-20.000000 32.000000 -6.247822E+01
-20.000000 30.000000 -4.190217E+01
-20.000000 28.000000 -2.403167E+01
-20.000000 26.000000 -1.129432E+01
-20.000000 24.000000 -3.178635E+00
-20.000000 22.000000 -7.372818E+00
-20.000000 20.000000 -8.791819E+00
-20.000000 18.000000 -2.750275E+00
-20.000000 16.000000 1.539223E+01
-20.000000 14.000000 4.071204E+01
-20.000000 12.000000 5.468668E+01
-20.000000 10.000000 4.739532E+01
-20.000000 8.000000 2.180260E+01
-20.000000 6.000000 5.261111E+00
-20.000000 4.000000 3.819997E+00
-20.000000 2.000000 8.173645E+00
-20.000000 0.000000 1.392622E+01
-20.000000 -2.000000 2.264118E+01
-20.000000 -4.000000 3.053236E+01
-20.000000 -6.000000 2.805960E+01
-20.000000 -8.000000 9.031571E+00
-20.000000 -10.000000 -1.831061E+01
-20.000000 -12.000000 -2.958885E+01
-20.000000 -14.000000 -3.219471E+01
-20.000000 -16.000000 -3.149266E+01
-20.000000 -18.000000 -2.828174E+01
-20.000000 -20.000000 -1.727930E+01
-20.000000 -22.000000 1.322041E+00
-20.000000 -24.000000 1.004335E+01
-20.000000 -26.000000 5.886761E+00
-20.000000 -28.000000 -2.811676E+00
-20.000000 -30.000000 -8.497206E+00
-20.000000 -32.000000 -1.178120E+00
-20.000000 -34.000000 1.265665E+01
-20.000000 -36.000000 2.961979E+01
-20.000000 -38.000000 3.885652E+01
-20.000000 -40.000000 4.280521E+01
-18.000000 40.000000 -2.049829E+01
-18.000000 38.000000 -3.185653E+01
-18.000000 36.000000 -4.835650E+01
-18.000000 34.000000 -5.968262E+01
-18.000000 32.000000 -5.324853E+01
-18.000000 30.000000 -3.602493E+01
-18.000000 28.000000 -2.395080E+01
-18.000000 26.000000 -1.686924E+01
-18.000000 24.000000 -1.143687E+01
-18.000000 22.000000 -1.294498E+01
-18.000000 20.000000 -1.251615E+01
-18.000000 18.000000 -9.567656E+00
-18.000000 16.000000 -4.013214E-01
-18.000000 14.000000 1.308540E+01
-18.000000 12.000000 2.075451E+01
-18.000000 10.000000 1.845144E+01
-18.000000 8.000000 1.090972E+01
-18.000000 6.000000 1.606707E+01
-18.000000 4.000000 2.851407E+01
-18.000000 2.000000 3.355178E+01
-18.000000 0.000000 3.051397E+01
-18.000000 -2.000000 2.624827E+01
-18.000000 -4.000000 2.408956E+01
-18.000000 -6.000000 1.652421E+01
-18.000000 -8.000000 -5.122280E-01
-18.000000 -10.000000 -2.384556E+01
-18.000000 -12.000000 -3.052219E+01
-18.000000 -14.000000 -2.996904E+01
-18.000000 -16.000000 -3.049633E+01
-18.000000 -18.000000 -3.331005E+01
-18.000000 -20.000000 -2.956649E+01
-18.000000 -22.000000 -1.400636E+01
-18.000000 -24.000000 -6.429161E+00
-18.000000 -26.000000 -9.250229E+00
-18.000000 -28.000000 -1.470267E+01
-18.000000 -30.000000 -1.692125E+01
-18.000000 -32.000000 -5.329515E+00
-18.000000 -34.000000 1.079284E+01
-18.000000 -36.000000 2.933650E+01
-18.000000 -38.000000 3.963951E+01
-18.000000 -40.000000 4.546547E+01
-16.000000 40.000000 -2.469402E+01
-16.000000 38.000000 -3.431725E+01
-16.000000 36.000000 -4.512078E+01
-16.000000 34.000000 -4.982957E+01
-16.000000 32.000000 -4.304067E+01
-16.000000 30.000000 -3.383342E+01
-16.000000 28.000000 -3.252319E+01
-16.000000 26.000000 -3.520455E+01
-16.000000 24.000000 -3.653846E+01
-16.000000 22.000000 -3.340005E+01
-16.000000 20.000000 -2.740179E+01
-16.000000 18.000000 -2.428177E+01
-16.000000 16.000000 -2.368167E+01
-16.000000 14.000000 -2.411185E+01
-16.000000 12.000000 -2.894918E+01
-16.000000 10.000000 -3.399764E+01
-16.000000 8.000000 -2.541124E+01
-16.000000 6.000000 2.877125E+00
-16.000000 4.000000 3.437032E+01
-16.000000 2.000000 4.610879E+01
-16.000000 0.000000 4.308942E+01
-16.000000 -2.000000 3.463356E+01
-16.000000 -4.000000 2.875606E+01
-16.000000 -6.000000 1.943823E+01
-16.000000 -8.000000 1.989138E+00
-16.000000 -10.000000 -1.618747E+01
-16.000000 -12.000000 -1.501080E+01
-16.000000 -14.000000 -6.904850E+00
-16.000000 -16.000000 -3.319765E+00
-16.000000 -18.000000 -7.532934E+00
-16.000000 -20.000000 -8.227966E+00
-16.000000 -22.000000 -8.144684E-01
-16.000000 -24.000000 3.302708E-01
-16.000000 -26.000000 -5.296888E+00
-16.000000 -28.000000 -1.201526E+01
-16.000000 -30.000000 -1.510176E+01
-16.000000 -32.000000 -2.498878E+00
-16.000000 -34.000000 1.309371E+01
-16.000000 -36.000000 2.969771E+01
-16.000000 -38.000000 3.886158E+01
-16.000000 -40.000000 4.407512E+01
-14.000000 40.000000 -2.554093E+01
-14.000000 38.000000 -3.305882E+01
-14.000000 36.000000 -3.941199E+01
-14.000000 34.000000 -3.986595E+01
-14.000000 32.000000 -3.168208E+01
-14.000000 30.000000 -2.928849E+01
-14.000000 28.000000 -4.170049E+01
-14.000000 26.000000 -5.679657E+01
-14.000000 24.000000 -6.554833E+01
-14.000000 22.000000 -5.683434E+01
-14.000000 20.000000 -4.525496E+01
-14.000000 18.000000 -4.091069E+01
-14.000000 16.000000 -4.814751E+01
-14.000000 14.000000 -6.301236E+01
-14.000000 12.000000 -8.376648E+01
-14.000000 10.000000 -1.013564E+02
-14.000000 8.000000 -8.644269E+01
-14.000000 6.000000 -4.291040E+01
-14.000000 4.000000 1.025613E+01
-14.000000 2.000000 3.879627E+01
-14.000000 0.000000 4.601025E+01
-14.000000 -2.000000 4.189182E+01
-14.000000 -4.000000 3.732309E+01
-14.000000 -6.000000 3.040922E+01
-14.000000 -8.000000 1.622028E+01
-14.000000 -10.000000 5.300803E+00
-14.000000 -12.000000 1.440398E+01
-14.000000 -14.000000 3.115412E+01
-14.000000 -16.000000 4.082615E+01
-14.000000 -18.000000 3.793062E+01
-14.000000 -20.000000 3.361476E+01
-14.000000 -22.000000 3.315321E+01
-14.000000 -24.000000 2.719660E+01
-14.000000 -26.000000 1.600242E+01
-14.000000 -28.000000 5.397497E+00
-14.000000 -30.000000 -5.686646E-01
-14.000000 -32.000000 7.901997E+00
-14.000000 -34.000000 2.004034E+01
-14.000000 -36.000000 3.145022E+01
-14.000000 -38.000000 3.703073E+01
-14.000000 -40.000000 3.855297E+01
-12.000000 40.000000 -2.529987E+01
-12.000000 38.000000 -3.101285E+01
-12.000000 36.000000 -3.346420E+01
-12.000000 34.000000 -3.091153E+01
-12.000000 32.000000 -2.132057E+01
-12.000000 30.000000 -2.306268E+01
-12.000000 28.000000 -4.515419E+01
-12.000000 26.000000 -6.884652E+01
-12.000000 24.000000 -8.247366E+01
-12.000000 22.000000 -7.108579E+01
-12.000000 20.000000 -5.819193E+01
-12.000000 18.000000 -5.396372E+01
-12.000000 16.000000 -6.665071E+01
-12.000000 14.000000 -9.355952E+01
-12.000000 12.000000 -1.294177E+02
-12.000000 10.000000 -1.631979E+02
-12.000000 8.000000 -1.526779E+02
-12.000000 6.000000 -1.067017E+02
-12.000000 4.000000 -3.587593E+01
-12.000000 2.000000 1.566590E+01
-12.000000 0.000000 3.995043E+01
-12.000000 -2.000000 4.632354E+01
-12.000000 -4.000000 4.588686E+01
-12.000000 -6.000000 4.373069E+01
-12.000000 -8.000000 3.630598E+01
-12.000000 -10.000000 3.127686E+01
-12.000000 -12.000000 4.611886E+01
-12.000000 -14.000000 7.033985E+01
-12.000000 -16.000000 8.513497E+01
-12.000000 -18.000000 8.297421E+01
-12.000000 -20.000000 7.527870E+01
-12.000000 -22.000000 7.185429E+01
-12.000000 -24.000000 6.182461E+01
-12.000000 -26.000000 4.477727E+01
-12.000000 -28.000000 2.873051E+01
-12.000000 -30.000000 1.990513E+01
-12.000000 -32.000000 2.284012E+01
-12.000000 -34.000000 2.977009E+01
-12.000000 -36.000000 3.453594E+01
-12.000000 -38.000000 3.561386E+01
-12.000000 -40.000000 3.166519E+01
-10.000000 40.000000 -2.556192E+01
-10.000000 38.000000 -2.975068E+01
-10.000000 36.000000 -2.889527E+01
-10.000000 34.000000 -2.390351E+01
-10.000000 32.000000 -1.648678E+01
-10.000000 30.000000 -2.125504E+01
-10.000000 28.000000 -4.328030E+01
-10.000000 26.000000 -6.531494E+01
-10.000000 24.000000 -7.851159E+01
-10.000000 22.000000 -7.048553E+01
-10.000000 20.000000 -6.079508E+01
-10.000000 18.000000 -6.026532E+01
-10.000000 16.000000 -7.660619E+01
-10.000000 14.000000 -1.084219E+02
-10.000000 12.000000 -1.503313E+02
-10.000000 10.000000 -1.920044E+02
-10.000000 8.000000 -1.887189E+02
-10.000000 6.000000 -1.491929E+02
-10.000000 4.000000 -7.477270E+01
-10.000000 2.000000 -1.219601E+01
-10.000000 0.000000 2.465172E+01
-10.000000 -2.000000 4.305908E+01
-10.000000 -4.000000 5.271292E+01
-10.000000 -6.000000 5.684347E+01
-10.000000 -8.000000 5.074539E+01
-10.000000 -10.000000 4.519721E+01
-10.000000 -12.000000 6.209583E+01
-10.000000 -14.000000 9.080938E+01
-10.000000 -16.000000 1.096525E+02
-10.000000 -18.000000 1.076143E+02
-10.000000 -20.000000 9.931695E+01
-10.000000 -22.000000 9.875614E+01
-10.000000 -24.000000 8.871225E+01
-10.000000 -26.000000 6.808616E+01
-10.000000 -28.000000 4.768591E+01
-10.000000 -30.000000 3.718255E+01
-10.000000 -32.000000 3.683848E+01
-10.000000 -34.000000 3.911129E+01
-10.000000 -36.000000 3.819351E+01
-10.000000 -38.000000 3.566308E+01
-10.000000 -40.000000 2.656635E+01
-8.000000 40.000000 -2.552489E+01
-8.000000 38.000000 -2.928537E+01
-8.000000 36.000000 -2.626012E+01
-8.000000 34.000000 -2.007602E+01
-8.000000 32.000000 -1.541928E+01
-8.000000 30.000000 -2.113280E+01
-8.000000 28.000000 -3.876932E+01
-8.000000 26.000000 -5.389241E+01
-8.000000 24.000000 -6.175815E+01
-8.000000 22.000000 -5.998615E+01
-8.000000 20.000000 -5.626331E+01
-8.000000 18.000000 -6.102947E+01
-8.000000 16.000000 -7.708674E+01
-8.000000 14.000000 -1.032057E+02
-8.000000 12.000000 -1.380888E+02
-8.000000 10.000000 -1.755721E+02
-8.000000 8.000000 -1.783082E+02
-8.000000 6.000000 -1.509107E+02
-8.000000 4.000000 -8.886899E+01
-8.000000 2.000000 -3.519169E+01
-8.000000 0.000000 2.634476E+00
-8.000000 -2.000000 3.202286E+01
-8.000000 -4.000000 5.818744E+01
-8.000000 -6.000000 6.960765E+01
-8.000000 -8.000000 5.649447E+01
-8.000000 -10.000000 4.558954E+01
-8.000000 -12.000000 5.926915E+01
-8.000000 -14.000000 8.535484E+01
-8.000000 -16.000000 1.042199E+02
-8.000000 -18.000000 1.044125E+02
-8.000000 -20.000000 1.002403E+02
-8.000000 -22.000000 1.029648E+02
-8.000000 -24.000000 9.484092E+01
-8.000000 -26.000000 7.537090E+01
-8.000000 -28.000000 5.547689E+01
-8.000000 -30.000000 4.475011E+01
-8.000000 -32.000000 4.344942E+01
-8.000000 -34.000000 4.383721E+01
-8.000000 -36.000000 4.047879E+01
-8.000000 -38.000000 3.639628E+01
-8.000000 -40.000000 2.587728E+01
-6.000000 40.000000 -2.360412E+01
-6.000000 38.000000 -2.796844E+01
-6.000000 36.000000 -2.458775E+01
-6.000000 34.000000 -1.881359E+01
-6.000000 32.000000 -1.516967E+01
-6.000000 30.000000 -1.942252E+01
-6.000000 28.000000 -3.264363E+01
-6.000000 26.000000 -4.086631E+01
-6.000000 24.000000 -4.384643E+01
-6.000000 22.000000 -5.091057E+01
-6.000000 20.000000 -5.572918E+01
-6.000000 18.000000 -6.332022E+01
-6.000000 16.000000 -7.155583E+01
-6.000000 14.000000 -8.042009E+01
-6.000000 12.000000 -9.609535E+01
-6.000000 10.000000 -1.195284E+02
-6.000000 8.000000 -1.281665E+02
-6.000000 6.000000 -1.189070E+02
-6.000000 4.000000 -8.544932E+01
-6.000000 2.000000 -5.574855E+01
-6.000000 0.000000 -2.630302E+01
-6.000000 -2.000000 1.461727E+01
-6.000000 -4.000000 5.792954E+01
-6.000000 -6.000000 7.502148E+01
-6.000000 -8.000000 5.711038E+01
-6.000000 -10.000000 4.096083E+01
-6.000000 -12.000000 4.912112E+01
-6.000000 -14.000000 6.907263E+01
-6.000000 -16.000000 8.290423E+01
-6.000000 -18.000000 8.279694E+01
-6.000000 -20.000000 8.032398E+01
-6.000000 -22.000000 8.387150E+01
-6.000000 -24.000000 8.006027E+01
-6.000000 -26.000000 6.623062E+01
-6.000000 -28.000000 5.056288E+01
-6.000000 -30.000000 4.031170E+01
-6.000000 -32.000000 3.943019E+01
-6.000000 -34.000000 4.117314E+01
-6.000000 -36.000000 3.945790E+01
-6.000000 -38.000000 3.613887E+01
-6.000000 -40.000000 2.880471E+01
-4.000000 40.000000 -1.809003E+01
-4.000000 38.000000 -2.230597E+01
-4.000000 36.000000 -2.154078E+01
-4.000000 34.000000 -1.886200E+01
-4.000000 32.000000 -1.690829E+01
-4.000000 30.000000 -1.968562E+01
-4.000000 28.000000 -2.770537E+01
-4.000000 26.000000 -2.989217E+01
-4.000000 24.000000 -3.325782E+01
-4.000000 22.000000 -5.070840E+01
-4.000000 20.000000 -6.547052E+01
-4.000000 18.000000 -7.086836E+01
-4.000000 16.000000 -6.451567E+01
-4.000000 14.000000 -5.085303E+01
-4.000000 12.000000 -4.199556E+01
-4.000000 10.000000 -4.431430E+01
-4.000000 8.000000 -5.638402E+01
-4.000000 6.000000 -6.737916E+01
-4.000000 4.000000 -7.355382E+01
-4.000000 2.000000 -7.472876E+01
-4.000000 0.000000 -5.693859E+01
-4.000000 -2.000000 -2.520579E+00
-4.000000 -4.000000 5.706441E+01
-4.000000 -6.000000 7.310861E+01
-4.000000 -8.000000 5.192090E+01
-4.000000 -10.000000 3.237627E+01
-4.000000 -12.000000 3.645182E+01
-4.000000 -14.000000 5.153311E+01
-4.000000 -16.000000 5.842590E+01
-4.000000 -18.000000 5.378240E+01
-4.000000 -20.000000 4.880726E+01
-4.000000 -22.000000 5.486584E+01
-4.000000 -24.000000 5.774101E+01
-4.000000 -26.000000 4.897030E+01
-4.000000 -28.000000 3.640730E+01
-4.000000 -30.000000 2.652061E+01
-4.000000 -32.000000 2.787204E+01
-4.000000 -34.000000 3.282242E+01
-4.000000 -36.000000 3.527259E+01
-4.000000 -38.000000 3.461735E+01
-4.000000 -40.000000 3.209771E+01
-2.000000 40.000000 -9.143852E+00
-2.000000 38.000000 -1.152235E+01
-2.000000 36.000000 -1.462226E+01
-2.000000 34.000000 -1.835040E+01
-2.000000 32.000000 -2.194514E+01
-2.000000 30.000000 -2.573209E+01
-2.000000 28.000000 -2.990174E+01
-2.000000 26.000000 -3.028897E+01
-2.000000 24.000000 -3.548868E+01
-2.000000 22.000000 -5.399302E+01
-2.000000 20.000000 -7.048926E+01
-2.000000 18.000000 -7.261881E+01
-2.000000 16.000000 -5.645506E+01
-2.000000 14.000000 -2.859160E+01
-2.000000 12.000000 -3.194626E+00
-2.000000 10.000000 1.229974E+01
-2.000000 8.000000 3.593010E+00
-2.000000 6.000000 -1.707985E+01
-2.000000 4.000000 -5.226627E+01
-2.000000 2.000000 -7.855695E+01
-2.000000 0.000000 -7.151671E+01
-2.000000 -2.000000 -1.195849E+01
-2.000000 -4.000000 5.723575E+01
-2.000000 -6.000000 6.938175E+01
-2.000000 -8.000000 4.015708E+01
-2.000000 -10.000000 1.528421E+01
-2.000000 -12.000000 1.828934E+01
-2.000000 -14.000000 3.081212E+01
-2.000000 -16.000000 3.385356E+01
-2.000000 -18.000000 2.560663E+01
-2.000000 -20.000000 2.044098E+01
-2.000000 -22.000000 3.346413E+01
-2.000000 -24.000000 4.215771E+01
-2.000000 -26.000000 3.448173E+01
-2.000000 -28.000000 2.054937E+01
-2.000000 -30.000000 9.528408E+00
-2.000000 -32.000000 1.408355E+01
-2.000000 -34.000000 2.197274E+01
-2.000000 -36.000000 2.843699E+01
-2.000000 -38.000000 3.141988E+01
-2.000000 -40.000000 3.340248E+01
0.000000 40.000000 7.105217E-01
0.000000 38.000000 1.183327E+00
0.000000 36.000000 -5.917366E+00
0.000000 34.000000 -1.792555E+01
0.000000 32.000000 -2.796764E+01
0.000000 30.000000 -3.426102E+01
0.000000 28.000000 -3.875983E+01
0.000000 26.000000 -4.030140E+01
0.000000 24.000000 -4.522820E+01
0.000000 22.000000 -5.671340E+01
0.000000 20.000000 -6.542629E+01
0.000000 18.000000 -6.363106E+01
0.000000 16.000000 -4.660676E+01
0.000000 14.000000 -1.777779E+01
0.000000 12.000000 7.935936E+00
0.000000 10.000000 2.635926E+01
0.000000 8.000000 2.527263E+01
0.000000 6.000000 9.314905E+00
0.000000 4.000000 -2.826651E+01
0.000000 2.000000 -5.856616E+01
0.000000 0.000000 -5.306762E+01
0.000000 -2.000000 -5.084746E+00
0.000000 -4.000000 5.000153E+01
0.000000 -6.000000 5.613020E+01
0.000000 -8.000000 2.386362E+01
0.000000 -10.000000 -4.712752E+00
0.000000 -12.000000 -2.865151E+00
0.000000 -14.000000 6.187371E+00
0.000000 -16.000000 9.131493E+00
0.000000 -18.000000 3.740496E+00
0.000000 -20.000000 6.015059E+00
0.000000 -22.000000 2.563519E+01
0.000000 -24.000000 3.625046E+01
0.000000 -26.000000 2.826251E+01
0.000000 -28.000000 1.147372E+01
0.000000 -30.000000 -1.745171E+00
0.000000 -32.000000 3.440935E+00
0.000000 -34.000000 1.199710E+01
0.000000 -36.000000 2.086443E+01
0.000000 -38.000000 2.667933E+01
0.000000 -40.000000 3.143430E+01
2.000000 40.000000 9.450008E+00
2.000000 38.000000 1.139007E+01
2.000000 36.000000 -1.213371E+00
2.000000 34.000000 -2.117065E+01
2.000000 32.000000 -3.360725E+01
2.000000 30.000000 -4.000581E+01
2.000000 28.000000 -4.571374E+01
2.000000 26.000000 -4.753770E+01
2.000000 24.000000 -5.139122E+01
2.000000 22.000000 -5.617882E+01
2.000000 20.000000 -5.815625E+01
2.000000 18.000000 -5.456688E+01
2.000000 16.000000 -4.056435E+01
2.000000 14.000000 -1.706895E+01
2.000000 12.000000 1.250687E-01
2.000000 10.000000 9.029243E+00
2.000000 8.000000 8.564728E+00
2.000000 6.000000 1.079796E+00
2.000000 4.000000 -1.693487E+01
2.000000 2.000000 -3.091236E+01
2.000000 0.000000 -2.231445E+01
2.000000 -2.000000 8.711571E+00
2.000000 -4.000000 4.081741E+01
2.000000 -6.000000 4.133864E+01
2.000000 -8.000000 1.543378E+01
2.000000 -10.000000 -1.061779E+01
2.000000 -12.000000 -1.313677E+01
2.000000 -14.000000 -1.011580E+01
2.000000 -16.000000 -9.898925E+00
2.000000 -18.000000 -1.097810E+01
2.000000 -20.000000 -5.704575E-01
2.000000 -22.000000 2.189733E+01
2.000000 -24.000000 3.372898E+01
2.000000 -26.000000 2.706452E+01
2.000000 -28.000000 1.050474E+01
2.000000 -30.000000 -2.922827E+00
2.000000 -32.000000 -4.291019E-01
2.000000 -34.000000 6.703180E+00
2.000000 -36.000000 1.563439E+01
2.000000 -38.000000 2.185583E+01
2.000000 -40.000000 2.699347E+01
4.000000 40.000000 1.564973E+01
4.000000 38.000000 1.425022E+01
4.000000 36.000000 -3.234863E+00
4.000000 34.000000 -2.674166E+01
4.000000 32.000000 -3.776417E+01
4.000000 30.000000 -4.108211E+01
4.000000 28.000000 -4.527878E+01
4.000000 26.000000 -4.664245E+01
4.000000 24.000000 -5.014778E+01
4.000000 22.000000 -5.187041E+01
4.000000 20.000000 -5.309493E+01
4.000000 18.000000 -5.131598E+01
4.000000 16.000000 -4.073997E+01
4.000000 14.000000 -2.426249E+01
4.000000 12.000000 -1.657564E+01
4.000000 10.000000 -2.312760E+01
4.000000 8.000000 -3.544639E+01
4.000000 6.000000 -3.890479E+01
4.000000 4.000000 -2.848242E+01
4.000000 2.000000 -1.403680E+01
4.000000 0.000000 3.418856E+00
4.000000 -2.000000 2.123358E+01
4.000000 -4.000000 3.504121E+01
4.000000 -6.000000 3.563452E+01
4.000000 -8.000000 2.118877E+01
4.000000 -10.000000 -5.695882E-01
4.000000 -12.000000 -8.370553E+00
4.000000 -14.000000 -1.026881E+01
4.000000 -16.000000 -1.508159E+01
4.000000 -18.000000 -1.595435E+01
4.000000 -20.000000 -2.485591E+00
4.000000 -22.000000 2.142762E+01
4.000000 -24.000000 3.386485E+01
4.000000 -26.000000 2.822155E+01
4.000000 -28.000000 1.322048E+01
4.000000 -30.000000 9.889755E-01
4.000000 -32.000000 1.660526E+00
4.000000 -34.000000 6.612947E+00
4.000000 -36.000000 1.279177E+01
4.000000 -38.000000 1.772742E+01
4.000000 -40.000000 2.214984E+01
6.000000 40.000000 1.861024E+01
6.000000 38.000000 1.168039E+01
6.000000 36.000000 -7.860445E+00
6.000000 34.000000 -3.131997E+01
6.000000 32.000000 -4.150409E+01
6.000000 30.000000 -4.219733E+01
6.000000 28.000000 -4.303641E+01
6.000000 26.000000 -4.333016E+01
6.000000 24.000000 -4.474759E+01
6.000000 22.000000 -4.473298E+01
6.000000 20.000000 -4.638850E+01
6.000000 18.000000 -4.752512E+01
6.000000 16.000000 -4.205071E+01
6.000000 14.000000 -3.389839E+01
6.000000 12.000000 -3.747450E+01
6.000000 10.000000 -6.072441E+01
6.000000 8.000000 -8.793104E+01
6.000000 6.000000 -9.402040E+01
6.000000 4.000000 -6.371967E+01
6.000000 2.000000 -2.218106E+01
6.000000 0.000000 1.317819E+01
6.000000 -2.000000 3.358362E+01
6.000000 -4.000000 4.367994E+01
6.000000 -6.000000 4.352386E+01
6.000000 -8.000000 3.115119E+01
6.000000 -10.000000 1.069137E+01
6.000000 -12.000000 3.341608E+00
6.000000 -14.000000 4.193620E+00
6.000000 -16.000000 3.547168E-01
6.000000 -18.000000 -2.349947E+00
6.000000 -20.000000 7.565979E+00
6.000000 -22.000000 2.762548E+01
6.000000 -24.000000 3.643751E+01
6.000000 -26.000000 3.087628E+01
6.000000 -28.000000 1.637014E+01
6.000000 -30.000000 4.489138E+00
6.000000 -32.000000 5.468096E+00
6.000000 -34.000000 8.890402E+00
6.000000 -36.000000 1.122400E+01
6.000000 -38.000000 1.454307E+01
6.000000 -40.000000 1.826968E+01
8.000000 40.000000 1.868278E+01
8.000000 38.000000 8.788343E+00
8.000000 36.000000 -1.289707E+01
8.000000 34.000000 -3.667233E+01
8.000000 32.000000 -4.369400E+01
8.000000 30.000000 -4.054215E+01
8.000000 28.000000 -3.967639E+01
8.000000 26.000000 -3.949368E+01
8.000000 24.000000 -3.793029E+01
8.000000 22.000000 -3.561982E+01
8.000000 20.000000 -3.678612E+01
8.000000 18.000000 -4.156330E+01
8.000000 16.000000 -4.236352E+01
8.000000 14.000000 -4.204348E+01
8.000000 12.000000 -5.574010E+01
8.000000 10.000000 -9.522761E+01
8.000000 8.000000 -1.392493E+02
8.000000 6.000000 -1.539046E+02
8.000000 4.000000 -1.123473E+02
8.000000 2.000000 -4.979603E+01
8.000000 0.000000 7.404530E+00
8.000000 -2.000000 4.341134E+01
8.000000 -4.000000 6.125726E+01
8.000000 -6.000000 5.617893E+01
8.000000 -8.000000 3.476965E+01
8.000000 -10.000000 1.417260E+01
8.000000 -12.000000 1.424544E+01
8.000000 -14.000000 2.796036E+01
8.000000 -16.000000 3.687259E+01
8.000000 -18.000000 3.500356E+01
8.000000 -20.000000 3.459549E+01
8.000000 -22.000000 4.035131E+01
8.000000 -24.000000 3.902121E+01
8.000000 -26.000000 3.175673E+01
8.000000 -28.000000 1.838434E+01
8.000000 -30.000000 6.890326E+00
8.000000 -32.000000 7.771564E+00
8.000000 -34.000000 1.065190E+01
8.000000 -36.000000 1.108136E+01
8.000000 -38.000000 1.313593E+01
8.000000 -40.000000 1.567255E+01
10.000000 40.000000 1.621784E+01
10.000000 38.000000 5.758492E+00
10.000000 36.000000 -1.810710E+01
10.000000 34.000000 -4.140168E+01
10.000000 32.000000 -4.090455E+01
10.000000 30.000000 -3.136673E+01
10.000000 28.000000 -3.148257E+01
10.000000 26.000000 -3.378004E+01
10.000000 24.000000 -2.992063E+01
10.000000 22.000000 -2.440508E+01
10.000000 20.000000 -2.705809E+01
10.000000 18.000000 -3.656789E+01
10.000000 16.000000 -4.172124E+01
10.000000 14.000000 -4.668845E+01
10.000000 12.000000 -6.756663E+01
10.000000 10.000000 -1.201963E+02
10.000000 8.000000 -1.797989E+02
10.000000 6.000000 -2.050261E+02
10.000000 4.000000 -1.609926E+02
10.000000 2.000000 -8.438226E+01
10.000000 0.000000 -8.958032E+00
10.000000 -2.000000 4.325726E+01
10.000000 -4.000000 6.776700E+01
10.000000 -6.000000 5.665700E+01
10.000000 -8.000000 2.778338E+01
10.000000 -10.000000 9.423697E+00
10.000000 -12.000000 2.585766E+01
10.000000 -14.000000 6.265219E+01
10.000000 -16.000000 9.005906E+01
10.000000 -18.000000 8.923328E+01
10.000000 -20.000000 7.224985E+01
10.000000 -22.000000 5.601417E+01
10.000000 -24.000000 4.001540E+01
10.000000 -26.000000 2.820111E+01
10.000000 -28.000000 1.709307E+01
10.000000 -30.000000 8.245811E+00
10.000000 -32.000000 8.569124E+00
10.000000 -34.000000 1.163694E+01
10.000000 -36.000000 1.268149E+01
10.000000 -38.000000 1.372882E+01
10.000000 -40.000000 1.409702E+01
12.000000 40.000000 1.241973E+01
12.000000 38.000000 4.519501E-01
12.000000 36.000000 -2.237382E+01
12.000000 34.000000 -4.069711E+01
12.000000 32.000000 -3.390063E+01
12.000000 30.000000 -1.996863E+01
12.000000 28.000000 -1.928263E+01
12.000000 26.000000 -2.376568E+01
12.000000 24.000000 -1.984294E+01
12.000000 22.000000 -1.363227E+01
12.000000 20.000000 -1.911018E+01
12.000000 18.000000 -3.164271E+01
12.000000 16.000000 -3.806491E+01
12.000000 14.000000 -4.614498E+01
12.000000 12.000000 -7.264235E+01
12.000000 10.000000 -1.317422E+02
12.000000 8.000000 -2.000505E+02
12.000000 6.000000 -2.340702E+02
12.000000 4.000000 -1.980921E+02
12.000000 2.000000 -1.182430E+02
12.000000 0.000000 -3.274030E+01
12.000000 -2.000000 3.048419E+01
12.000000 -4.000000 5.762711E+01
12.000000 -6.000000 4.119207E+01
12.000000 -8.000000 9.742719E+00
12.000000 -10.000000 -3.532552E+00
12.000000 -12.000000 3.796718E+01
12.000000 -14.000000 1.068248E+02
12.000000 -16.000000 1.550069E+02
12.000000 -18.000000 1.502897E+02
12.000000 -20.000000 1.109688E+02
12.000000 -22.000000 7.045219E+01
12.000000 -24.000000 3.822676E+01
12.000000 -26.000000 2.174832E+01
12.000000 -28.000000 1.213292E+01
12.000000 -30.000000 5.708359E+00
12.000000 -32.000000 7.234541E+00
12.000000 -34.000000 1.185513E+01
12.000000 -36.000000 1.487567E+01
12.000000 -38.000000 1.535773E+01
12.000000 -40.000000 1.367374E+01
14.000000 40.000000 1.071621E+01
14.000000 38.000000 -4.422174E+00
14.000000 36.000000 -2.521273E+01
14.000000 34.000000 -3.789745E+01
14.000000 32.000000 -2.908031E+01
14.000000 30.000000 -1.378648E+01
14.000000 28.000000 -8.271375E+00
14.000000 26.000000 -1.045626E+01
14.000000 24.000000 -8.105962E+00
14.000000 22.000000 -6.127008E+00
14.000000 20.000000 -1.103673E+01
14.000000 18.000000 -2.220836E+01
14.000000 16.000000 -2.971104E+01
14.000000 14.000000 -4.018662E+01
14.000000 12.000000 -7.109486E+01
14.000000 10.000000 -1.325385E+02
14.000000 8.000000 -2.026262E+02
14.000000 6.000000 -2.407488E+02
14.000000 4.000000 -2.152822E+02
14.000000 2.000000 -1.445800E+02
14.000000 0.000000 -5.962892E+01
14.000000 -2.000000 9.714126E+00
14.000000 -4.000000 3.933244E+01
14.000000 -6.000000 1.844487E+01
14.000000 -8.000000 -1.361063E+01
14.000000 -10.000000 -1.689343E+01
14.000000 -12.000000 5.589826E+01
14.000000 -14.000000 1.582764E+02
14.000000 -16.000000 2.231482E+02
14.000000 -18.000000 2.080652E+02
14.000000 -20.000000 1.436526E+02
14.000000 -22.000000 8.048927E+01
14.000000 -24.000000 3.395328E+01
14.000000 -26.000000 1.361056E+01
14.000000 -28.000000 4.010712E+00
14.000000 -30.000000 -1.225914E+00
14.000000 -32.000000 2.886517E+00
14.000000 -34.000000 9.767368E+00
14.000000 -36.000000 1.581166E+01
14.000000 -38.000000 1.735498E+01
14.000000 -40.000000 1.513289E+01
16.000000 40.000000 1.417246E+01
16.000000 38.000000 -4.151694E+00
16.000000 36.000000 -2.598665E+01
16.000000 34.000000 -3.760671E+01
16.000000 32.000000 -2.740107E+01
16.000000 30.000000 -9.722333E+00
16.000000 28.000000 -6.136951E-01
16.000000 26.000000 -1.952488E+00
16.000000 24.000000 -1.650434E+00
16.000000 22.000000 -2.841795E+00
16.000000 20.000000 -5.515147E+00
16.000000 18.000000 -1.313169E+01
16.000000 16.000000 -1.925767E+01
16.000000 14.000000 -2.921229E+01
16.000000 12.000000 -6.220443E+01
16.000000 10.000000 -1.272758E+02
16.000000 8.000000 -2.012595E+02
16.000000 6.000000 -2.430032E+02
16.000000 4.000000 -2.236672E+02
16.000000 2.000000 -1.663766E+02
16.000000 0.000000 -8.638676E+01
16.000000 -2.000000 -1.169831E+01
16.000000 -4.000000 2.153175E+01
16.000000 -6.000000 3.828390E-01
16.000000 -8.000000 -2.535873E+01
16.000000 -10.000000 -9.072299E+00
16.000000 -12.000000 9.648548E+01
16.000000 -14.000000 2.228140E+02
16.000000 -16.000000 2.886479E+02
16.000000 -18.000000 2.545514E+02
16.000000 -20.000000 1.652858E+02
16.000000 -22.000000 8.327504E+01
16.000000 -24.000000 2.772208E+01
16.000000 -26.000000 3.955500E+00
16.000000 -28.000000 -5.294369E+00
16.000000 -30.000000 -8.919182E+00
16.000000 -32.000000 -2.879398E+00
16.000000 -34.000000 5.304543E+00
16.000000 -36.000000 1.423705E+01
16.000000 -38.000000 1.826259E+01
16.000000 -40.000000 1.786421E+01
18.000000 40.000000 2.441221E+01
18.000000 38.000000 3.046171E+00
18.000000 36.000000 -2.251161E+01
18.000000 34.000000 -3.769868E+01
18.000000 32.000000 -2.735419E+01
18.000000 30.000000 -7.215505E+00
18.000000 28.000000 2.580874E+00
18.000000 26.000000 -2.140085E+00
18.000000 24.000000 -5.688995E+00
18.000000 22.000000 -7.334733E+00
18.000000 20.000000 -8.465009E+00
18.000000 18.000000 -1.040307E+01
18.000000 16.000000 -8.801121E+00
18.000000 14.000000 -1.326642E+01
18.000000 12.000000 -4.627726E+01
18.000000 10.000000 -1.188451E+02
18.000000 8.000000 -2.050026E+02
18.000000 6.000000 -2.588951E+02
18.000000 4.000000 -2.464889E+02
18.000000 2.000000 -1.916891E+02
18.000000 0.000000 -1.091246E+02
18.000000 -2.000000 -2.847303E+01
18.000000 -4.000000 9.592469E+00
18.000000 -6.000000 -3.832394E+00
18.000000 -8.000000 -9.652150E+00
18.000000 -10.000000 3.735584E+01
18.000000 -12.000000 1.703319E+02
18.000000 -14.000000 3.033614E+02
18.000000 -16.000000 3.502370E+02
18.000000 -18.000000 2.860852E+02
18.000000 -20.000000 1.700650E+02
18.000000 -22.000000 7.331370E+01
18.000000 -24.000000 1.576558E+01
18.000000 -26.000000 -5.703762E+00
18.000000 -28.000000 -1.206040E+01
18.000000 -30.000000 -1.298797E+01
18.000000 -32.000000 -6.119766E+00
18.000000 -34.000000 2.138733E+00
18.000000 -36.000000 1.198215E+01
18.000000 -38.000000 1.760658E+01
18.000000 -40.000000 1.979110E+01
20.000000 40.000000 4.050619E+01
20.000000 38.000000 1.730830E+01
20.000000 36.000000 -1.192230E+01
20.000000 34.000000 -3.360621E+01
20.000000 32.000000 -2.957283E+01
20.000000 30.000000 -1.229073E+01
20.000000 28.000000 -3.267906E+00
20.000000 26.000000 -9.179301E+00
20.000000 24.000000 -1.705691E+01
20.000000 22.000000 -1.973959E+01
20.000000 20.000000 -1.998284E+01
20.000000 18.000000 -1.410588E+01
20.000000 16.000000 -7.569847E-01
20.000000 14.000000 3.523938E+00
20.000000 12.000000 -2.726976E+01
20.000000 10.000000 -1.050650E+02
20.000000 8.000000 -2.035260E+02
20.000000 6.000000 -2.741308E+02
20.000000 4.000000 -2.751400E+02
20.000000 2.000000 -2.178876E+02
20.000000 0.000000 -1.268683E+02
20.000000 -2.000000 -3.700470E+01
20.000000 -4.000000 1.124623E+01
20.000000 -6.000000 1.226859E+01
20.000000 -8.000000 2.941988E+01
20.000000 -10.000000 1.040818E+02
20.000000 -12.000000 2.558399E+02
20.000000 -14.000000 3.852090E+02
20.000000 -16.000000 3.996014E+02
20.000000 -18.000000 2.946380E+02
20.000000 -20.000000 1.508894E+02
20.000000 -22.000000 4.847541E+01
20.000000 -24.000000 1.690216E-01
20.000000 -26.000000 -1.095451E+01
20.000000 -28.000000 -1.305820E+01
20.000000 -30.000000 -1.132787E+01
20.000000 -32.000000 -3.504120E+00
20.000000 -34.000000 2.974434E+00
20.000000 -36.000000 1.175027E+01
20.000000 -38.000000 1.758602E+01
20.000000 -40.000000 2.137841E+01
22.000000 40.000000 5.987697E+01
22.000000 38.000000 3.745771E+01
22.000000 36.000000 5.200587E+00
22.000000 34.000000 -2.632396E+01
22.000000 32.000000 -3.489276E+01
22.000000 30.000000 -2.598269E+01
22.000000 28.000000 -1.809905E+01
22.000000 26.000000 -1.985160E+01
22.000000 24.000000 -2.877606E+01
22.000000 22.000000 -3.308107E+01
22.000000 20.000000 -3.157649E+01
22.000000 18.000000 -1.898234E+01
22.000000 16.000000 1.657613E+00
22.000000 14.000000 1.293519E+01
22.000000 12.000000 -1.294391E+01
22.000000 10.000000 -8.647242E+01
22.000000 8.000000 -1.844413E+02
22.000000 6.000000 -2.587511E+02
22.000000 4.000000 -2.750702E+02
22.000000 2.000000 -2.293920E+02
22.000000 0.000000 -1.408184E+02
22.000000 -2.000000 -4.529118E+01
22.000000 -4.000000 1.833686E+01
22.000000 -6.000000 4.154803E+01
22.000000 -8.000000 7.786737E+01
22.000000 -10.000000 1.691144E+02
22.000000 -12.000000 3.215966E+02
22.000000 -14.000000 4.337569E+02
22.000000 -16.000000 4.120390E+02
22.000000 -18.000000 2.709070E+02
22.000000 -20.000000 1.115127E+02
22.000000 -22.000000 1.595412E+01
22.000000 -24.000000 -1.352395E+01
22.000000 -26.000000 -8.509605E+00
22.000000 -28.000000 -5.447720E+00
22.000000 -30.000000 -1.557102E+00
22.000000 -32.000000 6.717754E+00
22.000000 -34.000000 9.768661E+00
22.000000 -36.000000 1.540159E+01
22.000000 -38.000000 2.017583E+01
22.000000 -40.000000 2.400820E+01
24.000000 40.000000 8.027669E+01
24.000000 38.000000 6.086673E+01
24.000000 36.000000 2.445356E+01
24.000000 34.000000 -1.974761E+01
24.000000 32.000000 -3.958313E+01
24.000000 30.000000 -3.680647E+01
24.000000 28.000000 -3.010141E+01
24.000000 26.000000 -2.800027E+01
24.000000 24.000000 -3.608851E+01
24.000000 22.000000 -4.070073E+01
24.000000 20.000000 -3.834791E+01
24.000000 18.000000 -2.308152E+01
24.000000 16.000000 -1.407976E-01
24.000000 14.000000 1.606173E+01
24.000000 12.000000 -4.066069E+00
24.000000 10.000000 -7.122044E+01
24.000000 8.000000 -1.629970E+02
24.000000 6.000000 -2.291296E+02
24.000000 4.000000 -2.538268E+02
24.000000 2.000000 -2.258882E+02
24.000000 0.000000 -1.466114E+02
24.000000 -2.000000 -4.921368E+01
24.000000 -4.000000 2.969434E+01
24.000000 -6.000000 7.620002E+01
24.000000 -8.000000 1.257237E+02
24.000000 -10.000000 2.205431E+02
24.000000 -12.000000 3.505793E+02
24.000000 -14.000000 4.278834E+02
24.000000 -16.000000 3.754543E+02
24.000000 -18.000000 2.203737E+02
24.000000 -20.000000 6.673610E+01
24.000000 -22.000000 -1.200865E+01
24.000000 -24.000000 -2.064781E+01
24.000000 -26.000000 3.801689E-01
24.000000 -28.000000 1.106033E+01
24.000000 -30.000000 1.784555E+01
24.000000 -32.000000 2.389922E+01
24.000000 -34.000000 2.380631E+01
24.000000 -36.000000 2.391510E+01
24.000000 -38.000000 2.500360E+01
24.000000 -40.000000 2.656251E+01
26.000000 40.000000 9.812821E+01
26.000000 38.000000 8.181530E+01
26.000000 36.000000 4.103435E+01
26.000000 34.000000 -1.330415E+01
26.000000 32.000000 -3.770365E+01
26.000000 30.000000 -3.484958E+01
26.000000 28.000000 -2.906444E+01
26.000000 26.000000 -2.627967E+01
26.000000 24.000000 -3.331595E+01
26.000000 22.000000 -3.872146E+01
26.000000 20.000000 -3.837562E+01
26.000000 18.000000 -2.394673E+01
26.000000 16.000000 -9.993973E-01
26.000000 14.000000 1.532426E+01
26.000000 12.000000 -4.201697E+00
26.000000 10.000000 -7.021114E+01
26.000000 8.000000 -1.599188E+02
26.000000 6.000000 -2.235002E+02
26.000000 4.000000 -2.463078E+02
26.000000 2.000000 -2.189381E+02
26.000000 0.000000 -1.439750E+02
26.000000 -2.000000 -4.530208E+01
26.000000 -4.000000 4.405088E+01
26.000000 -6.000000 1.083358E+02
26.000000 -8.000000 1.675452E+02
26.000000 -10.000000 2.527381E+02
26.000000 -12.000000 3.442893E+02
26.000000 -14.000000 3.797754E+02
26.000000 -16.000000 3.076497E+02
26.000000 -18.000000 1.608032E+02
26.000000 -20.000000 2.847682E+01
26.000000 -22.000000 -2.849826E+01
26.000000 -24.000000 -1.712821E+01
26.000000 -26.000000 1.590272E+01
26.000000 -28.000000 3.199502E+01
26.000000 -30.000000 4.180111E+01
26.000000 -32.000000 4.444454E+01
26.000000 -34.000000 4.141553E+01
26.000000 -36.000000 3.458537E+01
26.000000 -38.000000 2.988374E+01
26.000000 -40.000000 2.701292E+01
28.000000 40.000000 1.105481E+02
28.000000 38.000000 9.477751E+01
28.000000 36.000000 5.319333E+01
28.000000 34.000000 -2.315682E+00
28.000000 32.000000 -2.875552E+01
28.000000 30.000000 -2.532193E+01
28.000000 28.000000 -1.744678E+01
28.000000 26.000000 -1.394546E+01
28.000000 24.000000 -1.986477E+01
28.000000 22.000000 -2.768077E+01
28.000000 20.000000 -3.023665E+01
28.000000 18.000000 -1.876970E+01
28.000000 16.000000 4.597969E-01
28.000000 14.000000 8.950526E+00
28.000000 12.000000 -1.797085E+01
28.000000 10.000000 -8.842769E+01
28.000000 8.000000 -1.771532E+02
28.000000 6.000000 -2.406980E+02
28.000000 4.000000 -2.514472E+02
28.000000 2.000000 -2.086288E+02
28.000000 0.000000 -1.303604E+02
28.000000 -2.000000 -3.130354E+01
28.000000 -4.000000 6.152744E+01
28.000000 -6.000000 1.329032E+02
28.000000 -8.000000 1.920361E+02
28.000000 -10.000000 2.572225E+02
28.000000 -12.000000 3.118967E+02
28.000000 -14.000000 3.150267E+02
28.000000 -16.000000 2.332153E+02
28.000000 -18.000000 1.020037E+02
28.000000 -20.000000 -3.944498E+00
28.000000 -22.000000 -3.598176E+01
28.000000 -24.000000 -5.165192E+00
28.000000 -26.000000 3.679738E+01
28.000000 -28.000000 5.174438E+01
28.000000 -30.000000 6.126661E+01
28.000000 -32.000000 6.226132E+01
28.000000 -34.000000 5.612565E+01
28.000000 -36.000000 4.267432E+01
28.000000 -38.000000 3.312353E+01
28.000000 -40.000000 2.585740E+01
30.000000 40.000000 1.168644E+02
30.000000 38.000000 1.021171E+02
30.000000 36.000000 6.185570E+01
30.000000 34.000000 8.111068E+00
30.000000 32.000000 -2.161755E+01
30.000000 30.000000 -1.887768E+01
30.000000 28.000000 -5.849011E+00
30.000000 26.000000 1.409163E+00
30.000000 24.000000 -2.269585E+00
30.000000 22.000000 -1.255196E+01
30.000000 20.000000 -1.649219E+01
30.000000 18.000000 -9.374923E+00
30.000000 16.000000 1.849809E+00
30.000000 14.000000 -4.575474E-01
30.000000 12.000000 -3.758137E+01
30.000000 10.000000 -1.126525E+02
30.000000 8.000000 -1.908604E+02
30.000000 6.000000 -2.409100E+02
30.000000 4.000000 -2.357217E+02
30.000000 2.000000 -1.857741E+02
30.000000 0.000000 -1.092303E+02
30.000000 -2.000000 -1.649098E+01
30.000000 -4.000000 7.299065E+01
30.000000 -6.000000 1.417871E+02
30.000000 -8.000000 1.903155E+02
30.000000 -10.000000 2.336017E+02
30.000000 -12.000000 2.615049E+02
30.000000 -14.000000 2.467544E+02
30.000000 -16.000000 1.666453E+02
30.000000 -18.000000 5.426146E+01
30.000000 -20.000000 -2.655968E+01
30.000000 -22.000000 -3.739765E+01
30.000000 -24.000000 5.893393E+00
30.000000 -26.000000 5.248602E+01
30.000000 -28.000000 6.471196E+01
30.000000 -30.000000 7.109835E+01
30.000000 -32.000000 7.015649E+01
30.000000 -34.000000 6.129523E+01
30.000000 -36.000000 4.480563E+01
30.000000 -38.000000 3.402449E+01
30.000000 -40.000000 2.477862E+01
32.000000 40.000000 1.164182E+02
32.000000 38.000000 1.060179E+02
32.000000 36.000000 6.526245E+01
32.000000 34.000000 8.090587E+00
32.000000 32.000000 -2.337648E+01
32.000000 30.000000 -1.750409E+01
32.000000 28.000000 1.376205E+00
32.000000 26.000000 1.230321E+01
32.000000 24.000000 1.038395E+01
32.000000 22.000000 -9.027200E-01
32.000000 20.000000 -4.467935E+00
32.000000 18.000000 -1.221249E-01
32.000000 16.000000 5.664403E+00
32.000000 14.000000 -1.857062E+00
32.000000 12.000000 -4.385777E+01
32.000000 10.000000 -1.202241E+02
32.000000 8.000000 -1.832530E+02
32.000000 6.000000 -2.120777E+02
32.000000 4.000000 -1.903635E+02
32.000000 2.000000 -1.449470E+02
32.000000 0.000000 -8.274624E+01
32.000000 -2.000000 -8.005760E+00
32.000000 -4.000000 6.897732E+01
32.000000 -6.000000 1.290653E+02
32.000000 -8.000000 1.650381E+02
32.000000 -10.000000 1.927721E+02
32.000000 -12.000000 2.053349E+02
32.000000 -14.000000 1.851716E+02
32.000000 -16.000000 1.169389E+02
32.000000 -18.000000 2.723749E+01
32.000000 -20.000000 -3.228738E+01
32.000000 -22.000000 -3.323183E+01
32.000000 -24.000000 8.773718E+00
32.000000 -26.000000 5.177321E+01
32.000000 -28.000000 6.419039E+01
32.000000 -30.000000 6.796046E+01
32.000000 -32.000000 6.307798E+01
32.000000 -34.000000 5.325393E+01
32.000000 -36.000000 4.005895E+01
32.000000 -38.000000 3.261253E+01
32.000000 -40.000000 2.536410E+01
34.000000 40.000000 1.102045E+02
34.000000 38.000000 1.013968E+02
34.000000 36.000000 5.838141E+01
34.000000 34.000000 -2.828926E+00
34.000000 32.000000 -3.321131E+01
34.000000 30.000000 -2.288303E+01
34.000000 28.000000 -5.641603E-01
34.000000 26.000000 1.200366E+01
34.000000 24.000000 1.174512E+01
34.000000 22.000000 3.561167E+00
34.000000 20.000000 1.265108E+00
34.000000 18.000000 6.338426E+00
34.000000 16.000000 1.522933E+01
34.000000 14.000000 1.277807E+01
34.000000 12.000000 -2.431113E+01
34.000000 10.000000 -9.569305E+01
34.000000 8.000000 -1.463607E+02
34.000000 6.000000 -1.588301E+02
34.000000 4.000000 -1.295593E+02
34.000000 2.000000 -9.513166E+01
34.000000 0.000000 -5.689339E+01
34.000000 -2.000000 -1.015934E+01
34.000000 -4.000000 4.505757E+01
34.000000 -6.000000 9.490305E+01
34.000000 -8.000000 1.264017E+02
34.000000 -10.000000 1.475993E+02
34.000000 -12.000000 1.562374E+02
34.000000 -14.000000 1.397074E+02
34.000000 -16.000000 8.792957E+01
34.000000 -18.000000 2.071312E+01
34.000000 -20.000000 -2.417002E+01
34.000000 -22.000000 -2.666080E+01
34.000000 -24.000000 4.428679E+00
34.000000 -26.000000 3.792436E+01
34.000000 -28.000000 4.953679E+01
34.000000 -30.000000 5.137731E+01
34.000000 -32.000000 4.379937E+01
34.000000 -34.000000 3.523646E+01
34.000000 -36.000000 3.016321E+01
34.000000 -38.000000 2.978150E+01
34.000000 -40.000000 2.710764E+01
36.000000 40.000000 1.022842E+02
36.000000 38.000000 8.528303E+01
36.000000 36.000000 4.028213E+01
36.000000 34.000000 -1.835969E+01
36.000000 32.000000 -4.665946E+01
36.000000 30.000000 -3.746707E+01
36.000000 28.000000 -1.671017E+01
36.000000 26.000000 -3.302835E+00
36.000000 24.000000 7.337646E-01
36.000000 22.000000 8.980751E-01
36.000000 20.000000 3.343152E+00
36.000000 18.000000 1.407559E+01
36.000000 16.000000 3.080950E+01
36.000000 14.000000 3.786431E+01
36.000000 12.000000 1.114550E+01
36.000000 10.000000 -4.774443E+01
36.000000 8.000000 -8.982912E+01
36.000000 6.000000 -9.404669E+01
36.000000 4.000000 -6.800240E+01
36.000000 2.000000 -4.867639E+01
36.000000 0.000000 -3.553119E+01
36.000000 -2.000000 -1.766565E+01
36.000000 -4.000000 1.488556E+01
36.000000 -6.000000 5.581720E+01
36.000000 -8.000000 8.544394E+01
36.000000 -10.000000 1.030062E+02
36.000000 -12.000000 1.149100E+02
36.000000 -14.000000 1.084577E+02
36.000000 -16.000000 7.426861E+01
36.000000 -18.000000 2.589638E+01
36.000000 -20.000000 -9.465942E+00
36.000000 -22.000000 -1.788093E+01
36.000000 -24.000000 -1.570700E+00
36.000000 -26.000000 2.159262E+01
36.000000 -28.000000 3.026739E+01
36.000000 -30.000000 2.890457E+01
36.000000 -32.000000 2.117202E+01
36.000000 -34.000000 1.460008E+01
36.000000 -36.000000 1.826611E+01
36.000000 -38.000000 2.664773E+01
36.000000 -40.000000 2.803185E+01
38.000000 40.000000 9.473023E+01
38.000000 38.000000 6.571052E+01
38.000000 36.000000 1.867623E+01
38.000000 34.000000 -3.561024E+01
38.000000 32.000000 -6.161406E+01
38.000000 30.000000 -5.625685E+01
38.000000 28.000000 -4.000430E+01
38.000000 26.000000 -2.657171E+01
38.000000 24.000000 -1.845131E+01
38.000000 22.000000 -7.289589E+00
38.000000 20.000000 5.139643E+00
38.000000 18.000000 2.463430E+01
38.000000 16.000000 4.693929E+01
38.000000 14.000000 5.948454E+01
38.000000 12.000000 4.127247E+01
38.000000 10.000000 -2.166449E+00
38.000000 8.000000 -3.624888E+01
38.000000 6.000000 -3.803171E+01
38.000000 4.000000 -1.937913E+01
38.000000 2.000000 -1.353048E+01
38.000000 0.000000 -1.861909E+01
38.000000 -2.000000 -1.979045E+01
38.000000 -4.000000 -2.332050E+00
38.000000 -6.000000 2.854170E+01
38.000000 -8.000000 5.025847E+01
38.000000 -10.000000 6.257690E+01
38.000000 -12.000000 7.780192E+01
38.000000 -14.000000 8.314911E+01
38.000000 -16.000000 6.636743E+01
38.000000 -18.000000 3.520787E+01
38.000000 -20.000000 7.915161E+00
38.000000 -22.000000 -5.602167E+00
38.000000 -24.000000 -3.164434E+00
38.000000 -26.000000 1.022270E+01
38.000000 -28.000000 1.565234E+01
38.000000 -30.000000 1.099346E+01
38.000000 -32.000000 4.767681E+00
38.000000 -34.000000 6.976738E-01
38.000000 -36.000000 9.275490E+00
38.000000 -38.000000 2.265093E+01
38.000000 -40.000000 2.568787E+01
40.000000 40.000000 8.701229E+01
40.000000 38.000000 4.880270E+01
40.000000 36.000000 1.464691E-01
40.000000 34.000000 -5.087506E+01
40.000000 32.000000 -7.110377E+01
40.000000 30.000000 -6.597443E+01
40.000000 28.000000 -5.543694E+01
40.000000 26.000000 -4.493372E+01
40.000000 24.000000 -3.584150E+01
40.000000 22.000000 -1.599434E+01
40.000000 20.000000 3.845312E+00
40.000000 18.000000 2.835512E+01
40.000000 16.000000 5.336008E+01
40.000000 14.000000 7.060240E+01
40.000000 12.000000 5.910224E+01
40.000000 10.000000 2.349511E+01
40.000000 8.000000 -7.253342E+00
40.000000 6.000000 -1.073861E+01
40.000000 4.000000 3.557386E+00
40.000000 2.000000 2.619503E+00
40.000000 0.000000 -1.016877E+01
40.000000 -2.000000 -1.756860E+01
40.000000 -4.000000 -5.913819E+00
40.000000 -6.000000 1.551014E+01
40.000000 -8.000000 2.607918E+01
40.000000 -10.000000 3.207109E+01
40.000000 -12.000000 4.827337E+01
40.000000 -14.000000 6.360547E+01
40.000000 -16.000000 6.303273E+01
40.000000 -18.000000 4.643398E+01
40.000000 -20.000000 2.562424E+01
40.000000 -22.000000 9.861444E+00
40.000000 -24.000000 2.583105E+00
40.000000 -26.000000 5.555408E+00
40.000000 -28.000000 6.958992E+00
40.000000 -30.000000 2.073597E+00
40.000000 -32.000000 -5.906029E-01
