-26.000000 28.000000 -1.638089E+01
-26.000000 26.000000 -3.479223E+01
-26.000000 24.000000 -4.793180E+01
-26.000000 22.000000 -3.965209E+01
-26.000000 20.000000 -1.960035E+01
-26.000000 18.000000 1.497381E+00
-26.000000 16.000000 1.824227E+01
-26.000000 14.000000 3.112709E+01
-26.000000 12.000000 3.584174E+01
-26.000000 10.000000 3.197626E+01
-26.000000 8.000000 2.332035E+01
-26.000000 6.000000 1.935390E+01
-26.000000 4.000000 2.486131E+01
-26.000000 2.000000 2.995760E+01
-26.000000 0.000000 2.883169E+01
-26.000000 -2.000000 2.483868E+01
-26.000000 -4.000000 1.919905E+01
-26.000000 -6.000000 1.668680E+01
-26.000000 -8.000000 2.579299E+01
-26.000000 -10.000000 3.489447E+01
-26.000000 -12.000000 2.564160E+01
-26.000000 -14.000000 1.705685E-01
-26.000000 -16.000000 -1.653040E+01
-26.000000 -18.000000 -8.320477E+00
-26.000000 -20.000000 8.652770E+00
-26.000000 -22.000000 1.830349E+01
-26.000000 -24.000000 1.434764E+01
-26.000000 -26.000000 5.316891E+00
-26.000000 -28.000000 -3.348255E-01
-26.000000 -30.000000 1.007836E+00
-26.000000 -32.000000 8.375912E+00
-26.000000 -34.000000 1.538271E+01
-26.000000 -36.000000 1.518092E+01
-26.000000 -38.000000 1.355419E+01
-26.000000 -40.000000 7.372028E+00
-24.000000 40.000000 -2.921421E+01
-24.000000 38.000000 -3.112250E+01
-24.000000 36.000000 -3.086175E+01
-24.000000 34.000000 -1.995301E+01
-24.000000 32.000000 3.984013E+00
-24.000000 30.000000 1.087335E+01
-24.000000 28.000000 -7.382148E+00
-24.000000 26.000000 -3.411100E+01
-24.000000 24.000000 -4.889830E+01
-24.000000 22.000000 -3.926606E+01
-24.000000 20.000000 -1.837933E+01
-24.000000 18.000000 3.453741E-01
-24.000000 16.000000 1.248824E+01
-24.000000 14.000000 2.464605E+01
-24.000000 12.000000 3.004803E+01
-24.000000 10.000000 2.616281E+01
-24.000000 8.000000 1.423337E+01
-24.000000 6.000000 1.843328E+00
-24.000000 4.000000 1.444238E+00
-24.000000 2.000000 1.119296E+01
-24.000000 0.000000 1.716188E+01
-24.000000 -2.000000 1.969734E+01
-24.000000 -4.000000 1.595374E+01
-24.000000 -6.000000 4.699498E+00
-24.000000 -8.000000 8.925846E+00
-24.000000 -10.000000 1.522481E+01
-24.000000 -12.000000 8.642234E+00
-24.000000 -14.000000 -6.569784E+00
-24.000000 -16.000000 -1.112384E+01
-24.000000 -18.000000 2.697935E+00
-24.000000 -20.000000 2.212533E+01
-24.000000 -22.000000 3.214513E+01
-24.000000 -24.000000 2.808249E+01
-24.000000 -26.000000 1.706448E+01
-24.000000 -28.000000 8.315118E+00
-24.000000 -30.000000 6.073490E+00
-24.000000 -32.000000 1.113874E+01
-24.000000 -34.000000 1.722503E+01
-24.000000 -36.000000 1.738275E+01
-24.000000 -38.000000 1.555306E+01
-24.000000 -40.000000 8.661126E+00
-22.000000 40.000000 -3.043255E+01
-22.000000 38.000000 -3.172155E+01
-22.000000 36.000000 -3.145260E+01
-22.000000 34.000000 -2.072419E+01
-22.000000 32.000000 6.264664E+00
-22.000000 30.000000 1.478722E+01
-22.000000 28.000000 -4.844006E+00
-22.000000 26.000000 -3.200417E+01
-22.000000 24.000000 -4.460572E+01
-22.000000 22.000000 -3.675747E+01
-22.000000 20.000000 -1.892418E+01
-22.000000 18.000000 -6.483756E+00
-22.000000 16.000000 4.263120E-01
-22.000000 14.000000 1.050703E+01
-22.000000 12.000000 1.801849E+01
-22.000000 10.000000 1.792587E+01
-22.000000 8.000000 7.227944E+00
-22.000000 6.000000 -5.119259E+00
-22.000000 4.000000 -6.556876E+00
-22.000000 2.000000 -8.557348E-01
-22.000000 0.000000 1.886589E+00
-22.000000 -2.000000 1.335655E+00
-22.000000 -4.000000 -3.289880E+00
-22.000000 -6.000000 -7.565491E+00
-22.000000 -8.000000 -1.000763E+00
-22.000000 -10.000000 5.689342E+00
-22.000000 -12.000000 2.549786E+00
-22.000000 -14.000000 -6.201434E+00
-22.000000 -16.000000 -4.157004E+00
-22.000000 -18.000000 1.521121E+01
-22.000000 -20.000000 3.869801E+01
-22.000000 -22.000000 5.105947E+01
-22.000000 -24.000000 4.578343E+01
-22.000000 -26.000000 3.170856E+01
-22.000000 -28.000000 1.892080E+01
-22.000000 -30.000000 1.285483E+01
-22.000000 -32.000000 1.491750E+01
-22.000000 -34.000000 1.999514E+01
-22.000000 -36.000000 1.970201E+01
-22.000000 -38.000000 1.655305E+01
-22.000000 -40.000000 9.265249E+00
-20.000000 40.000000 -3.032254E+01
-20.000000 38.000000 -3.283119E+01
-20.000000 36.000000 -3.214132E+01
-20.000000 34.000000 -2.269474E+01
-20.000000 32.000000 -5.756760E-02
-20.000000 30.000000 6.986368E+00
-20.000000 28.000000 -9.666134E+00
-20.000000 26.000000 -3.108146E+01
-20.000000 24.000000 -4.148710E+01
-20.000000 22.000000 -3.696720E+01
-20.000000 20.000000 -2.358423E+01
-20.000000 18.000000 -1.617864E+01
-20.000000 16.000000 -1.250316E+01
-20.000000 14.000000 -4.432916E+00
-20.000000 12.000000 6.151914E+00
-20.000000 10.000000 1.237429E+01
-20.000000 8.000000 6.559783E+00
-20.000000 6.000000 -1.397181E+00
-20.000000 4.000000 -3.103194E+00
-20.000000 2.000000 -3.463504E+00
-20.000000 0.000000 -5.476376E+00
-20.000000 -2.000000 -9.656038E+00
-20.000000 -4.000000 -1.435230E+01
-20.000000 -6.000000 -1.135507E+01
-20.000000 -8.000000 -1.934433E+00
-20.000000 -10.000000 5.015036E+00
-20.000000 -12.000000 2.253699E+00
-20.000000 -14.000000 -5.256707E+00
-20.000000 -16.000000 -4.577427E-01
-20.000000 -18.000000 2.260889E+01
-20.000000 -20.000000 4.897774E+01
-20.000000 -22.000000 6.297153E+01
-20.000000 -24.000000 5.705727E+01
-20.000000 -26.000000 4.177606E+01
-20.000000 -28.000000 2.537501E+01
-20.000000 -30.000000 1.742150E+01
-20.000000 -32.000000 1.860367E+01
-20.000000 -34.000000 2.335412E+01
-20.000000 -36.000000 2.234833E+01
-20.000000 -38.000000 1.794495E+01
-20.000000 -40.000000 9.589157E+00
-18.000000 40.000000 -2.925966E+01
-18.000000 38.000000 -3.477918E+01
-18.000000 36.000000 -3.669777E+01
-18.000000 34.000000 -3.045925E+01
-18.000000 32.000000 -1.078074E+01
-18.000000 30.000000 -3.608017E+00
-18.000000 28.000000 -1.622897E+01
-18.000000 26.000000 -3.690772E+01
-18.000000 24.000000 -4.818387E+01
-18.000000 22.000000 -4.187140E+01
-18.000000 20.000000 -2.917744E+01
-18.000000 18.000000 -2.255124E+01
-18.000000 16.000000 -1.990895E+01
-18.000000 14.000000 -1.329847E+01
-18.000000 12.000000 -1.558506E+00
-18.000000 10.000000 9.834007E+00
-18.000000 8.000000 1.063914E+01
-18.000000 6.000000 6.231656E+00
-18.000000 4.000000 1.345757E+00
-18.000000 2.000000 2.185231E+00
-18.000000 0.000000 3.916679E+00
-18.000000 -2.000000 4.172403E+00
-18.000000 -4.000000 2.010820E+00
-18.000000 -6.000000 1.954989E-01
-18.000000 -8.000000 5.454174E+00
-18.000000 -10.000000 7.023961E+00
-18.000000 -12.000000 -1.302023E+00
-18.000000 -14.000000 -7.912230E+00
-18.000000 -16.000000 9.330940E-02
-18.000000 -18.000000 1.954001E+01
-18.000000 -20.000000 4.300477E+01
-18.000000 -22.000000 5.627468E+01
-18.000000 -24.000000 5.256990E+01
-18.000000 -26.000000 4.129494E+01
-18.000000 -28.000000 2.519891E+01
-18.000000 -30.000000 1.819471E+01
-18.000000 -32.000000 2.117623E+01
-18.000000 -34.000000 2.629816E+01
-18.000000 -36.000000 2.581483E+01
-18.000000 -38.000000 2.120013E+01
-18.000000 -40.000000 1.147633E+01
-16.000000 40.000000 -2.887665E+01
-16.000000 38.000000 -3.738973E+01
-16.000000 36.000000 -4.410370E+01
-16.000000 34.000000 -4.235766E+01
-16.000000 32.000000 -2.141507E+01
-16.000000 30.000000 -1.138050E+01
-16.000000 28.000000 -2.128160E+01
-16.000000 26.000000 -4.458831E+01
-16.000000 24.000000 -5.510467E+01
-16.000000 22.000000 -4.296062E+01
-16.000000 20.000000 -2.860346E+01
-16.000000 18.000000 -2.261941E+01
-16.000000 16.000000 -2.356204E+01
-16.000000 14.000000 -2.115530E+01
-16.000000 12.000000 -1.179068E+01
-16.000000 10.000000 2.585553E+00
-16.000000 8.000000 9.756821E+00
-16.000000 6.000000 1.020889E+01
-16.000000 4.000000 5.478143E+00
-16.000000 2.000000 1.131203E+01
-16.000000 0.000000 1.969932E+01
-16.000000 -2.000000 2.674317E+01
-16.000000 -4.000000 2.798787E+01
-16.000000 -6.000000 1.991984E+01
-16.000000 -8.000000 1.896998E+01
-16.000000 -10.000000 1.483766E+01
-16.000000 -12.000000 5.818751E-01
-16.000000 -14.000000 -7.489875E+00
-16.000000 -16.000000 -2.448642E+00
-16.000000 -18.000000 7.735611E+00
-16.000000 -20.000000 2.414682E+01
-16.000000 -22.000000 3.641507E+01
-16.000000 -24.000000 3.708088E+01
-16.000000 -26.000000 3.113020E+01
-16.000000 -28.000000 2.039740E+01
-16.000000 -30.000000 1.633135E+01
-16.000000 -32.000000 2.125603E+01
-16.000000 -34.000000 2.743645E+01
-16.000000 -36.000000 2.812607E+01
-16.000000 -38.000000 2.414382E+01
-16.000000 -40.000000 1.472086E+01
-14.000000 40.000000 -3.106606E+01
-14.000000 38.000000 -4.124735E+01
-14.000000 36.000000 -5.013437E+01
-14.000000 34.000000 -5.055469E+01
-14.000000 32.000000 -2.878243E+01
-14.000000 30.000000 -1.746684E+01
-14.000000 28.000000 -2.450925E+01
-14.000000 26.000000 -4.329696E+01
-14.000000 24.000000 -4.906271E+01
-14.000000 22.000000 -3.481822E+01
-14.000000 20.000000 -2.041765E+01
-14.000000 18.000000 -1.739448E+01
-14.000000 16.000000 -2.635418E+01
-14.000000 14.000000 -3.409008E+01
-14.000000 12.000000 -3.222051E+01
-14.000000 10.000000 -1.864524E+01
-14.000000 8.000000 -4.330212E+00
-14.000000 6.000000 6.017594E+00
-14.000000 4.000000 1.134857E+01
-14.000000 2.000000 1.843611E+01
-14.000000 0.000000 2.733204E+01
-14.000000 -2.000000 3.535392E+01
-14.000000 -4.000000 3.833678E+01
-14.000000 -6.000000 3.472551E+01
-14.000000 -8.000000 3.280303E+01
-14.000000 -10.000000 2.901433E+01
-14.000000 -12.000000 1.411131E+01
-14.000000 -14.000000 -2.006340E-01
-14.000000 -16.000000 -7.481173E+00
-14.000000 -18.000000 -5.465041E+00
-14.000000 -20.000000 6.205938E+00
-14.000000 -22.000000 1.963705E+01
-14.000000 -24.000000 2.390522E+01
-14.000000 -26.000000 1.999909E+01
-14.000000 -28.000000 1.407876E+01
-14.000000 -30.000000 1.296259E+01
-14.000000 -32.000000 1.895664E+01
-14.000000 -34.000000 2.626457E+01
-14.000000 -36.000000 2.793919E+01
-14.000000 -38.000000 2.503310E+01
-14.000000 -40.000000 1.715592E+01
-12.000000 40.000000 -3.607248E+01
-12.000000 38.000000 -4.599767E+01
-12.000000 36.000000 -5.202691E+01
-12.000000 34.000000 -4.921263E+01
-12.000000 32.000000 -2.911710E+01
-12.000000 30.000000 -1.958568E+01
-12.000000 28.000000 -2.572266E+01
-12.000000 26.000000 -3.730142E+01
-12.000000 24.000000 -3.812818E+01
-12.000000 22.000000 -2.547192E+01
-12.000000 20.000000 -1.133278E+01
-12.000000 18.000000 -1.160676E+01
-12.000000 16.000000 -2.882298E+01
-12.000000 14.000000 -4.780400E+01
-12.000000 12.000000 -5.499600E+01
-12.000000 10.000000 -4.534609E+01
-12.000000 8.000000 -2.442875E+01
-12.000000 6.000000 -4.738321E+00
-12.000000 4.000000 1.010537E+01
-12.000000 2.000000 1.728020E+01
-12.000000 0.000000 2.510320E+01
-12.000000 -2.000000 3.341985E+01
-12.000000 -4.000000 3.774617E+01
-12.000000 -6.000000 3.812548E+01
-12.000000 -8.000000 3.790523E+01
-12.000000 -10.000000 3.681916E+01
-12.000000 -12.000000 2.303270E+01
-12.000000 -14.000000 5.791560E+00
-12.000000 -16.000000 -8.593806E+00
-12.000000 -18.000000 -1.163975E+01
-12.000000 -20.000000 -1.513363E+00
-12.000000 -22.000000 1.378795E+01
-12.000000 -24.000000 1.961702E+01
-12.000000 -26.000000 1.475727E+01
-12.000000 -28.000000 8.998041E+00
-12.000000 -30.000000 9.862189E+00
-12.000000 -32.000000 1.617620E+01
-12.000000 -34.000000 2.335580E+01
-12.000000 -36.000000 2.610220E+01
-12.000000 -38.000000 2.492229E+01
-12.000000 -40.000000 1.743659E+01
-10.000000 40.000000 -4.116149E+01
-10.000000 38.000000 -4.983897E+01
-10.000000 36.000000 -5.201895E+01
-10.000000 34.000000 -4.234641E+01
-10.000000 32.000000 -2.085970E+01
-10.000000 30.000000 -1.321131E+01
-10.000000 28.000000 -2.367077E+01
-10.000000 26.000000 -3.827162E+01
-10.000000 24.000000 -3.837672E+01
-10.000000 22.000000 -2.391513E+01
-10.000000 20.000000 -8.027358E+00
-10.000000 18.000000 -9.060717E+00
-10.000000 16.000000 -2.970100E+01
-10.000000 14.000000 -5.380145E+01
-10.000000 12.000000 -6.658481E+01
-10.000000 10.000000 -6.181703E+01
-10.000000 8.000000 -3.786745E+01
-10.000000 6.000000 -1.497188E+01
-10.000000 4.000000 -2.675426E+00
-10.000000 2.000000 4.569028E+00
-10.000000 0.000000 1.474802E+01
-10.000000 -2.000000 2.648458E+01
-10.000000 -4.000000 3.295623E+01
-10.000000 -6.000000 3.023601E+01
-10.000000 -8.000000 2.849203E+01
-10.000000 -10.000000 2.526140E+01
-10.000000 -12.000000 1.321510E+01
-10.000000 -14.000000 2.597965E+00
-10.000000 -16.000000 -4.042914E+00
-10.000000 -18.000000 -6.023097E+00
-10.000000 -20.000000 4.980165E+00
-10.000000 -22.000000 1.901264E+01
-10.000000 -24.000000 2.344516E+01
-10.000000 -26.000000 1.725043E+01
-10.000000 -28.000000 9.127783E+00
-10.000000 -30.000000 9.849026E+00
-10.000000 -32.000000 1.453556E+01
-10.000000 -34.000000 2.012401E+01
-10.000000 -36.000000 2.332674E+01
-10.000000 -38.000000 2.330510E+01
-10.000000 -40.000000 1.481848E+01
-8.000000 40.000000 -4.422680E+01
-8.000000 38.000000 -5.191060E+01
-8.000000 36.000000 -5.166981E+01
-8.000000 34.000000 -3.428743E+01
-8.000000 32.000000 -8.201195E+00
-8.000000 30.000000 -1.871550E+00
-8.000000 28.000000 -2.097215E+01
-8.000000 26.000000 -4.444262E+01
-8.000000 24.000000 -4.633955E+01
-8.000000 22.000000 -3.014719E+01
-8.000000 20.000000 -1.292649E+01
-8.000000 18.000000 -1.289344E+01
-8.000000 16.000000 -3.263052E+01
-8.000000 14.000000 -5.512673E+01
-8.000000 12.000000 -6.719104E+01
-8.000000 10.000000 -6.170081E+01
-8.000000 8.000000 -3.560901E+01
-8.000000 6.000000 -1.311895E+01
-8.000000 4.000000 -1.231287E+01
-8.000000 2.000000 -1.374692E+01
-8.000000 0.000000 -7.865177E+00
-8.000000 -2.000000 4.020063E+00
-8.000000 -4.000000 1.242790E+01
-8.000000 -6.000000 1.061287E+01
-8.000000 -8.000000 1.100313E+01
-8.000000 -10.000000 8.327238E+00
-8.000000 -12.000000 2.667341E-01
-8.000000 -14.000000 -3.908364E+00
-8.000000 -16.000000 -2.124379E+00
-8.000000 -18.000000 2.679288E+00
-8.000000 -20.000000 1.781685E+01
-8.000000 -22.000000 3.072966E+01
-8.000000 -24.000000 3.163544E+01
-8.000000 -26.000000 2.355150E+01
-8.000000 -28.000000 1.475285E+01
-8.000000 -30.000000 1.356169E+01
-8.000000 -32.000000 1.632994E+01
-8.000000 -34.000000 1.983442E+01
-8.000000 -36.000000 2.010919E+01
-8.000000 -38.000000 1.802547E+01
-8.000000 -40.000000 9.447253E+00
-6.000000 40.000000 -4.518177E+01
-6.000000 38.000000 -5.178880E+01
-6.000000 36.000000 -4.862187E+01
-6.000000 34.000000 -2.650595E+01
-6.000000 32.000000 1.247520E+00
-6.000000 30.000000 5.116919E+00
-6.000000 28.000000 -1.997334E+01
-6.000000 26.000000 -4.685080E+01
-6.000000 24.000000 -5.234537E+01
-6.000000 22.000000 -3.995305E+01
-6.000000 20.000000 -2.527948E+01
-6.000000 18.000000 -2.552012E+01
-6.000000 16.000000 -4.046416E+01
-6.000000 14.000000 -5.640847E+01
-6.000000 12.000000 -6.066480E+01
-6.000000 10.000000 -4.492593E+01
-6.000000 8.000000 -1.637726E+01
-6.000000 6.000000 2.263454E+00
-6.000000 4.000000 -7.605237E+00
-6.000000 2.000000 -2.880698E+01
-6.000000 0.000000 -4.136832E+01
-6.000000 -2.000000 -3.773199E+01
-6.000000 -4.000000 -2.690774E+01
-6.000000 -6.000000 -1.545359E+01
-6.000000 -8.000000 -4.290490E+00
-6.000000 -10.000000 2.088357E+00
-6.000000 -12.000000 1.215630E-01
-6.000000 -14.000000 -6.199178E+00
-6.000000 -16.000000 -7.787436E+00
-6.000000 -18.000000 4.662174E+00
-6.000000 -20.000000 2.699559E+01
-6.000000 -22.000000 4.271876E+01
-6.000000 -24.000000 4.036188E+01
-6.000000 -26.000000 2.877978E+01
-6.000000 -28.000000 2.024933E+01
-6.000000 -30.000000 1.866992E+01
-6.000000 -32.000000 2.102865E+01
-6.000000 -34.000000 2.258554E+01
-6.000000 -36.000000 1.676781E+01
-6.000000 -38.000000 1.065817E+01
-6.000000 -40.000000 2.952997E+00
-4.000000 40.000000 -4.439776E+01
-4.000000 38.000000 -4.892363E+01
-4.000000 36.000000 -4.282665E+01
-4.000000 34.000000 -2.128116E+01
-4.000000 32.000000 4.509731E+00
-4.000000 30.000000 6.286041E+00
-4.000000 28.000000 -1.816709E+01
-4.000000 26.000000 -4.451584E+01
-4.000000 24.000000 -5.667777E+01
-4.000000 22.000000 -5.042371E+01
-4.000000 20.000000 -3.919971E+01
-4.000000 18.000000 -3.923670E+01
-4.000000 16.000000 -4.910762E+01
-4.000000 14.000000 -5.764746E+01
-4.000000 12.000000 -5.154852E+01
-4.000000 10.000000 -2.419384E+01
-4.000000 8.000000 7.255625E+00
-4.000000 6.000000 2.095514E+01
-4.000000 4.000000 7.149696E-03
-4.000000 2.000000 -3.810160E+01
-4.000000 0.000000 -6.626658E+01
-4.000000 -2.000000 -6.918484E+01
-4.000000 -4.000000 -5.608189E+01
-4.000000 -6.000000 -3.562959E+01
-4.000000 -8.000000 -1.507910E+01
-4.000000 -10.000000 5.623112E-01
-4.000000 -12.000000 2.699898E+00
-4.000000 -14.000000 -7.617573E+00
-4.000000 -16.000000 -1.490408E+01
-4.000000 -18.000000 1.464128E+00
-4.000000 -20.000000 2.942375E+01
-4.000000 -22.000000 4.814220E+01
-4.000000 -24.000000 4.330956E+01
-4.000000 -26.000000 2.926895E+01
-4.000000 -28.000000 2.107541E+01
-4.000000 -30.000000 2.066529E+01
-4.000000 -32.000000 2.399583E+01
-4.000000 -34.000000 2.485557E+01
-4.000000 -36.000000 1.396725E+01
-4.000000 -38.000000 4.569532E+00
-4.000000 -40.000000 -2.360867E+00
-2.000000 40.000000 -4.223049E+01
-2.000000 38.000000 -4.469151E+01
-2.000000 36.000000 -3.912941E+01
-2.000000 34.000000 -1.999866E+01
-2.000000 32.000000 5.924593E+00
-2.000000 30.000000 8.648592E+00
-2.000000 28.000000 -1.420009E+01
-2.000000 26.000000 -4.367518E+01
-2.000000 24.000000 -6.224062E+01
-2.000000 22.000000 -5.849289E+01
-2.000000 20.000000 -4.808719E+01
-2.000000 18.000000 -4.677802E+01
-2.000000 16.000000 -5.361547E+01
-2.000000 14.000000 -5.604095E+01
-2.000000 12.000000 -4.212403E+01
-2.000000 10.000000 -8.371988E+00
-2.000000 8.000000 2.488721E+01
-2.000000 6.000000 3.270880E+01
-2.000000 4.000000 -6.836329E-01
-2.000000 2.000000 -4.219324E+01
-2.000000 0.000000 -6.872469E+01
-2.000000 -2.000000 -6.857796E+01
-2.000000 -4.000000 -5.447235E+01
-2.000000 -6.000000 -4.019811E+01
-2.000000 -8.000000 -2.126829E+01
-2.000000 -10.000000 -3.882568E+00
-2.000000 -12.000000 -2.687705E+00
-2.000000 -14.000000 -1.273286E+01
-2.000000 -16.000000 -1.729053E+01
-2.000000 -18.000000 -1.991437E+00
-2.000000 -20.000000 2.330585E+01
-2.000000 -22.000000 4.077208E+01
-2.000000 -24.000000 3.628240E+01
-2.000000 -26.000000 2.357539E+01
-2.000000 -28.000000 1.632190E+01
-2.000000 -30.000000 1.551851E+01
-2.000000 -32.000000 2.013826E+01
-2.000000 -34.000000 2.268621E+01
-2.000000 -36.000000 1.184916E+01
-2.000000 -38.000000 2.190819E+00
-2.000000 -40.000000 -3.813925E+00
0.000000 40.000000 -3.987923E+01
0.000000 38.000000 -4.136802E+01
0.000000 36.000000 -3.936726E+01
0.000000 34.000000 -2.217957E+01
0.000000 32.000000 7.098494E+00
0.000000 30.000000 1.259540E+01
0.000000 28.000000 -9.028759E+00
0.000000 26.000000 -4.165737E+01
0.000000 24.000000 -6.301387E+01
0.000000 22.000000 -5.951040E+01
0.000000 20.000000 -4.861691E+01
0.000000 18.000000 -4.720064E+01
0.000000 16.000000 -5.236352E+01
0.000000 14.000000 -5.016630E+01
0.000000 12.000000 -3.284014E+01
0.000000 10.000000 2.306009E+00
0.000000 8.000000 3.534759E+01
0.000000 6.000000 3.927220E+01
0.000000 4.000000 4.864616E-01
0.000000 2.000000 -3.736761E+01
0.000000 0.000000 -5.658501E+01
0.000000 -2.000000 -5.169717E+01
0.000000 -4.000000 -3.832601E+01
0.000000 -6.000000 -3.165028E+01
0.000000 -8.000000 -1.907446E+01
0.000000 -10.000000 -6.208685E+00
0.000000 -12.000000 -9.186366E+00
0.000000 -14.000000 -1.940861E+01
0.000000 -16.000000 -2.194079E+01
0.000000 -18.000000 -9.619767E+00
0.000000 -20.000000 1.063412E+01
0.000000 -22.000000 2.478854E+01
0.000000 -24.000000 2.192601E+01
0.000000 -26.000000 1.158976E+01
0.000000 -28.000000 4.781505E+00
0.000000 -30.000000 2.605712E+00
0.000000 -32.000000 8.496305E+00
0.000000 -34.000000 1.477791E+01
0.000000 -36.000000 1.029746E+01
0.000000 -38.000000 4.340451E+00
0.000000 -40.000000 -2.102032E-01
2.000000 40.000000 -3.911594E+01
2.000000 38.000000 -4.075598E+01
2.000000 36.000000 -4.039778E+01
2.000000 34.000000 -2.459683E+01
2.000000 32.000000 5.170258E+00
2.000000 30.000000 1.312473E+01
2.000000 28.000000 -3.971088E+00
2.000000 26.000000 -3.207416E+01
2.000000 24.000000 -5.168350E+01
2.000000 22.000000 -5.128132E+01
2.000000 20.000000 -4.251362E+01
2.000000 18.000000 -4.154050E+01
2.000000 16.000000 -4.399676E+01
2.000000 14.000000 -3.780891E+01
2.000000 12.000000 -1.955653E+01
2.000000 10.000000 1.121612E+01
2.000000 8.000000 3.743900E+01
2.000000 6.000000 3.987464E+01
2.000000 4.000000 1.058478E+01
2.000000 2.000000 -2.257033E+01
2.000000 0.000000 -3.991382E+01
2.000000 -2.000000 -3.686534E+01
2.000000 -4.000000 -2.679360E+01
2.000000 -6.000000 -1.885630E+01
2.000000 -8.000000 -1.060902E+01
2.000000 -10.000000 -4.394312E+00
2.000000 -12.000000 -1.232388E+01
2.000000 -14.000000 -2.702591E+01
2.000000 -16.000000 -3.381232E+01
2.000000 -18.000000 -2.347178E+01
2.000000 -20.000000 -5.016207E+00
2.000000 -22.000000 7.764454E+00
2.000000 -24.000000 5.490832E+00
2.000000 -26.000000 -4.266850E+00
2.000000 -28.000000 -1.156425E+01
2.000000 -30.000000 -1.469681E+01
2.000000 -32.000000 -6.365159E+00
2.000000 -34.000000 5.666914E+00
2.000000 -36.000000 1.038124E+01
2.000000 -38.000000 9.208233E+00
2.000000 -40.000000 6.422795E+00
4.000000 40.000000 -3.999562E+01
4.000000 38.000000 -4.224482E+01
4.000000 36.000000 -4.078218E+01
4.000000 34.000000 -2.640477E+01
4.000000 32.000000 4.591503E-01
4.000000 30.000000 1.131179E+01
4.000000 28.000000 7.819996E-01
4.000000 26.000000 -2.008969E+01
4.000000 24.000000 -3.604468E+01
4.000000 22.000000 -3.642287E+01
4.000000 20.000000 -2.824552E+01
4.000000 18.000000 -2.622112E+01
4.000000 16.000000 -2.690399E+01
4.000000 14.000000 -1.974777E+01
4.000000 12.000000 -2.904601E+00
4.000000 10.000000 2.095206E+01
4.000000 8.000000 3.695227E+01
4.000000 6.000000 3.624097E+01
4.000000 4.000000 1.493760E+01
4.000000 2.000000 -1.139619E+01
4.000000 0.000000 -2.494125E+01
4.000000 -2.000000 -2.220612E+01
4.000000 -4.000000 -1.510679E+01
4.000000 -6.000000 -9.972281E+00
4.000000 -8.000000 -7.866322E+00
4.000000 -10.000000 -8.178131E+00
4.000000 -12.000000 -2.057623E+01
4.000000 -14.000000 -3.848421E+01
4.000000 -16.000000 -4.624256E+01
4.000000 -18.000000 -3.621410E+01
4.000000 -20.000000 -1.872834E+01
4.000000 -22.000000 -6.780440E+00
4.000000 -24.000000 -9.158110E+00
4.000000 -26.000000 -1.763402E+01
4.000000 -28.000000 -2.575578E+01
4.000000 -30.000000 -3.025444E+01
4.000000 -32.000000 -1.798919E+01
4.000000 -34.000000 8.628836E-01
4.000000 -36.000000 1.316011E+01
4.000000 -38.000000 1.491328E+01
4.000000 -40.000000 1.308154E+01
6.000000 40.000000 -4.107220E+01
6.000000 38.000000 -4.333112E+01
6.000000 36.000000 -4.273324E+01
6.000000 34.000000 -3.041963E+01
6.000000 32.000000 -3.766205E+00
6.000000 30.000000 1.209070E+01
6.000000 28.000000 6.850281E+00
6.000000 26.000000 -1.211079E+01
6.000000 24.000000 -2.388731E+01
6.000000 22.000000 -1.876304E+01
6.000000 20.000000 -7.318177E+00
6.000000 18.000000 -4.719660E+00
6.000000 16.000000 -7.388789E+00
6.000000 14.000000 -2.972621E+00
6.000000 12.000000 1.087014E+01
6.000000 10.000000 2.842902E+01
6.000000 8.000000 3.334856E+01
6.000000 6.000000 2.608696E+01
6.000000 4.000000 3.717350E+00
6.000000 2.000000 -1.284176E+01
6.000000 0.000000 -1.591824E+01
6.000000 -2.000000 -7.650276E+00
6.000000 -4.000000 -1.463670E+00
6.000000 -6.000000 -6.430873E+00
6.000000 -8.000000 -1.521895E+01
6.000000 -10.000000 -2.375870E+01
6.000000 -12.000000 -3.835910E+01
6.000000 -14.000000 -5.079431E+01
6.000000 -16.000000 -4.876891E+01
6.000000 -18.000000 -3.881246E+01
6.000000 -20.000000 -2.492403E+01
6.000000 -22.000000 -1.592933E+01
6.000000 -24.000000 -1.811055E+01
6.000000 -26.000000 -2.349087E+01
6.000000 -28.000000 -3.152470E+01
6.000000 -30.000000 -3.580334E+01
6.000000 -32.000000 -1.949640E+01
6.000000 -34.000000 2.956238E+00
6.000000 -36.000000 1.754373E+01
6.000000 -38.000000 1.930139E+01
6.000000 -40.000000 1.687966E+01
8.000000 40.000000 -4.160431E+01
8.000000 38.000000 -4.336836E+01
8.000000 36.000000 -4.554593E+01
8.000000 34.000000 -3.592589E+01
8.000000 32.000000 -7.575966E+00
8.000000 30.000000 1.398804E+01
8.000000 28.000000 1.324750E+01
8.000000 26.000000 -4.987295E+00
8.000000 24.000000 -1.237522E+01
8.000000 22.000000 -7.134285E-01
8.000000 20.000000 1.307664E+01
8.000000 18.000000 1.246725E+01
8.000000 16.000000 3.612572E+00
8.000000 14.000000 2.022776E+00
8.000000 12.000000 1.082615E+01
8.000000 10.000000 2.263603E+01
8.000000 8.000000 1.890118E+01
8.000000 6.000000 5.292376E+00
8.000000 4.000000 -1.930521E+01
8.000000 2.000000 -2.718657E+01
8.000000 0.000000 -1.805033E+01
8.000000 -2.000000 -1.010260E+00
8.000000 -4.000000 5.904663E+00
8.000000 -6.000000 -7.756916E+00
8.000000 -8.000000 -2.705763E+01
8.000000 -10.000000 -4.220022E+01
8.000000 -12.000000 -5.139758E+01
8.000000 -14.000000 -5.111463E+01
8.000000 -16.000000 -3.827905E+01
8.000000 -18.000000 -2.625846E+01
8.000000 -20.000000 -1.651349E+01
8.000000 -22.000000 -1.238585E+01
8.000000 -24.000000 -1.628825E+01
8.000000 -26.000000 -2.166133E+01
8.000000 -28.000000 -2.681344E+01
8.000000 -30.000000 -2.685549E+01
8.000000 -32.000000 -9.613420E+00
8.000000 -34.000000 1.042948E+01
8.000000 -36.000000 2.052395E+01
8.000000 -38.000000 1.966317E+01
8.000000 -40.000000 1.605086E+01
10.000000 40.000000 -4.080765E+01
10.000000 38.000000 -4.294205E+01
10.000000 36.000000 -4.611614E+01
10.000000 34.000000 -3.838628E+01
10.000000 32.000000 -1.181125E+01
10.000000 30.000000 1.063659E+01
10.000000 28.000000 1.440851E+01
10.000000 26.000000 3.717119E+00
10.000000 24.000000 1.157221E+00
10.000000 22.000000 1.148011E+01
10.000000 20.000000 2.194308E+01
10.000000 18.000000 1.735857E+01
10.000000 16.000000 2.606007E+00
10.000000 14.000000 -7.163245E+00
10.000000 12.000000 -6.234638E+00
10.000000 10.000000 -2.180300E-01
10.000000 8.000000 -8.899641E+00
10.000000 6.000000 -2.781284E+01
10.000000 4.000000 -4.891312E+01
10.000000 2.000000 -4.971466E+01
10.000000 0.000000 -2.813548E+01
10.000000 -2.000000 1.890879E-01
10.000000 -4.000000 9.597646E+00
10.000000 -6.000000 -9.415327E+00
10.000000 -8.000000 -3.863750E+01
10.000000 -10.000000 -5.725854E+01
10.000000 -12.000000 -5.233619E+01
10.000000 -14.000000 -3.303856E+01
10.000000 -16.000000 -9.549644E+00
10.000000 -18.000000 6.259716E+00
10.000000 -20.000000 1.045636E+01
10.000000 -22.000000 6.665298E+00
10.000000 -24.000000 -3.591791E+00
10.000000 -26.000000 -1.282535E+01
10.000000 -28.000000 -1.605584E+01
10.000000 -30.000000 -1.168926E+01
10.000000 -32.000000 4.890462E+00
10.000000 -34.000000 2.010122E+01
10.000000 -36.000000 2.121856E+01
10.000000 -38.000000 1.603067E+01
10.000000 -40.000000 1.150734E+01
12.000000 40.000000 -3.632082E+01
12.000000 38.000000 -4.053444E+01
12.000000 36.000000 -4.379788E+01
12.000000 34.000000 -3.779442E+01
12.000000 32.000000 -1.613424E+01
12.000000 30.000000 2.017821E+00
12.000000 28.000000 6.699473E+00
12.000000 26.000000 1.637535E+00
12.000000 24.000000 1.087764E+00
12.000000 22.000000 9.233986E+00
12.000000 20.000000 1.863330E+01
12.000000 18.000000 1.518871E+01
12.000000 16.000000 -5.129776E-01
12.000000 14.000000 -1.555046E+01
12.000000 12.000000 -2.339707E+01
12.000000 10.000000 -2.785109E+01
12.000000 8.000000 -4.421234E+01
12.000000 6.000000 -6.986751E+01
12.000000 4.000000 -8.771263E+01
12.000000 2.000000 -7.600935E+01
12.000000 0.000000 -3.532543E+01
12.000000 -2.000000 1.011528E+01
12.000000 -4.000000 2.346715E+01
12.000000 -6.000000 -9.094619E+00
12.000000 -8.000000 -5.444311E+01
12.000000 -10.000000 -7.640182E+01
12.000000 -12.000000 -4.996634E+01
12.000000 -14.000000 -5.812712E-01
12.000000 -16.000000 4.305281E+01
12.000000 -18.000000 6.091190E+01
12.000000 -20.000000 5.250511E+01
12.000000 -22.000000 3.462313E+01
12.000000 -24.000000 1.327059E+01
12.000000 -26.000000 -1.273623E+00
12.000000 -28.000000 -6.113759E+00
12.000000 -30.000000 -1.345007E+00
12.000000 -32.000000 1.610374E+01
12.000000 -34.000000 2.813837E+01
12.000000 -36.000000 2.012967E+01
12.000000 -38.000000 1.049364E+01
12.000000 -40.000000 5.640862E+00
14.000000 40.000000 -2.845628E+01
14.000000 38.000000 -3.495198E+01
14.000000 36.000000 -4.025341E+01
14.000000 34.000000 -3.683804E+01
14.000000 32.000000 -1.842005E+01
14.000000 30.000000 -4.086894E+00
14.000000 28.000000 -2.925443E+00
14.000000 26.000000 -1.187300E+01
14.000000 24.000000 -1.401935E+01
14.000000 22.000000 -3.284427E+00
14.000000 20.000000 1.046305E+01
14.000000 18.000000 1.312999E+01
14.000000 16.000000 7.730598E-01
14.000000 14.000000 -1.551060E+01
14.000000 12.000000 -3.198462E+01
14.000000 10.000000 -5.087465E+01
14.000000 8.000000 -7.844975E+01
14.000000 6.000000 -1.137034E+02
14.000000 4.000000 -1.320044E+02
14.000000 2.000000 -1.029266E+02
14.000000 0.000000 -3.747024E+01
14.000000 -2.000000 2.941818E+01
14.000000 -4.000000 4.729929E+01
14.000000 -6.000000 -8.469905E+00
14.000000 -8.000000 -7.517814E+01
14.000000 -10.000000 -1.008945E+02
14.000000 -12.000000 -4.783605E+01
14.000000 -14.000000 4.278465E+01
14.000000 -16.000000 1.153519E+02
14.000000 -18.000000 1.290833E+02
14.000000 -20.000000 9.841310E+01
14.000000 -22.000000 5.998181E+01
14.000000 -24.000000 2.511676E+01
14.000000 -26.000000 5.294415E+00
14.000000 -28.000000 -2.256850E+00
14.000000 -30.000000 1.080370E-01
14.000000 -32.000000 1.755563E+01
14.000000 -34.000000 2.833005E+01
14.000000 -36.000000 1.713459E+01
14.000000 -38.000000 6.618345E+00
14.000000 -40.000000 1.987616E+00
16.000000 40.000000 -2.063366E+01
16.000000 38.000000 -2.854795E+01
16.000000 36.000000 -3.631775E+01
16.000000 34.000000 -3.418371E+01
16.000000 32.000000 -1.571971E+01
16.000000 30.000000 -3.157944E+00
16.000000 28.000000 -6.501018E+00
16.000000 26.000000 -2.067074E+01
16.000000 24.000000 -2.477763E+01
16.000000 22.000000 -1.137674E+01
16.000000 20.000000 6.836517E+00
16.000000 18.000000 1.558554E+01
16.000000 16.000000 7.341039E+00
16.000000 14.000000 -1.031990E+01
16.000000 12.000000 -3.625256E+01
16.000000 10.000000 -6.960867E+01
16.000000 8.000000 -1.074088E+02
16.000000 6.000000 -1.484966E+02
16.000000 4.000000 -1.644788E+02
16.000000 2.000000 -1.237012E+02
16.000000 0.000000 -4.359562E+01
16.000000 -2.000000 3.362370E+01
16.000000 -4.000000 5.098469E+01
16.000000 -6.000000 -1.701650E+01
16.000000 -8.000000 -8.995896E+01
16.000000 -10.000000 -1.063620E+02
16.000000 -12.000000 -2.405092E+01
16.000000 -14.000000 9.635561E+01
16.000000 -16.000000 1.804513E+02
16.000000 -18.000000 1.828219E+02
16.000000 -20.000000 1.312391E+02
16.000000 -22.000000 7.373133E+01
16.000000 -24.000000 2.657542E+01
16.000000 -26.000000 1.433234E+00
16.000000 -28.000000 -6.571838E+00
16.000000 -30.000000 -4.335280E+00
16.000000 -32.000000 9.539873E+00
16.000000 -34.000000 1.939122E+01
16.000000 -36.000000 1.278635E+01
16.000000 -38.000000 6.671083E+00
16.000000 -40.000000 3.187099E+00
18.000000 40.000000 -1.537691E+01
18.000000 38.000000 -2.400547E+01
18.000000 36.000000 -3.108754E+01
18.000000 34.000000 -2.654209E+01
18.000000 32.000000 -5.073846E+00
18.000000 30.000000 7.347934E+00
18.000000 28.000000 1.169465E+00
18.000000 26.000000 -1.294290E+01
18.000000 24.000000 -1.881289E+01
18.000000 22.000000 -7.870628E+00
18.000000 20.000000 9.767638E+00
18.000000 18.000000 2.150771E+01
18.000000 16.000000 1.797809E+01
18.000000 14.000000 -2.666529E+00
18.000000 12.000000 -3.901089E+01
18.000000 10.000000 -8.637711E+01
18.000000 8.000000 -1.326599E+02
18.000000 6.000000 -1.724106E+02
18.000000 4.000000 -1.796324E+02
18.000000 2.000000 -1.372869E+02
18.000000 0.000000 -5.810708E+01
18.000000 -2.000000 1.562333E+01
18.000000 -4.000000 3.060340E+01
18.000000 -6.000000 -3.077914E+01
18.000000 -8.000000 -9.330130E+01
18.000000 -10.000000 -8.992714E+01
18.000000 -12.000000 1.921521E+01
18.000000 -14.000000 1.533347E+02
18.000000 -16.000000 2.275939E+02
18.000000 -18.000000 2.086818E+02
18.000000 -20.000000 1.377271E+02
18.000000 -22.000000 6.866791E+01
18.000000 -24.000000 1.529823E+01
18.000000 -26.000000 -1.174719E+01
18.000000 -28.000000 -1.785275E+01
18.000000 -30.000000 -1.392576E+01
18.000000 -32.000000 -2.793030E+00
18.000000 -34.000000 7.851980E+00
18.000000 -36.000000 8.557963E+00
18.000000 -38.000000 9.703440E+00
18.000000 -40.000000 8.612160E+00
20.000000 40.000000 -1.059397E+01
20.000000 38.000000 -1.975016E+01
20.000000 36.000000 -2.448180E+01
20.000000 34.000000 -1.449070E+01
20.000000 32.000000 1.417758E+01
20.000000 30.000000 2.981089E+01
20.000000 28.000000 2.042284E+01
20.000000 26.000000 1.275840E+00
20.000000 24.000000 -1.115584E+01
20.000000 22.000000 -2.737277E+00
20.000000 20.000000 1.619742E+01
20.000000 18.000000 3.119419E+01
20.000000 16.000000 3.041449E+01
20.000000 14.000000 8.972683E+00
20.000000 12.000000 -3.443790E+01
20.000000 10.000000 -9.353712E+01
20.000000 8.000000 -1.480286E+02
20.000000 6.000000 -1.872939E+02
20.000000 4.000000 -1.886598E+02
20.000000 2.000000 -1.447317E+02
20.000000 0.000000 -6.962089E+01
20.000000 -2.000000 -1.212927E+00
20.000000 -4.000000 1.321773E+01
20.000000 -6.000000 -4.000104E+01
20.000000 -8.000000 -8.646437E+01
20.000000 -10.000000 -6.450272E+01
20.000000 -12.000000 5.967164E+01
20.000000 -14.000000 1.972612E+02
20.000000 -16.000000 2.549043E+02
20.000000 -18.000000 2.085094E+02
20.000000 -20.000000 1.182661E+02
20.000000 -22.000000 4.329220E+01
20.000000 -24.000000 -8.128035E+00
20.000000 -26.000000 -2.927608E+01
20.000000 -28.000000 -3.250886E+01
20.000000 -30.000000 -2.715826E+01
20.000000 -32.000000 -1.492774E+01
20.000000 -34.000000 -8.029480E-01
20.000000 -36.000000 6.728359E+00
20.000000 -38.000000 1.528134E+01
20.000000 -40.000000 1.647756E+01
22.000000 40.000000 -3.925283E+00
22.000000 38.000000 -1.338179E+01
22.000000 36.000000 -1.946462E+01
22.000000 34.000000 -4.349235E+00
22.000000 32.000000 3.705706E+01
22.000000 30.000000 6.090544E+01
22.000000 28.000000 4.500743E+01
22.000000 26.000000 1.099196E+01
22.000000 24.000000 -1.019479E+01
22.000000 22.000000 8.904910E-02
22.000000 20.000000 2.359595E+01
22.000000 18.000000 4.212826E+01
22.000000 16.000000 4.290606E+01
22.000000 14.000000 2.498495E+01
22.000000 12.000000 -2.074641E+01
22.000000 10.000000 -8.862832E+01
22.000000 8.000000 -1.497602E+02
22.000000 6.000000 -1.887831E+02
22.000000 4.000000 -1.880245E+02
22.000000 2.000000 -1.401609E+02
22.000000 0.000000 -6.835667E+01
22.000000 -2.000000 -4.913004E+00
22.000000 -4.000000 7.761944E+00
22.000000 -6.000000 -4.105818E+01
22.000000 -8.000000 -6.665310E+01
22.000000 -10.000000 -2.923631E+01
22.000000 -12.000000 8.886863E+01
22.000000 -14.000000 2.110439E+02
22.000000 -16.000000 2.503984E+02
22.000000 -18.000000 1.842476E+02
22.000000 -20.000000 8.190279E+01
22.000000 -22.000000 3.358872E+00
22.000000 -24.000000 -3.844890E+01
22.000000 -26.000000 -4.681554E+01
22.000000 -28.000000 -4.583639E+01
22.000000 -30.000000 -3.876982E+01
22.000000 -32.000000 -2.264814E+01
22.000000 -34.000000 -3.746738E+00
22.000000 -36.000000 1.014658E+01
22.000000 -38.000000 2.246953E+01
22.000000 -40.000000 2.449844E+01
24.000000 40.000000 4.474903E+00
24.000000 38.000000 -5.504427E+00
24.000000 36.000000 -1.643869E+01
24.000000 34.000000 3.554361E-01
24.000000 32.000000 5.371517E+01
24.000000 30.000000 8.582800E+01
24.000000 28.000000 6.342198E+01
24.000000 26.000000 1.755971E+01
24.000000 24.000000 -7.996932E+00
24.000000 22.000000 5.436864E+00
24.000000 20.000000 3.308726E+01
24.000000 18.000000 5.360720E+01
24.000000 16.000000 5.551433E+01
24.000000 14.000000 4.123116E+01
24.000000 12.000000 -4.746223E+00
24.000000 10.000000 -7.572204E+01
24.000000 8.000000 -1.366627E+02
24.000000 6.000000 -1.690338E+02
24.000000 4.000000 -1.621086E+02
24.000000 2.000000 -1.158767E+02
24.000000 0.000000 -5.391151E+01
24.000000 -2.000000 -2.784880E+00
24.000000 -4.000000 4.945288E+00
24.000000 -6.000000 -3.132722E+01
24.000000 -8.000000 -3.794092E+01
24.000000 -10.000000 9.940992E+00
24.000000 -12.000000 1.094868E+02
24.000000 -14.000000 1.975790E+02
24.000000 -16.000000 2.082189E+02
24.000000 -18.000000 1.323709E+02
24.000000 -20.000000 3.188521E+01
24.000000 -22.000000 -3.866358E+01
24.000000 -24.000000 -6.570752E+01
24.000000 -26.000000 -6.199372E+01
24.000000 -28.000000 -5.362431E+01
24.000000 -30.000000 -4.183473E+01
24.000000 -32.000000 -2.227497E+01
24.000000 -34.000000 7.844143E-01
24.000000 -36.000000 1.891332E+01
24.000000 -38.000000 3.003688E+01
24.000000 -40.000000 3.146530E+01
26.000000 40.000000 1.339554E+01
26.000000 38.000000 1.693528E+00
26.000000 36.000000 -1.118724E+01
26.000000 34.000000 3.266587E+00
26.000000 32.000000 5.373596E+01
26.000000 30.000000 8.498921E+01
26.000000 28.000000 6.651634E+01
26.000000 26.000000 2.716065E+01
26.000000 24.000000 4.509010E+00
26.000000 22.000000 1.541349E+01
26.000000 20.000000 4.460660E+01
26.000000 18.000000 6.697962E+01
26.000000 16.000000 6.905937E+01
26.000000 14.000000 5.236088E+01
26.000000 12.000000 5.291452E+00
26.000000 10.000000 -6.088396E+01
26.000000 8.000000 -1.130757E+02
26.000000 6.000000 -1.314512E+02
26.000000 4.000000 -1.114843E+02
26.000000 2.000000 -7.146821E+01
26.000000 0.000000 -2.498801E+01
26.000000 -2.000000 7.745784E+00
26.000000 -4.000000 7.765901E+00
26.000000 -6.000000 -1.471546E+01
26.000000 -8.000000 -1.063519E+01
26.000000 -10.000000 3.789075E+01
26.000000 -12.000000 1.131240E+02
26.000000 -14.000000 1.629518E+02
26.000000 -16.000000 1.422940E+02
26.000000 -18.000000 6.167782E+01
26.000000 -20.000000 -2.660220E+01
26.000000 -22.000000 -7.754444E+01
26.000000 -24.000000 -8.423378E+01
26.000000 -26.000000 -6.762294E+01
26.000000 -28.000000 -5.190034E+01
26.000000 -30.000000 -3.475070E+01
26.000000 -32.000000 -1.261991E+01
26.000000 -34.000000 1.301278E+01
26.000000 -36.000000 3.172998E+01
26.000000 -38.000000 3.914352E+01
26.000000 -40.000000 3.755573E+01
28.000000 40.000000 2.220236E+01
28.000000 38.000000 8.152990E+00
28.000000 36.000000 -4.637462E+00
28.000000 34.000000 1.933354E+00
28.000000 32.000000 3.837242E+01
28.000000 30.000000 6.458065E+01
28.000000 28.000000 5.756230E+01
28.000000 26.000000 3.199096E+01
28.000000 24.000000 1.505226E+01
28.000000 22.000000 2.596939E+01
28.000000 20.000000 5.752686E+01
28.000000 18.000000 8.140816E+01
28.000000 16.000000 8.014616E+01
28.000000 14.000000 5.638326E+01
28.000000 12.000000 7.703579E+00
28.000000 10.000000 -5.102369E+01
28.000000 8.000000 -8.905463E+01
28.000000 6.000000 -9.160857E+01
28.000000 4.000000 -5.935447E+01
28.000000 2.000000 -1.805968E+01
28.000000 0.000000 2.150795E+01
28.000000 -2.000000 4.173437E+01
28.000000 -4.000000 3.251809E+01
28.000000 -6.000000 5.047664E+00
28.000000 -8.000000 2.887686E+00
28.000000 -10.000000 3.800116E+01
28.000000 -12.000000 8.666894E+01
28.000000 -14.000000 1.086621E+02
28.000000 -16.000000 7.138345E+01
28.000000 -18.000000 -7.405679E+00
28.000000 -20.000000 -7.885900E+01
28.000000 -22.000000 -1.073985E+02
28.000000 -24.000000 -9.084237E+01
28.000000 -26.000000 -5.930481E+01
28.000000 -28.000000 -3.904367E+01
28.000000 -30.000000 -1.887667E+01
28.000000 -32.000000 6.161511E+00
28.000000 -34.000000 3.279550E+01
28.000000 -36.000000 4.822507E+01
28.000000 -38.000000 4.960052E+01
28.000000 -40.000000 4.182181E+01
30.000000 40.000000 3.055262E+01
30.000000 38.000000 1.429099E+01
30.000000 36.000000 -2.138402E+00
30.000000 34.000000 -8.196577E+00
30.000000 32.000000 1.588691E+01
30.000000 30.000000 4.161575E+01
30.000000 28.000000 4.446816E+01
30.000000 26.000000 2.585991E+01
30.000000 24.000000 1.384739E+01
30.000000 22.000000 2.943874E+01
30.000000 20.000000 6.496015E+01
30.000000 18.000000 8.862156E+01
30.000000 16.000000 8.091583E+01
30.000000 14.000000 5.071667E+01
30.000000 12.000000 2.705268E+00
30.000000 10.000000 -4.780546E+01
30.000000 8.000000 -6.941229E+01
30.000000 6.000000 -5.699268E+01
30.000000 4.000000 -1.628560E+01
30.000000 2.000000 3.101417E+01
30.000000 0.000000 7.119608E+01
30.000000 -2.000000 8.532123E+01
30.000000 -4.000000 6.712894E+01
30.000000 -6.000000 2.299556E+01
30.000000 -8.000000 2.516301E+00
30.000000 -10.000000 1.415943E+01
30.000000 -12.000000 3.584325E+01
30.000000 -14.000000 4.133284E+01
30.000000 -16.000000 7.833006E+00
30.000000 -18.000000 -5.596010E+01
30.000000 -20.000000 -1.064882E+02
30.000000 -22.000000 -1.164884E+02
30.000000 -24.000000 -8.245702E+01
30.000000 -26.000000 -4.016820E+01
30.000000 -28.000000 -1.728489E+01
30.000000 -30.000000 5.724443E+00
30.000000 -32.000000 3.212420E+01
30.000000 -34.000000 5.711502E+01
30.000000 -36.000000 6.496106E+01
30.000000 -38.000000 5.824983E+01
30.000000 -40.000000 4.315710E+01
32.000000 40.000000 3.638283E+01
32.000000 38.000000 1.719318E+01
32.000000 36.000000 -4.585989E+00
32.000000 34.000000 -2.209848E+01
32.000000 32.000000 -5.771934E+00
32.000000 30.000000 2.100164E+01
32.000000 28.000000 2.975510E+01
32.000000 26.000000 1.439300E+01
32.000000 24.000000 3.870209E+00
32.000000 22.000000 2.161466E+01
32.000000 20.000000 5.765758E+01
32.000000 18.000000 7.767764E+01
32.000000 16.000000 6.411104E+01
32.000000 14.000000 3.253142E+01
32.000000 12.000000 -8.849514E+00
32.000000 10.000000 -4.591872E+01
32.000000 8.000000 -4.957185E+01
32.000000 6.000000 -2.306740E+01
32.000000 4.000000 2.292142E+01
32.000000 2.000000 6.677071E+01
32.000000 0.000000 9.871581E+01
32.000000 -2.000000 1.029064E+02
32.000000 -4.000000 7.640453E+01
32.000000 -6.000000 2.744889E+01
32.000000 -8.000000 -3.600023E+00
32.000000 -10.000000 -1.135570E+01
32.000000 -12.000000 -8.792192E+00
32.000000 -14.000000 -1.458050E+01
32.000000 -16.000000 -3.960415E+01
32.000000 -18.000000 -7.814068E+01
32.000000 -20.000000 -1.024306E+02
32.000000 -22.000000 -9.613865E+01
32.000000 -24.000000 -5.714422E+01
32.000000 -26.000000 -1.524800E+01
32.000000 -28.000000 9.449355E+00
32.000000 -30.000000 3.491379E+01
32.000000 -32.000000 5.826573E+01
32.000000 -34.000000 7.879037E+01
32.000000 -36.000000 7.707327E+01
32.000000 -38.000000 6.256501E+01
32.000000 -40.000000 4.093099E+01
34.000000 40.000000 3.778547E+01
34.000000 38.000000 1.398254E+01
34.000000 36.000000 -1.095925E+01
34.000000 34.000000 -3.218195E+01
34.000000 32.000000 -1.920330E+01
34.000000 30.000000 2.663462E+00
34.000000 28.000000 1.029240E+01
34.000000 26.000000 -3.035793E-01
34.000000 24.000000 -9.923857E+00
34.000000 22.000000 3.533553E+00
34.000000 20.000000 3.205077E+01
34.000000 18.000000 4.577807E+01
34.000000 16.000000 3.190085E+01
34.000000 14.000000 6.157523E+00
34.000000 12.000000 -2.211588E+01
34.000000 10.000000 -3.965744E+01
34.000000 8.000000 -2.651742E+01
34.000000 6.000000 9.116970E+00
34.000000 4.000000 5.492236E+01
34.000000 2.000000 8.418606E+01
34.000000 0.000000 9.861071E+01
34.000000 -2.000000 9.174100E+01
34.000000 -4.000000 6.215982E+01
34.000000 -6.000000 2.202631E+01
34.000000 -8.000000 -7.347617E+00
34.000000 -10.000000 -2.358793E+01
34.000000 -12.000000 -3.300435E+01
34.000000 -14.000000 -4.566888E+01
34.000000 -16.000000 -6.153939E+01
34.000000 -18.000000 -7.503476E+01
34.000000 -20.000000 -7.577530E+01
34.000000 -22.000000 -5.912286E+01
34.000000 -24.000000 -2.369973E+01
34.000000 -26.000000 1.211433E+01
34.000000 -28.000000 3.416205E+01
34.000000 -30.000000 5.754363E+01
34.000000 -32.000000 7.676263E+01
34.000000 -34.000000 9.330251E+01
34.000000 -36.000000 8.417343E+01
34.000000 -38.000000 6.290595E+01
34.000000 -40.000000 3.388650E+01
36.000000 40.000000 3.644943E+01
36.000000 38.000000 6.671254E+00
36.000000 36.000000 -2.090444E+01
36.000000 34.000000 -3.903326E+01
36.000000 32.000000 -2.490961E+01
36.000000 30.000000 -1.046381E+01
36.000000 28.000000 -1.123236E+01
36.000000 26.000000 -2.382934E+01
36.000000 24.000000 -3.350369E+01
36.000000 22.000000 -2.052982E+01
36.000000 20.000000 5.546227E-01
36.000000 18.000000 8.839199E+00
36.000000 16.000000 -7.912230E-01
36.000000 14.000000 -1.548046E+01
36.000000 12.000000 -2.796872E+01
36.000000 10.000000 -2.945795E+01
36.000000 8.000000 -6.808339E+00
36.000000 6.000000 3.004561E+01
36.000000 4.000000 6.569203E+01
36.000000 2.000000 8.153822E+01
36.000000 0.000000 8.541464E+01
36.000000 -2.000000 7.628831E+01
36.000000 -4.000000 5.172489E+01
36.000000 -6.000000 1.894242E+01
36.000000 -8.000000 -5.793244E+00
36.000000 -10.000000 -2.436116E+01
36.000000 -12.000000 -4.052266E+01
36.000000 -14.000000 -5.213722E+01
36.000000 -16.000000 -5.646884E+01
36.000000 -18.000000 -5.451915E+01
36.000000 -20.000000 -4.320635E+01
36.000000 -22.000000 -2.549283E+01
36.000000 -24.000000 3.397583E+00
36.000000 -26.000000 3.375562E+01
36.000000 -28.000000 4.892803E+01
36.000000 -30.000000 6.558221E+01
36.000000 -32.000000 8.292360E+01
36.000000 -34.000000 9.749793E+01
36.000000 -36.000000 8.488692E+01
36.000000 -38.000000 5.916731E+01
36.000000 -40.000000 2.310297E+01
38.000000 40.000000 3.430785E+01
38.000000 38.000000 -2.642920E+00
38.000000 36.000000 -3.554160E+01
38.000000 34.000000 -4.673646E+01
38.000000 32.000000 -2.411136E+01
38.000000 30.000000 -1.302387E+01
38.000000 28.000000 -2.557048E+01
38.000000 26.000000 -4.792504E+01
38.000000 24.000000 -5.806061E+01
38.000000 22.000000 -3.950711E+01
38.000000 20.000000 -2.039494E+01
38.000000 18.000000 -1.603811E+01
38.000000 16.000000 -2.180853E+01
38.000000 14.000000 -2.369098E+01
38.000000 12.000000 -2.315624E+01
38.000000 10.000000 -1.782658E+01
38.000000 8.000000 4.594042E+00
38.000000 6.000000 3.480881E+01
38.000000 4.000000 5.307690E+01
38.000000 2.000000 5.900764E+01
38.000000 0.000000 6.041477E+01
38.000000 -2.000000 5.940448E+01
38.000000 -4.000000 4.693225E+01
38.000000 -6.000000 2.034679E+01
38.000000 -8.000000 2.653543E+00
38.000000 -10.000000 -1.402107E+01
38.000000 -12.000000 -3.283120E+01
38.000000 -14.000000 -3.871859E+01
38.000000 -16.000000 -3.382855E+01
38.000000 -18.000000 -2.897185E+01
38.000000 -20.000000 -1.952404E+01
38.000000 -22.000000 -6.999629E+00
38.000000 -24.000000 1.567240E+01
38.000000 -26.000000 4.022185E+01
38.000000 -28.000000 4.875671E+01
38.000000 -30.000000 6.039087E+01
38.000000 -32.000000 7.608280E+01
38.000000 -34.000000 8.815689E+01
38.000000 -36.000000 7.445832E+01
38.000000 -38.000000 4.919800E+01
38.000000 -40.000000 1.311981E+01
40.000000 40.000000 2.879925E+01
40.000000 38.000000 -1.393121E+01
40.000000 36.000000 -5.153765E+01
40.000000 34.000000 -5.377675E+01
40.000000 32.000000 -1.781518E+01
40.000000 30.000000 -5.900393E+00
40.000000 28.000000 -2.706356E+01
40.000000 26.000000 -5.530461E+01
40.000000 24.000000 -6.328765E+01
40.000000 22.000000 -4.006731E+01
40.000000 20.000000 -2.030538E+01
40.000000 18.000000 -1.901688E+01
40.000000 16.000000 -2.260959E+01
40.000000 14.000000 -1.584690E+01
40.000000 12.000000 -8.629632E+00
40.000000 10.000000 -4.173062E+00
40.000000 8.000000 7.951383E+00
40.000000 6.000000 2.361740E+01
40.000000 4.000000 2.706414E+01
40.000000 2.000000 2.460037E+01
40.000000 0.000000 2.374941E+01
40.000000 -2.000000 2.763032E+01
40.000000 -4.000000 2.564979E+01
40.000000 -6.000000 1.597583E+01
40.000000 -8.000000 1.283490E+01
40.000000 -10.000000 7.988934E+00
40.000000 -12.000000 -6.487394E+00
40.000000 -14.000000 -1.471589E+01
40.000000 -16.000000 -1.617234E+01
40.000000 -18.000000 -1.532095E+01
40.000000 -20.000000 -1.044668E+01
40.000000 -22.000000 -1.164671E+00
40.000000 -24.000000 1.496595E+01
40.000000 -26.000000 3.016272E+01
40.000000 -28.000000 3.615502E+01
40.000000 -30.000000 4.695921E+01
40.000000 -32.000000 5.920642E+01
40.000000 -34.000000 6.812793E+01
40.000000 -36.000000 5.497011E+01
40.000000 -38.000000 3.399278E+01
40.000000 -40.000000 5.580111E+00
42.000000 40.000000 1.620853E+01
42.000000 38.000000 -2.513598E+01
42.000000 36.000000 -5.790297E+01
42.000000 34.000000 -5.412002E+01
42.000000 32.000000 -1.193106E+01
42.000000 30.000000 5.019059E+00
42.000000 28.000000 -1.206546E+01
42.000000 26.000000 -3.525497E+01
42.000000 24.000000 -4.176734E+01
42.000000 22.000000 -2.348827E+01
42.000000 20.000000 -5.462260E+00
42.000000 18.000000 -4.212115E+00
42.000000 16.000000 -6.475250E+00
42.000000 14.000000 9.152131E-01
42.000000 12.000000 9.624188E+00
42.000000 10.000000 1.117849E+01
42.000000 8.000000 8.657510E+00
42.000000 6.000000 6.242893E+00
42.000000 4.000000 6.403630E-01
42.000000 2.000000 -7.669124E+00
42.000000 0.000000 -1.159633E+01
42.000000 -2.000000 -7.628771E+00
42.000000 -4.000000 -4.028512E+00
42.000000 -6.000000 2.827217E+00
42.000000 -8.000000 1.616497E+01
42.000000 -10.000000 2.598429E+01
42.000000 -12.000000 1.617167E+01
42.000000 -14.000000 8.882108E-01
