-18.000000 34.000000 8.825595E+00
-18.000000 32.000000 1.079519E+01
-18.000000 30.000000 1.122951E+01
-18.000000 28.000000 8.058777E+00
-18.000000 26.000000 3.566740E+00
-18.000000 24.000000 -3.963697E+00
-18.000000 22.000000 -1.657848E+01
-18.000000 20.000000 -2.194863E+01
-18.000000 18.000000 -1.868645E+01
-18.000000 16.000000 -8.538372E+00
-18.000000 14.000000 -2.609171E+00
-18.000000 12.000000 -9.201556E+00
-18.000000 10.000000 -1.686935E+01
-18.000000 8.000000 -1.888300E+01
-18.000000 6.000000 -1.589314E+01
-18.000000 4.000000 -1.453949E+01
-18.000000 2.000000 -1.539937E+01
-18.000000 0.000000 -1.527735E+01
-18.000000 -2.000000 -1.374366E+01
-18.000000 -4.000000 -8.793212E+00
-18.000000 -6.000000 -2.139130E-01
-18.000000 -8.000000 3.353304E+00
-18.000000 -10.000000 3.726859E-01
-18.000000 -12.000000 6.530605E+00
-18.000000 -14.000000 1.615432E+01
-18.000000 -16.000000 2.216163E+01
-18.000000 -18.000000 2.239601E+01
-18.000000 -20.000000 2.188203E+01
-18.000000 -22.000000 2.209999E+01
-18.000000 -24.000000 2.196742E+01
-18.000000 -26.000000 2.348545E+01
-18.000000 -28.000000 2.267574E+01
-18.000000 -30.000000 1.691121E+01
-18.000000 -32.000000 1.497953E+01
-18.000000 -34.000000 1.661898E+01
-18.000000 -36.000000 2.068516E+01
-18.000000 -38.000000 1.966960E+01
-18.000000 -40.000000 1.701804E+01
-16.000000 40.000000 1.318238E+01
-16.000000 38.000000 1.289619E+01
-16.000000 36.000000 1.243018E+01
-16.000000 34.000000 1.091265E+01
-16.000000 32.000000 8.924273E+00
-16.000000 30.000000 1.005388E+01
-16.000000 28.000000 6.138501E+00
-16.000000 26.000000 -3.623360E+00
-16.000000 24.000000 -1.837227E+01
-16.000000 22.000000 -3.141671E+01
-16.000000 20.000000 -3.410982E+01
-16.000000 18.000000 -2.591980E+01
-16.000000 16.000000 -1.358031E+01
-16.000000 14.000000 -9.670716E+00
-16.000000 12.000000 -2.021123E+01
-16.000000 10.000000 -3.388737E+01
-16.000000 8.000000 -3.278855E+01
-16.000000 6.000000 -1.989235E+01
-16.000000 4.000000 -6.413986E+00
-16.000000 2.000000 9.936638E-01
-16.000000 0.000000 5.001410E+00
-16.000000 -2.000000 7.236620E+00
-16.000000 -4.000000 1.338852E+01
-16.000000 -6.000000 2.334294E+01
-16.000000 -8.000000 2.460564E+01
-16.000000 -10.000000 1.862741E+01
-16.000000 -12.000000 1.971815E+01
-16.000000 -14.000000 2.623514E+01
-16.000000 -16.000000 2.899307E+01
-16.000000 -18.000000 2.744250E+01
-16.000000 -20.000000 2.498102E+01
-16.000000 -22.000000 2.333938E+01
-16.000000 -24.000000 2.098323E+01
-16.000000 -26.000000 2.102978E+01
-16.000000 -28.000000 2.018114E+01
-16.000000 -30.000000 1.233193E+01
-16.000000 -32.000000 9.918879E+00
-16.000000 -34.000000 1.378352E+01
-16.000000 -36.000000 2.016038E+01
-16.000000 -38.000000 2.297778E+01
-16.000000 -40.000000 2.374552E+01
-14.000000 40.000000 2.949345E+01
-14.000000 38.000000 2.861919E+01
-14.000000 36.000000 2.480977E+01
-14.000000 34.000000 1.867443E+01
-14.000000 32.000000 1.364262E+01
-14.000000 30.000000 1.320767E+01
-14.000000 28.000000 6.145199E+00
-14.000000 26.000000 -7.405662E+00
-14.000000 24.000000 -2.692404E+01
-14.000000 22.000000 -3.912336E+01
-14.000000 20.000000 -3.698180E+01
-14.000000 18.000000 -2.338469E+01
-14.000000 16.000000 -1.026514E+01
-14.000000 14.000000 -1.285859E+01
-14.000000 12.000000 -3.387087E+01
-14.000000 10.000000 -6.075508E+01
-14.000000 8.000000 -5.652906E+01
-14.000000 6.000000 -3.138570E+01
-14.000000 4.000000 -2.065586E+00
-14.000000 2.000000 1.596928E+01
-14.000000 0.000000 2.443349E+01
-14.000000 -2.000000 2.735714E+01
-14.000000 -4.000000 3.451309E+01
-14.000000 -6.000000 4.481924E+01
-14.000000 -8.000000 4.286715E+01
-14.000000 -10.000000 3.493478E+01
-14.000000 -12.000000 3.318364E+01
-14.000000 -14.000000 3.665553E+01
-14.000000 -16.000000 3.367779E+01
-14.000000 -18.000000 2.738867E+01
-14.000000 -20.000000 2.219252E+01
-14.000000 -22.000000 2.035479E+01
-14.000000 -24.000000 1.981480E+01
-14.000000 -26.000000 1.966099E+01
-14.000000 -28.000000 1.674635E+01
-14.000000 -30.000000 8.876345E+00
-14.000000 -32.000000 7.253203E+00
-14.000000 -34.000000 1.104764E+01
-14.000000 -36.000000 1.713087E+01
-14.000000 -38.000000 2.255364E+01
-14.000000 -40.000000 2.780424E+01
-12.000000 40.000000 4.592122E+01
-12.000000 38.000000 4.753091E+01
-12.000000 36.000000 4.455386E+01
-12.000000 34.000000 3.842043E+01
-12.000000 32.000000 3.043885E+01
-12.000000 30.000000 2.315018E+01
-12.000000 28.000000 7.471973E+00
-12.000000 26.000000 -1.135662E+01
-12.000000 24.000000 -3.189313E+01
-12.000000 22.000000 -3.925061E+01
-12.000000 20.000000 -3.092890E+01
-12.000000 18.000000 -1.223194E+01
-12.000000 16.000000 3.262901E-02
-12.000000 14.000000 -8.976761E+00
-12.000000 12.000000 -4.002592E+01
-12.000000 10.000000 -7.675424E+01
-12.000000 8.000000 -7.432044E+01
-12.000000 6.000000 -4.237794E+01
-12.000000 4.000000 1.368869E+00
-12.000000 2.000000 2.813203E+01
-12.000000 0.000000 3.870740E+01
-12.000000 -2.000000 4.076027E+01
-12.000000 -4.000000 4.604080E+01
-12.000000 -6.000000 5.311107E+01
-12.000000 -8.000000 4.834994E+01
-12.000000 -10.000000 3.873870E+01
-12.000000 -12.000000 3.668953E+01
-12.000000 -14.000000 3.884005E+01
-12.000000 -16.000000 3.146493E+01
-12.000000 -18.000000 2.012924E+01
-12.000000 -20.000000 1.382919E+01
-12.000000 -22.000000 1.466985E+01
-12.000000 -24.000000 1.924477E+01
-12.000000 -26.000000 2.133526E+01
-12.000000 -28.000000 1.547423E+01
-12.000000 -30.000000 7.397338E+00
-12.000000 -32.000000 6.834291E+00
-12.000000 -34.000000 9.109767E+00
-12.000000 -36.000000 1.338656E+01
-12.000000 -38.000000 2.024211E+01
-12.000000 -40.000000 2.935313E+01
-10.000000 40.000000 6.154528E+01
-10.000000 38.000000 6.841979E+01
-10.000000 36.000000 7.062634E+01
-10.000000 34.000000 6.863206E+01
-10.000000 32.000000 5.684925E+01
-10.000000 30.000000 3.793809E+01
-10.000000 28.000000 9.851170E+00
-10.000000 26.000000 -1.477030E+01
-10.000000 24.000000 -3.258691E+01
-10.000000 22.000000 -3.088332E+01
-10.000000 20.000000 -1.575312E+01
-10.000000 18.000000 6.282105E+00
-10.000000 16.000000 1.589067E+01
-10.000000 14.000000 3.267095E+00
-10.000000 12.000000 -3.078944E+01
-10.000000 10.000000 -7.017384E+01
-10.000000 8.000000 -7.324659E+01
-10.000000 6.000000 -4.316439E+01
-10.000000 4.000000 3.854553E+00
-10.000000 2.000000 3.364388E+01
-10.000000 0.000000 4.379930E+01
-10.000000 -2.000000 4.221248E+01
-10.000000 -4.000000 4.307647E+01
-10.000000 -6.000000 4.599327E+01
-10.000000 -8.000000 3.890314E+01
-10.000000 -10.000000 2.694887E+01
-10.000000 -12.000000 2.607897E+01
-10.000000 -14.000000 2.961486E+01
-10.000000 -16.000000 2.278078E+01
-10.000000 -18.000000 1.060471E+01
-10.000000 -20.000000 4.229863E+00
-10.000000 -22.000000 8.377534E+00
-10.000000 -24.000000 1.840622E+01
-10.000000 -26.000000 2.448428E+01
-10.000000 -28.000000 1.627094E+01
-10.000000 -30.000000 6.208639E+00
-10.000000 -32.000000 6.136053E+00
-10.000000 -34.000000 7.065868E+00
-10.000000 -36.000000 1.027930E+01
-10.000000 -38.000000 1.835944E+01
-10.000000 -40.000000 3.011517E+01
-8.000000 40.000000 7.577002E+01
-8.000000 38.000000 8.942457E+01
-8.000000 36.000000 9.737397E+01
-8.000000 34.000000 9.940191E+01
-8.000000 32.000000 8.325034E+01
-8.000000 30.000000 5.284642E+01
-8.000000 28.000000 1.499488E+01
-8.000000 26.000000 -1.173837E+01
-8.000000 24.000000 -2.331556E+01
-8.000000 22.000000 -1.157890E+01
-8.000000 20.000000 1.117518E+01
-8.000000 18.000000 3.418180E+01
-8.000000 16.000000 3.731289E+01
-8.000000 14.000000 2.089801E+01
-8.000000 12.000000 -1.156605E+01
-8.000000 10.000000 -4.918853E+01
-8.000000 8.000000 -5.688608E+01
-8.000000 6.000000 -3.453913E+01
-8.000000 4.000000 3.432846E+00
-8.000000 2.000000 2.853833E+01
-8.000000 0.000000 3.539595E+01
-8.000000 -2.000000 3.013014E+01
-8.000000 -4.000000 2.763613E+01
-8.000000 -6.000000 2.895680E+01
-8.000000 -8.000000 2.184028E+01
-8.000000 -10.000000 8.876133E+00
-8.000000 -12.000000 1.045106E+01
-8.000000 -14.000000 1.736742E+01
-8.000000 -16.000000 1.479214E+01
-8.000000 -18.000000 6.370685E+00
-8.000000 -20.000000 8.613453E-01
-8.000000 -22.000000 5.280857E+00
-8.000000 -24.000000 1.669402E+01
-8.000000 -26.000000 2.328424E+01
-8.000000 -28.000000 1.461616E+01
-8.000000 -30.000000 3.363897E+00
-8.000000 -32.000000 2.158402E+00
-8.000000 -34.000000 3.367723E+00
-8.000000 -36.000000 8.091098E+00
-8.000000 -38.000000 1.836037E+01
-8.000000 -40.000000 3.200060E+01
-6.000000 40.000000 8.865738E+01
-6.000000 38.000000 1.078001E+02
-6.000000 36.000000 1.196817E+02
-6.000000 34.000000 1.225654E+02
-6.000000 32.000000 1.016311E+02
-6.000000 30.000000 6.358069E+01
-6.000000 28.000000 2.218144E+01
-6.000000 26.000000 -1.768595E+00
-6.000000 24.000000 -4.028703E+00
-6.000000 22.000000 1.710446E+01
-6.000000 20.000000 4.543095E+01
-6.000000 18.000000 6.259094E+01
-6.000000 16.000000 5.582340E+01
-6.000000 14.000000 3.576701E+01
-6.000000 12.000000 5.467109E+00
-6.000000 10.000000 -2.544278E+01
-6.000000 8.000000 -3.229872E+01
-6.000000 6.000000 -1.879876E+01
-6.000000 4.000000 3.575039E+00
-6.000000 2.000000 1.479578E+01
-6.000000 0.000000 1.418633E+01
-6.000000 -2.000000 1.004720E+01
-6.000000 -4.000000 9.027664E+00
-6.000000 -6.000000 1.141221E+01
-6.000000 -8.000000 6.307832E+00
-6.000000 -10.000000 -4.997279E+00
-6.000000 -12.000000 -7.546825E-01
-6.000000 -14.000000 1.024381E+01
-6.000000 -16.000000 1.171350E+01
-6.000000 -18.000000 7.105969E+00
-6.000000 -20.000000 3.718062E+00
-6.000000 -22.000000 6.973865E+00
-6.000000 -24.000000 1.596357E+01
-6.000000 -26.000000 1.912047E+01
-6.000000 -28.000000 1.067189E+01
-6.000000 -30.000000 1.755190E-02
-6.000000 -32.000000 -1.989582E+00
-6.000000 -34.000000 7.530880E-01
-6.000000 -36.000000 7.720654E+00
-6.000000 -38.000000 1.940194E+01
-6.000000 -40.000000 3.331589E+01
-4.000000 40.000000 1.003999E+02
-4.000000 38.000000 1.208346E+02
-4.000000 36.000000 1.334818E+02
-4.000000 34.000000 1.326321E+02
-4.000000 32.000000 1.065954E+02
-4.000000 30.000000 6.653839E+01
-4.000000 28.000000 2.836939E+01
-4.000000 26.000000 1.059721E+01
-4.000000 24.000000 1.830848E+01
-4.000000 22.000000 4.674770E+01
-4.000000 20.000000 7.558665E+01
-4.000000 18.000000 7.970009E+01
-4.000000 16.000000 6.201607E+01
-4.000000 14.000000 4.023310E+01
-4.000000 12.000000 1.572650E+01
-4.000000 10.000000 -2.409658E+00
-4.000000 8.000000 -3.446916E+00
-4.000000 6.000000 3.157254E+00
-4.000000 4.000000 8.058641E+00
-4.000000 2.000000 2.142556E+00
-4.000000 0.000000 -6.881686E+00
-4.000000 -2.000000 -8.954768E+00
-4.000000 -4.000000 -6.843582E+00
-4.000000 -6.000000 -2.229023E+00
-4.000000 -8.000000 -4.698963E+00
-4.000000 -10.000000 -1.300173E+01
-4.000000 -12.000000 -6.137765E+00
-4.000000 -14.000000 8.073741E+00
-4.000000 -16.000000 1.299797E+01
-4.000000 -18.000000 9.388015E+00
-4.000000 -20.000000 6.308003E+00
-4.000000 -22.000000 1.073118E+01
-4.000000 -24.000000 1.822620E+01
-4.000000 -26.000000 1.877698E+01
-4.000000 -28.000000 8.705113E+00
-4.000000 -30.000000 -1.612158E+00
-4.000000 -32.000000 -1.571088E+00
-4.000000 -34.000000 3.118519E+00
-4.000000 -36.000000 1.016709E+01
-4.000000 -38.000000 1.994517E+01
-4.000000 -40.000000 3.167098E+01
-2.000000 40.000000 1.105597E+02
-2.000000 38.000000 1.274426E+02
-2.000000 36.000000 1.355573E+02
-2.000000 34.000000 1.274322E+02
-2.000000 32.000000 9.720786E+01
-2.000000 30.000000 6.025442E+01
-2.000000 28.000000 3.153927E+01
-2.000000 26.000000 2.133511E+01
-2.000000 24.000000 3.517514E+01
-2.000000 22.000000 6.437170E+01
-2.000000 20.000000 8.671226E+01
-2.000000 18.000000 7.834445E+01
-2.000000 16.000000 5.555524E+01
-2.000000 14.000000 3.642167E+01
-2.000000 12.000000 2.296202E+01
-2.000000 10.000000 1.932111E+01
-2.000000 8.000000 2.435239E+01
-2.000000 6.000000 2.742980E+01
-2.000000 4.000000 1.698970E+01
-2.000000 2.000000 -1.612520E+00
-2.000000 0.000000 -1.563624E+01
-2.000000 -2.000000 -1.750140E+01
-2.000000 -4.000000 -1.391984E+01
-2.000000 -6.000000 -8.859862E+00
-2.000000 -8.000000 -9.351851E+00
-2.000000 -10.000000 -1.397479E+01
-2.000000 -12.000000 -5.480646E+00
-2.000000 -14.000000 9.254629E+00
-2.000000 -16.000000 1.520882E+01
-2.000000 -18.000000 9.232829E+00
-2.000000 -20.000000 4.962543E+00
-2.000000 -22.000000 1.240865E+01
-2.000000 -24.000000 2.124729E+01
-2.000000 -26.000000 2.174149E+01
-2.000000 -28.000000 1.027220E+01
-2.000000 -30.000000 -8.196115E-02
-2.000000 -32.000000 2.256352E+00
-2.000000 -34.000000 9.355323E+00
-2.000000 -36.000000 1.517456E+01
-2.000000 -38.000000 2.093677E+01
-2.000000 -40.000000 2.965371E+01
0.000000 40.000000 1.185249E+02
0.000000 38.000000 1.275204E+02
0.000000 36.000000 1.256012E+02
0.000000 34.000000 1.081492E+02
0.000000 32.000000 7.572359E+01
0.000000 30.000000 4.562674E+01
0.000000 28.000000 2.948079E+01
0.000000 26.000000 2.544617E+01
0.000000 24.000000 3.906782E+01
0.000000 22.000000 6.212269E+01
0.000000 20.000000 7.461295E+01
0.000000 18.000000 6.031217E+01
0.000000 16.000000 4.186357E+01
0.000000 14.000000 3.208782E+01
0.000000 12.000000 3.087497E+01
0.000000 10.000000 3.785230E+01
0.000000 8.000000 4.416543E+01
0.000000 6.000000 4.429956E+01
0.000000 4.000000 2.729994E+01
0.000000 2.000000 4.370802E+00
0.000000 0.000000 -1.123599E+01
0.000000 -2.000000 -1.300119E+01
0.000000 -4.000000 -9.322256E+00
0.000000 -6.000000 -6.071187E+00
0.000000 -8.000000 -6.900413E+00
0.000000 -10.000000 -8.046070E+00
0.000000 -12.000000 1.708903E+00
0.000000 -14.000000 1.416965E+01
0.000000 -16.000000 1.564483E+01
0.000000 -18.000000 6.317833E+00
0.000000 -20.000000 2.058534E+00
0.000000 -22.000000 1.098557E+01
0.000000 -24.000000 2.324891E+01
0.000000 -26.000000 2.608943E+01
0.000000 -28.000000 1.560989E+01
0.000000 -30.000000 6.346484E+00
0.000000 -32.000000 9.034058E+00
0.000000 -34.000000 1.766946E+01
0.000000 -36.000000 2.209946E+01
0.000000 -38.000000 2.324548E+01
0.000000 -40.000000 2.842989E+01
2.000000 40.000000 1.236382E+02
2.000000 38.000000 1.220253E+02
2.000000 36.000000 1.072213E+02
2.000000 34.000000 7.920807E+01
2.000000 32.000000 4.696429E+01
2.000000 30.000000 2.541239E+01
2.000000 28.000000 1.900296E+01
2.000000 26.000000 1.909485E+01
2.000000 24.000000 2.880592E+01
2.000000 22.000000 4.066301E+01
2.000000 20.000000 4.479428E+01
2.000000 18.000000 3.480053E+01
2.000000 16.000000 2.621761E+01
2.000000 14.000000 2.809414E+01
2.000000 12.000000 3.664266E+01
2.000000 10.000000 4.691297E+01
2.000000 8.000000 4.807029E+01
2.000000 6.000000 4.443246E+01
2.000000 4.000000 3.084084E+01
2.000000 2.000000 1.371790E+01
2.000000 0.000000 1.001445E+00
2.000000 -2.000000 1.747489E-01
2.000000 -4.000000 3.483512E+00
2.000000 -6.000000 4.243412E+00
2.000000 -8.000000 1.866221E+00
2.000000 -10.000000 3.446745E+00
2.000000 -12.000000 1.406532E+01
2.000000 -14.000000 2.372375E+01
2.000000 -16.000000 2.071368E+01
2.000000 -18.000000 8.208522E+00
2.000000 -20.000000 3.938471E+00
2.000000 -22.000000 1.279160E+01
2.000000 -24.000000 2.728483E+01
2.000000 -26.000000 3.293873E+01
2.000000 -28.000000 2.513119E+01
2.000000 -30.000000 1.761992E+01
2.000000 -32.000000 1.986465E+01
2.000000 -34.000000 2.720420E+01
2.000000 -36.000000 2.902542E+01
2.000000 -38.000000 2.556301E+01
2.000000 -40.000000 2.465765E+01
4.000000 40.000000 1.249372E+02
4.000000 38.000000 1.126372E+02
4.000000 36.000000 8.635219E+01
4.000000 34.000000 4.915385E+01
4.000000 32.000000 1.757801E+01
4.000000 30.000000 2.437391E+00
4.000000 28.000000 1.129662E+00
4.000000 26.000000 3.043283E+00
4.000000 24.000000 7.676323E+00
4.000000 22.000000 1.134162E+01
4.000000 20.000000 1.151195E+01
4.000000 18.000000 7.978685E+00
4.000000 16.000000 7.921883E+00
4.000000 14.000000 1.729081E+01
4.000000 12.000000 2.976591E+01
4.000000 10.000000 3.671939E+01
4.000000 8.000000 3.082095E+01
4.000000 6.000000 2.503465E+01
4.000000 4.000000 2.165056E+01
4.000000 2.000000 2.027696E+01
4.000000 0.000000 1.890392E+01
4.000000 -2.000000 2.064413E+01
4.000000 -4.000000 2.397317E+01
4.000000 -6.000000 2.297966E+01
4.000000 -8.000000 1.890947E+01
4.000000 -10.000000 1.873616E+01
4.000000 -12.000000 2.835242E+01
4.000000 -14.000000 3.764906E+01
4.000000 -16.000000 3.529275E+01
4.000000 -18.000000 2.112324E+01
4.000000 -20.000000 1.484795E+01
4.000000 -22.000000 2.098184E+01
4.000000 -24.000000 3.407422E+01
4.000000 -26.000000 4.127279E+01
4.000000 -28.000000 3.661893E+01
4.000000 -30.000000 3.081064E+01
4.000000 -32.000000 3.258001E+01
4.000000 -34.000000 3.721863E+01
4.000000 -36.000000 3.498837E+01
4.000000 -38.000000 2.625594E+01
4.000000 -40.000000 1.756665E+01
6.000000 40.000000 1.219991E+02
6.000000 38.000000 1.013903E+02
6.000000 36.000000 6.901309E+01
6.000000 34.000000 2.724546E+01
6.000000 32.000000 -5.161335E+00
6.000000 30.000000 -1.866689E+01
6.000000 28.000000 -2.017619E+01
6.000000 26.000000 -1.848802E+01
6.000000 24.000000 -1.730832E+01
6.000000 22.000000 -1.483170E+01
6.000000 20.000000 -1.479341E+01
6.000000 18.000000 -1.486960E+01
6.000000 16.000000 -1.176118E+01
6.000000 14.000000 -2.437050E+00
6.000000 12.000000 8.450586E+00
6.000000 10.000000 9.747459E+00
6.000000 8.000000 -8.518267E-01
6.000000 6.000000 -6.861778E+00
6.000000 4.000000 1.857824E+00
6.000000 2.000000 2.104387E+01
6.000000 0.000000 3.748769E+01
6.000000 -2.000000 4.712353E+01
6.000000 -4.000000 5.229526E+01
6.000000 -6.000000 4.802066E+01
6.000000 -8.000000 3.796265E+01
6.000000 -10.000000 3.141105E+01
6.000000 -12.000000 3.890445E+01
6.000000 -14.000000 5.059200E+01
6.000000 -16.000000 5.330801E+01
6.000000 -18.000000 4.237862E+01
6.000000 -20.000000 3.284597E+01
6.000000 -22.000000 3.285768E+01
6.000000 -24.000000 4.080268E+01
6.000000 -26.000000 4.766478E+01
6.000000 -28.000000 4.544571E+01
6.000000 -30.000000 4.117416E+01
6.000000 -32.000000 4.333034E+01
6.000000 -34.000000 4.670456E+01
6.000000 -36.000000 4.007477E+01
6.000000 -38.000000 2.495987E+01
6.000000 -40.000000 8.805095E+00
8.000000 40.000000 1.164224E+02
8.000000 38.000000 9.110722E+01
8.000000 36.000000 5.770186E+01
8.000000 34.000000 1.723612E+01
8.000000 32.000000 -1.605776E+01
8.000000 30.000000 -3.312697E+01
8.000000 28.000000 -3.916566E+01
8.000000 26.000000 -3.859425E+01
8.000000 24.000000 -3.786620E+01
8.000000 22.000000 -3.180139E+01
8.000000 20.000000 -2.936414E+01
8.000000 18.000000 -2.853709E+01
8.000000 16.000000 -2.759344E+01
8.000000 14.000000 -2.350162E+01
8.000000 12.000000 -1.785729E+01
8.000000 10.000000 -2.261236E+01
8.000000 8.000000 -3.556414E+01
8.000000 6.000000 -4.177134E+01
8.000000 4.000000 -2.524742E+01
8.000000 2.000000 1.191745E+01
8.000000 0.000000 4.867407E+01
8.000000 -2.000000 7.382948E+01
8.000000 -4.000000 8.322028E+01
8.000000 -6.000000 7.274087E+01
8.000000 -8.000000 5.129543E+01
8.000000 -10.000000 3.420502E+01
8.000000 -12.000000 3.901432E+01
8.000000 -14.000000 5.565036E+01
8.000000 -16.000000 6.724109E+01
8.000000 -18.000000 6.337831E+01
8.000000 -20.000000 5.157348E+01
8.000000 -22.000000 4.460396E+01
8.000000 -24.000000 4.485072E+01
8.000000 -26.000000 4.826057E+01
8.000000 -28.000000 4.662115E+01
8.000000 -30.000000 4.397395E+01
8.000000 -32.000000 4.820534E+01
8.000000 -34.000000 5.249893E+01
8.000000 -36.000000 4.253049E+01
8.000000 -38.000000 2.185595E+01
8.000000 -40.000000 2.489572E-01
10.000000 40.000000 1.097417E+02
10.000000 38.000000 8.383543E+01
10.000000 36.000000 5.283985E+01
10.000000 34.000000 1.734577E+01
10.000000 32.000000 -1.576564E+01
10.000000 30.000000 -3.852976E+01
10.000000 28.000000 -4.911327E+01
10.000000 26.000000 -4.872889E+01
10.000000 24.000000 -4.672481E+01
10.000000 22.000000 -3.590813E+01
10.000000 20.000000 -2.975023E+01
10.000000 18.000000 -2.843880E+01
10.000000 16.000000 -3.227356E+01
10.000000 14.000000 -3.573182E+01
10.000000 12.000000 -3.810570E+01
10.000000 10.000000 -4.972923E+01
10.000000 8.000000 -6.569066E+01
10.000000 6.000000 -7.373208E+01
10.000000 4.000000 -5.404972E+01
10.000000 2.000000 -5.409935E+00
10.000000 0.000000 4.886562E+01
10.000000 -2.000000 9.161615E+01
10.000000 -4.000000 1.087639E+02
10.000000 -6.000000 9.151403E+01
10.000000 -8.000000 5.590777E+01
10.000000 -10.000000 2.740764E+01
10.000000 -12.000000 2.892883E+01
10.000000 -14.000000 5.206589E+01
10.000000 -16.000000 7.490936E+01
10.000000 -18.000000 7.643375E+01
10.000000 -20.000000 6.200500E+01
10.000000 -22.000000 4.840705E+01
10.000000 -24.000000 4.113412E+01
10.000000 -26.000000 4.037583E+01
10.000000 -28.000000 3.772222E+01
10.000000 -30.000000 3.715696E+01
10.000000 -32.000000 4.485958E+01
10.000000 -34.000000 5.171413E+01
10.000000 -36.000000 4.034658E+01
10.000000 -38.000000 1.719022E+01
10.000000 -40.000000 -6.835850E+00
12.000000 40.000000 1.024276E+02
12.000000 38.000000 8.023157E+01
12.000000 36.000000 5.433933E+01
12.000000 34.000000 2.217711E+01
12.000000 32.000000 -1.083463E+01
12.000000 30.000000 -3.481716E+01
12.000000 28.000000 -4.437692E+01
12.000000 26.000000 -4.216277E+01
12.000000 24.000000 -3.883839E+01
12.000000 22.000000 -2.581472E+01
12.000000 20.000000 -1.628862E+01
12.000000 18.000000 -1.376296E+01
12.000000 16.000000 -2.238935E+01
12.000000 14.000000 -3.411592E+01
12.000000 12.000000 -4.676376E+01
12.000000 10.000000 -6.607513E+01
12.000000 8.000000 -8.667556E+01
12.000000 6.000000 -9.814653E+01
12.000000 4.000000 -7.952205E+01
12.000000 2.000000 -2.828969E+01
12.000000 0.000000 3.718405E+01
12.000000 -2.000000 9.519628E+01
12.000000 -4.000000 1.216510E+02
12.000000 -6.000000 1.005686E+02
12.000000 -8.000000 5.369367E+01
12.000000 -10.000000 1.707603E+01
12.000000 -12.000000 1.842631E+01
12.000000 -14.000000 4.889132E+01
12.000000 -16.000000 7.980776E+01
12.000000 -18.000000 7.979356E+01
12.000000 -20.000000 5.862645E+01
12.000000 -22.000000 3.893209E+01
12.000000 -24.000000 2.778118E+01
12.000000 -26.000000 2.470994E+01
12.000000 -28.000000 2.065612E+01
12.000000 -30.000000 2.149785E+01
12.000000 -32.000000 3.232272E+01
12.000000 -34.000000 4.197667E+01
12.000000 -36.000000 3.189814E+01
12.000000 -38.000000 1.058848E+01
12.000000 -40.000000 -1.293322E+01
14.000000 40.000000 9.644150E+01
14.000000 38.000000 7.842004E+01
14.000000 36.000000 5.758575E+01
14.000000 34.000000 2.722342E+01
14.000000 32.000000 -5.122807E+00
14.000000 30.000000 -2.476780E+01
14.000000 28.000000 -2.577981E+01
14.000000 26.000000 -1.823344E+01
14.000000 24.000000 -1.411213E+01
14.000000 22.000000 -3.575443E+00
14.000000 20.000000 7.126263E+00
14.000000 18.000000 1.052596E+01
14.000000 16.000000 -1.662325E+00
14.000000 14.000000 -2.117073E+01
14.000000 12.000000 -4.444501E+01
14.000000 10.000000 -7.361926E+01
14.000000 8.000000 -9.980206E+01
14.000000 6.000000 -1.158421E+02
14.000000 4.000000 -1.009013E+02
14.000000 2.000000 -5.137526E+01
14.000000 0.000000 1.816488E+01
14.000000 -2.000000 8.478932E+01
14.000000 -4.000000 1.202305E+02
14.000000 -6.000000 1.021098E+02
14.000000 -8.000000 5.388936E+01
14.000000 -10.000000 1.531234E+01
14.000000 -12.000000 2.376356E+01
14.000000 -14.000000 6.077165E+01
14.000000 -16.000000 8.837883E+01
14.000000 -18.000000 7.708472E+01
14.000000 -20.000000 4.389020E+01
14.000000 -22.000000 1.711003E+01
14.000000 -24.000000 4.918640E+00
14.000000 -26.000000 1.830100E+00
14.000000 -28.000000 -1.699878E+00
14.000000 -30.000000 -6.469781E-01
14.000000 -32.000000 1.116516E+01
14.000000 -34.000000 2.329172E+01
14.000000 -36.000000 1.718539E+01
14.000000 -38.000000 1.173210E+00
14.000000 -40.000000 -1.890437E+01
16.000000 40.000000 9.417411E+01
16.000000 38.000000 7.629825E+01
16.000000 36.000000 5.769356E+01
16.000000 34.000000 3.085986E+01
16.000000 32.000000 1.453632E+00
16.000000 30.000000 -1.120688E+01
16.000000 28.000000 1.321930E+00
16.000000 26.000000 1.700901E+01
16.000000 24.000000 1.926943E+01
16.000000 22.000000 2.337877E+01
16.000000 20.000000 3.257846E+01
16.000000 18.000000 3.627667E+01
16.000000 16.000000 2.200509E+01
16.000000 14.000000 -4.616310E+00
16.000000 12.000000 -3.784786E+01
16.000000 10.000000 -7.797014E+01
16.000000 8.000000 -1.098750E+02
16.000000 6.000000 -1.312665E+02
16.000000 4.000000 -1.203027E+02
16.000000 2.000000 -7.286767E+01
16.000000 0.000000 -3.754034E+00
16.000000 -2.000000 6.580410E+01
16.000000 -4.000000 1.082907E+02
16.000000 -6.000000 1.003885E+02
16.000000 -8.000000 6.334842E+01
16.000000 -10.000000 3.617285E+01
16.000000 -12.000000 5.651723E+01
16.000000 -14.000000 9.581195E+01
16.000000 -16.000000 1.090341E+02
16.000000 -18.000000 7.700613E+01
16.000000 -20.000000 2.694664E+01
16.000000 -22.000000 -8.620708E+00
16.000000 -24.000000 -2.224675E+01
16.000000 -26.000000 -2.383515E+01
16.000000 -28.000000 -2.551858E+01
16.000000 -30.000000 -2.545986E+01
16.000000 -32.000000 -1.582644E+01
16.000000 -34.000000 -2.143355E+00
16.000000 -36.000000 -2.580139E+00
16.000000 -38.000000 -1.190894E+01
16.000000 -40.000000 -2.540241E+01
18.000000 40.000000 9.507731E+01
18.000000 38.000000 7.660373E+01
18.000000 36.000000 5.853708E+01
18.000000 34.000000 3.492914E+01
18.000000 32.000000 9.837481E+00
18.000000 30.000000 4.873947E+00
18.000000 28.000000 2.664151E+01
18.000000 26.000000 4.478759E+01
18.000000 24.000000 4.514681E+01
18.000000 22.000000 4.363901E+01
18.000000 20.000000 5.073961E+01
18.000000 18.000000 5.411942E+01
18.000000 16.000000 3.914241E+01
18.000000 14.000000 9.094080E+00
18.000000 12.000000 -3.231888E+01
18.000000 10.000000 -7.997933E+01
18.000000 8.000000 -1.184562E+02
18.000000 6.000000 -1.446416E+02
18.000000 4.000000 -1.370239E+02
18.000000 2.000000 -8.993248E+01
18.000000 0.000000 -2.276105E+01
18.000000 -2.000000 4.528974E+01
18.000000 -4.000000 8.985853E+01
18.000000 -6.000000 9.653373E+01
18.000000 -8.000000 8.171026E+01
18.000000 -10.000000 7.965303E+01
18.000000 -12.000000 1.154733E+02
18.000000 -14.000000 1.537767E+02
18.000000 -16.000000 1.467286E+02
18.000000 -18.000000 8.584101E+01
18.000000 -20.000000 1.435330E+01
18.000000 -22.000000 -2.983458E+01
18.000000 -24.000000 -4.426435E+01
18.000000 -26.000000 -4.323546E+01
18.000000 -28.000000 -4.482765E+01
18.000000 -30.000000 -4.715844E+01
18.000000 -32.000000 -4.229669E+01
18.000000 -34.000000 -2.940782E+01
18.000000 -36.000000 -2.476730E+01
18.000000 -38.000000 -2.714761E+01
18.000000 -40.000000 -3.309711E+01
20.000000 40.000000 9.796605E+01
20.000000 38.000000 8.176733E+01
20.000000 36.000000 6.422368E+01
20.000000 34.000000 4.089247E+01
20.000000 32.000000 1.917146E+01
20.000000 30.000000 1.931048E+01
20.000000 28.000000 4.027787E+01
20.000000 26.000000 5.250715E+01
20.000000 24.000000 5.240995E+01
20.000000 22.000000 4.915859E+01
20.000000 20.000000 5.457736E+01
20.000000 18.000000 5.723606E+01
20.000000 16.000000 4.409246E+01
20.000000 14.000000 1.549460E+01
20.000000 12.000000 -2.887978E+01
20.000000 10.000000 -7.955313E+01
20.000000 8.000000 -1.232504E+02
20.000000 6.000000 -1.516262E+02
20.000000 4.000000 -1.451707E+02
20.000000 2.000000 -9.896524E+01
20.000000 0.000000 -3.492798E+01
20.000000 -2.000000 2.797279E+01
20.000000 -4.000000 7.111577E+01
20.000000 -6.000000 9.150586E+01
20.000000 -8.000000 1.029164E+02
20.000000 -10.000000 1.307420E+02
20.000000 -12.000000 1.842218E+02
20.000000 -14.000000 2.221981E+02
20.000000 -16.000000 1.951023E+02
20.000000 -18.000000 1.024624E+02
20.000000 -20.000000 7.044174E+00
20.000000 -22.000000 -4.329210E+01
20.000000 -24.000000 -5.542530E+01
20.000000 -26.000000 -5.146278E+01
20.000000 -28.000000 -5.457450E+01
20.000000 -30.000000 -5.920381E+01
20.000000 -32.000000 -6.005740E+01
20.000000 -34.000000 -5.055825E+01
20.000000 -36.000000 -4.335220E+01
20.000000 -38.000000 -4.103671E+01
20.000000 -40.000000 -4.215948E+01
22.000000 40.000000 1.025170E+02
22.000000 38.000000 8.928732E+01
22.000000 36.000000 7.353802E+01
22.000000 34.000000 5.018722E+01
22.000000 32.000000 2.976874E+01
22.000000 30.000000 2.788108E+01
22.000000 28.000000 3.785010E+01
22.000000 26.000000 4.089407E+01
22.000000 24.000000 3.898662E+01
22.000000 22.000000 3.656343E+01
22.000000 20.000000 4.124411E+01
22.000000 18.000000 4.371325E+01
22.000000 16.000000 3.590254E+01
22.000000 14.000000 1.229275E+01
22.000000 12.000000 -2.908623E+01
22.000000 10.000000 -7.871098E+01
22.000000 8.000000 -1.239212E+02
22.000000 6.000000 -1.505508E+02
22.000000 4.000000 -1.429354E+02
22.000000 2.000000 -9.933027E+01
22.000000 0.000000 -3.855549E+01
22.000000 -2.000000 1.833072E+01
22.000000 -4.000000 5.901920E+01
22.000000 -6.000000 8.955807E+01
22.000000 -8.000000 1.238369E+02
22.000000 -10.000000 1.754630E+02
22.000000 -12.000000 2.420491E+02
22.000000 -14.000000 2.791172E+02
22.000000 -16.000000 2.351663E+02
22.000000 -18.000000 1.180553E+02
22.000000 -20.000000 4.377741E+00
22.000000 -22.000000 -4.968795E+01
22.000000 -24.000000 -5.638861E+01
22.000000 -26.000000 -4.773094E+01
22.000000 -28.000000 -5.094929E+01
22.000000 -30.000000 -5.792954E+01
22.000000 -32.000000 -6.368962E+01
22.000000 -34.000000 -5.800070E+01
22.000000 -36.000000 -5.226291E+01
22.000000 -38.000000 -5.036846E+01
22.000000 -40.000000 -5.175158E+01
24.000000 40.000000 1.072344E+02
24.000000 38.000000 9.624796E+01
24.000000 36.000000 8.399310E+01
24.000000 34.000000 6.230747E+01
24.000000 32.000000 4.033286E+01
24.000000 30.000000 2.873493E+01
24.000000 28.000000 2.201048E+01
24.000000 26.000000 1.596660E+01
24.000000 24.000000 1.059332E+01
24.000000 22.000000 1.018743E+01
24.000000 20.000000 1.645713E+01
24.000000 18.000000 2.195100E+01
24.000000 16.000000 2.061866E+01
24.000000 14.000000 2.621435E+00
24.000000 12.000000 -3.480514E+01
24.000000 10.000000 -8.224005E+01
24.000000 8.000000 -1.246796E+02
24.000000 6.000000 -1.475366E+02
24.000000 4.000000 -1.385194E+02
24.000000 2.000000 -9.872143E+01
24.000000 0.000000 -4.096718E+01
24.000000 -2.000000 1.661093E+01
24.000000 -4.000000 6.210018E+01
24.000000 -6.000000 9.997525E+01
24.000000 -8.000000 1.447011E+02
24.000000 -10.000000 2.058301E+02
24.000000 -12.000000 2.733079E+02
24.000000 -14.000000 3.044198E+02
24.000000 -16.000000 2.486210E+02
24.000000 -18.000000 1.214065E+02
24.000000 -20.000000 2.366811E+00
24.000000 -22.000000 -5.110581E+01
24.000000 -24.000000 -4.798002E+01
24.000000 -26.000000 -3.104983E+01
24.000000 -28.000000 -3.271085E+01
24.000000 -30.000000 -4.250877E+01
24.000000 -32.000000 -5.291303E+01
24.000000 -34.000000 -5.183687E+01
24.000000 -36.000000 -5.114009E+01
24.000000 -38.000000 -5.377720E+01
24.000000 -40.000000 -5.944666E+01
26.000000 40.000000 1.098352E+02
26.000000 38.000000 1.001821E+02
26.000000 36.000000 9.174414E+01
26.000000 34.000000 7.311786E+01
26.000000 32.000000 4.702429E+01
26.000000 30.000000 2.166710E+01
26.000000 28.000000 1.692734E-01
26.000000 26.000000 -1.150550E+01
26.000000 24.000000 -2.146730E+01
26.000000 22.000000 -1.991091E+01
26.000000 20.000000 -1.035057E+01
26.000000 18.000000 1.794239E+00
26.000000 16.000000 5.640636E+00
26.000000 14.000000 -9.087681E+00
26.000000 12.000000 -4.462795E+01
26.000000 10.000000 -9.131906E+01
26.000000 8.000000 -1.292559E+02
26.000000 6.000000 -1.472728E+02
26.000000 4.000000 -1.369461E+02
26.000000 2.000000 -1.012139E+02
26.000000 0.000000 -4.464042E+01
26.000000 -2.000000 2.044266E+01
26.000000 -4.000000 7.752126E+01
26.000000 -6.000000 1.212186E+02
26.000000 -8.000000 1.640860E+02
26.000000 -10.000000 2.181477E+02
26.000000 -12.000000 2.728903E+02
26.000000 -14.000000 2.919587E+02
26.000000 -16.000000 2.293090E+02
26.000000 -18.000000 1.046439E+02
26.000000 -20.000000 -5.850716E+00
26.000000 -22.000000 -4.884565E+01
26.000000 -24.000000 -3.116256E+01
26.000000 -26.000000 -3.502847E+00
26.000000 -28.000000 -3.585816E+00
26.000000 -30.000000 -1.542550E+01
26.000000 -32.000000 -3.086833E+01
26.000000 -34.000000 -3.697730E+01
26.000000 -36.000000 -4.336837E+01
26.000000 -38.000000 -5.154808E+01
26.000000 -40.000000 -6.327728E+01
28.000000 40.000000 1.088378E+02
28.000000 38.000000 9.869255E+01
28.000000 36.000000 9.085175E+01
28.000000 34.000000 7.306334E+01
28.000000 32.000000 4.359381E+01
28.000000 30.000000 1.060312E+01
28.000000 28.000000 -1.607632E+01
28.000000 26.000000 -2.990869E+01
28.000000 24.000000 -4.395584E+01
28.000000 22.000000 -4.122966E+01
28.000000 20.000000 -2.821879E+01
28.000000 18.000000 -1.060894E+01
28.000000 16.000000 -4.771290E+00
28.000000 14.000000 -1.998986E+01
28.000000 12.000000 -5.620126E+01
28.000000 10.000000 -1.036535E+02
28.000000 8.000000 -1.375154E+02
28.000000 6.000000 -1.493049E+02
28.000000 4.000000 -1.377520E+02
28.000000 2.000000 -1.058130E+02
28.000000 0.000000 -5.003749E+01
28.000000 -2.000000 2.352630E+01
28.000000 -4.000000 9.318897E+01
28.000000 -6.000000 1.426257E+02
28.000000 -8.000000 1.776317E+02
28.000000 -10.000000 2.131407E+02
28.000000 -12.000000 2.473634E+02
28.000000 -14.000000 2.529878E+02
28.000000 -16.000000 1.873960E+02
28.000000 -18.000000 7.326840E+01
28.000000 -20.000000 -2.026022E+01
28.000000 -22.000000 -4.601444E+01
28.000000 -24.000000 -1.249988E+01
28.000000 -26.000000 2.650367E+01
28.000000 -28.000000 2.901995E+01
28.000000 -30.000000 1.627509E+01
28.000000 -32.000000 -2.763699E+00
28.000000 -34.000000 -1.684170E+01
28.000000 -36.000000 -3.162068E+01
28.000000 -38.000000 -4.548512E+01
28.000000 -40.000000 -6.432695E+01
30.000000 40.000000 1.042796E+02
30.000000 38.000000 9.065973E+01
30.000000 36.000000 7.783554E+01
30.000000 34.000000 5.657814E+01
30.000000 32.000000 2.702964E+01
30.000000 30.000000 -2.132488E+00
30.000000 28.000000 -2.183671E+01
30.000000 26.000000 -3.308149E+01
30.000000 24.000000 -4.752267E+01
30.000000 22.000000 -4.477613E+01
30.000000 20.000000 -3.083591E+01
30.000000 18.000000 -1.259945E+01
30.000000 16.000000 -1.054453E+01
30.000000 14.000000 -3.001148E+01
30.000000 12.000000 -6.821122E+01
30.000000 10.000000 -1.151262E+02
30.000000 8.000000 -1.435590E+02
30.000000 6.000000 -1.490390E+02
30.000000 4.000000 -1.353744E+02
30.000000 2.000000 -1.066220E+02
30.000000 0.000000 -5.380354E+01
30.000000 -2.000000 2.331298E+01
30.000000 -4.000000 1.002912E+02
30.000000 -6.000000 1.511919E+02
30.000000 -8.000000 1.759290E+02
30.000000 -10.000000 1.932273E+02
30.000000 -12.000000 2.102497E+02
30.000000 -14.000000 2.059244E+02
30.000000 -16.000000 1.423513E+02
30.000000 -18.000000 4.173859E+01
30.000000 -20.000000 -3.469672E+01
30.000000 -22.000000 -4.436445E+01
30.000000 -24.000000 8.412640E-01
30.000000 -26.000000 4.850426E+01
30.000000 -28.000000 5.529734E+01
30.000000 -30.000000 4.333681E+01
30.000000 -32.000000 2.453116E+01
30.000000 -34.000000 4.627282E+00
30.000000 -36.000000 -1.893147E+01
30.000000 -38.000000 -3.853544E+01
30.000000 -40.000000 -6.446644E+01
32.000000 40.000000 9.782448E+01
32.000000 38.000000 7.615170E+01
32.000000 36.000000 5.414237E+01
32.000000 34.000000 2.693075E+01
32.000000 32.000000 -4.197426E-01
32.000000 30.000000 -1.934902E+01
32.000000 28.000000 -2.361239E+01
32.000000 26.000000 -2.388335E+01
32.000000 24.000000 -3.091677E+01
32.000000 22.000000 -2.803278E+01
32.000000 20.000000 -1.639550E+01
32.000000 18.000000 -3.086159E+00
32.000000 16.000000 -9.341187E+00
32.000000 14.000000 -3.580193E+01
32.000000 12.000000 -7.630946E+01
32.000000 10.000000 -1.201528E+02
32.000000 8.000000 -1.402083E+02
32.000000 6.000000 -1.394858E+02
32.000000 4.000000 -1.218649E+02
32.000000 2.000000 -9.629255E+01
32.000000 0.000000 -5.096879E+01
32.000000 -2.000000 1.987774E+01
32.000000 -4.000000 9.388258E+01
32.000000 -6.000000 1.405282E+02
32.000000 -8.000000 1.547467E+02
32.000000 -10.000000 1.600302E+02
32.000000 -12.000000 1.692079E+02
32.000000 -14.000000 1.609017E+02
32.000000 -16.000000 1.043578E+02
32.000000 -18.000000 1.964640E+01
32.000000 -20.000000 -4.037278E+01
32.000000 -22.000000 -4.056000E+01
32.000000 -24.000000 7.480467E+00
32.000000 -26.000000 5.634034E+01
32.000000 -28.000000 6.687781E+01
32.000000 -30.000000 5.908471E+01
32.000000 -32.000000 4.323442E+01
32.000000 -34.000000 2.133874E+01
32.000000 -36.000000 -8.875755E+00
32.000000 -38.000000 -3.396087E+01
32.000000 -40.000000 -6.413901E+01
34.000000 40.000000 9.016653E+01
34.000000 38.000000 5.794222E+01
34.000000 36.000000 2.536771E+01
34.000000 34.000000 -8.434006E+00
34.000000 32.000000 -3.254171E+01
34.000000 30.000000 -3.930967E+01
34.000000 28.000000 -2.555914E+01
34.000000 26.000000 -1.036217E+01
34.000000 24.000000 -3.595398E+00
34.000000 22.000000 3.050682E+00
34.000000 20.000000 1.332642E+01
34.000000 18.000000 1.928434E+01
34.000000 16.000000 3.359470E+00
34.000000 14.000000 -3.146527E+01
34.000000 12.000000 -7.549839E+01
34.000000 10.000000 -1.153975E+02
34.000000 8.000000 -1.251915E+02
34.000000 6.000000 -1.154880E+02
34.000000 4.000000 -9.377795E+01
34.000000 2.000000 -7.350937E+01
34.000000 0.000000 -4.017608E+01
34.000000 -2.000000 1.421388E+01
34.000000 -4.000000 7.320371E+01
34.000000 -6.000000 1.116809E+02
34.000000 -8.000000 1.190516E+02
34.000000 -10.000000 1.204404E+02
34.000000 -12.000000 1.283956E+02
34.000000 -14.000000 1.217420E+02
34.000000 -16.000000 7.603247E+01
34.000000 -18.000000 8.136413E+00
34.000000 -20.000000 -3.695429E+01
34.000000 -22.000000 -3.404183E+01
34.000000 -24.000000 8.374580E+00
34.000000 -26.000000 5.026934E+01
34.000000 -28.000000 6.099932E+01
34.000000 -30.000000 5.863357E+01
34.000000 -32.000000 4.706825E+01
34.000000 -34.000000 2.731008E+01
34.000000 -36.000000 -4.190773E+00
34.000000 -38.000000 -3.179511E+01
34.000000 -40.000000 -6.220785E+01
36.000000 40.000000 8.085973E+01
36.000000 38.000000 4.037903E+01
36.000000 36.000000 -5.487671E-01
36.000000 34.000000 -3.991236E+01
36.000000 32.000000 -5.878720E+01
36.000000 30.000000 -5.353539E+01
36.000000 28.000000 -2.745973E+01
36.000000 26.000000 -1.168724E+00
36.000000 24.000000 2.061638E+01
36.000000 22.000000 3.707216E+01
36.000000 20.000000 5.086013E+01
36.000000 18.000000 5.143751E+01
36.000000 16.000000 2.853443E+01
36.000000 14.000000 -1.318324E+01
36.000000 12.000000 -6.153024E+01
36.000000 10.000000 -9.805303E+01
36.000000 8.000000 -1.005390E+02
36.000000 6.000000 -8.373612E+01
36.000000 4.000000 -6.069615E+01
36.000000 2.000000 -4.677102E+01
36.000000 0.000000 -2.714588E+01
36.000000 -2.000000 6.872675E+00
36.000000 -4.000000 4.663340E+01
36.000000 -6.000000 7.593601E+01
36.000000 -8.000000 7.962289E+01
36.000000 -10.000000 8.073315E+01
36.000000 -12.000000 9.188498E+01
36.000000 -14.000000 9.163981E+01
36.000000 -16.000000 5.747148E+01
36.000000 -18.000000 3.827289E+00
36.000000 -20.000000 -3.055561E+01
36.000000 -22.000000 -2.841324E+01
36.000000 -24.000000 3.759555E+00
36.000000 -26.000000 3.482764E+01
36.000000 -28.000000 4.148320E+01
36.000000 -30.000000 4.073969E+01
36.000000 -32.000000 3.403643E+01
36.000000 -34.000000 2.063489E+01
36.000000 -36.000000 -5.187623E+00
36.000000 -38.000000 -2.972428E+01
36.000000 -40.000000 -5.748288E+01
38.000000 40.000000 7.099208E+01
38.000000 38.000000 2.540964E+01
38.000000 36.000000 -1.880733E+01
38.000000 34.000000 -5.771426E+01
38.000000 32.000000 -6.884299E+01
38.000000 30.000000 -5.496025E+01
38.000000 28.000000 -2.494265E+01
38.000000 26.000000 4.106754E+00
38.000000 24.000000 3.372708E+01
38.000000 22.000000 6.060423E+01
38.000000 20.000000 8.271191E+01
38.000000 18.000000 8.555066E+01
38.000000 16.000000 5.949014E+01
38.000000 14.000000 1.412365E+01
38.000000 12.000000 -3.599039E+01
38.000000 10.000000 -7.032453E+01
38.000000 8.000000 -7.251484E+01
38.000000 6.000000 -5.740738E+01
38.000000 4.000000 -3.629985E+01
38.000000 2.000000 -2.573380E+01
38.000000 0.000000 -1.803832E+01
38.000000 -2.000000 -1.319224E+00
38.000000 -4.000000 2.382047E+01
38.000000 -6.000000 4.388086E+01
38.000000 -8.000000 4.611868E+01
38.000000 -10.000000 4.658175E+01
38.000000 -12.000000 6.200039E+01
38.000000 -14.000000 7.050902E+01
38.000000 -16.000000 4.622482E+01
38.000000 -18.000000 2.810024E+00
38.000000 -20.000000 -2.604443E+01
38.000000 -22.000000 -2.730263E+01
38.000000 -24.000000 -6.388278E+00
38.000000 -26.000000 1.380807E+01
38.000000 -28.000000 1.632598E+01
38.000000 -30.000000 1.445950E+01
38.000000 -32.000000 1.138805E+01
38.000000 -34.000000 6.442043E+00
38.000000 -36.000000 -8.864776E+00
38.000000 -38.000000 -2.667345E+01
38.000000 -40.000000 -5.105894E+01
40.000000 40.000000 6.138768E+01
40.000000 38.000000 1.412510E+01
40.000000 36.000000 -2.687426E+01
40.000000 34.000000 -5.658371E+01
40.000000 32.000000 -5.799114E+01
40.000000 30.000000 -3.964142E+01
40.000000 28.000000 -1.278720E+01
40.000000 26.000000 1.016380E+01
40.000000 24.000000 3.611536E+01
40.000000 22.000000 6.710904E+01
40.000000 20.000000 9.635015E+01
40.000000 18.000000 1.067915E+02
40.000000 16.000000 8.416192E+01
40.000000 14.000000 4.036594E+01
40.000000 12.000000 -9.083158E+00
40.000000 10.000000 -4.275082E+01
40.000000 8.000000 -4.811280E+01
40.000000 6.000000 -3.884191E+01
40.000000 4.000000 -2.281903E+01
40.000000 2.000000 -1.547381E+01
40.000000 0.000000 -1.552636E+01
40.000000 -2.000000 -1.054567E+01
40.000000 -4.000000 3.736158E+00
40.000000 -6.000000 1.620406E+01
40.000000 -8.000000 1.827918E+01
40.000000 -10.000000 2.014434E+01
40.000000 -12.000000 3.889663E+01
40.000000 -14.000000 5.536236E+01
40.000000 -16.000000 4.240580E+01
40.000000 -18.000000 7.245736E+00
40.000000 -20.000000 -2.176704E+01
40.000000 -22.000000 -2.928042E+01
40.000000 -24.000000 -1.817928E+01
40.000000 -26.000000 -5.802049E+00
40.000000 -28.000000 -5.495777E+00
40.000000 -30.000000 -8.596760E+00
40.000000 -32.000000 -1.022479E+01
40.000000 -34.000000 -8.213619E+00
40.000000 -36.000000 -1.273794E+01
40.000000 -38.000000 -2.344514E+01
40.000000 -40.000000 -4.555373E+01
42.000000 40.000000 5.158930E+01
42.000000 38.000000 9.145868E+00
42.000000 36.000000 -2.287918E+01
42.000000 34.000000 -3.907553E+01
42.000000 32.000000 -2.991506E+01
42.000000 30.000000 -9.768837E+00
42.000000 28.000000 9.193430E+00
42.000000 26.000000 1.964748E+01
42.000000 24.000000 3.344033E+01
42.000000 22.000000 5.831937E+01
42.000000 20.000000 8.618002E+01
42.000000 18.000000 1.022131E+02
42.000000 16.000000 9.043048E+01
42.000000 14.000000 5.568140E+01
42.000000 12.000000 1.188731E+01
42.000000 10.000000 -1.947699E+01
42.000000 8.000000 -2.789912E+01
42.000000 6.000000 -2.409496E+01
42.000000 4.000000 -1.656785E+01
42.000000 2.000000 -1.456386E+01
42.000000 0.000000 -1.806818E+01
42.000000 -2.000000 -2.010836E+01
42.000000 -4.000000 -1.512938E+01
42.000000 -6.000000 -8.995642E+00
42.000000 -8.000000 -6.817797E+00
42.000000 -10.000000 -2.753966E+00
42.000000 -12.000000 1.873303E+01
42.000000 -14.000000 4.299748E+01
42.000000 -16.000000 4.459414E+01
42.000000 -18.000000 1.901696E+01
42.000000 -20.000000 -1.166863E+01
42.000000 -22.000000 -2.666597E+01
42.000000 -24.000000 -2.427134E+01
42.000000 -26.000000 -1.644778E+01
42.000000 -28.000000 -1.812910E+01
42.000000 -30.000000 -2.263969E+01
42.000000 -32.000000 -2.390244E+01
42.000000 -34.000000 -1.815665E+01
42.000000 -36.000000 -1.589681E+01
42.000000 -38.000000 -2.149131E+01
42.000000 -40.000000 -4.292372E+01
44.000000 40.000000 4.319965E+01
44.000000 38.000000 1.012679E+01
44.000000 36.000000 -1.084314E+01
44.000000 34.000000 -1.392567E+01
44.000000 32.000000 5.320906E+00
44.000000 30.000000 2.582398E+01
44.000000 28.000000 3.513063E+01
44.000000 26.000000 3.216572E+01
44.000000 24.000000 3.166913E+01
44.000000 22.000000 4.211487E+01
44.000000 20.000000 5.918208E+01
44.000000 18.000000 7.545539E+01
44.000000 16.000000 7.363804E+01
44.000000 14.000000 5.212910E+01
44.000000 12.000000 2.107452E+01
44.000000 10.000000 -3.044113E+00
44.000000 8.000000 -1.299561E+01
44.000000 6.000000 -1.431940E+01
44.000000 4.000000 -1.301788E+01
44.000000 2.000000 -1.467140E+01
44.000000 0.000000 -1.960503E+01
44.000000 -2.000000 -2.494395E+01
44.000000 -4.000000 -2.671526E+01
44.000000 -6.000000 -2.616642E+01
44.000000 -8.000000 -2.590727E+01
44.000000 -10.000000 -2.187434E+01
44.000000 -12.000000 1.895427E+00
44.000000 -14.000000 3.317027E+01
44.000000 -16.000000 4.779365E+01
44.000000 -18.000000 3.166237E+01
44.000000 -20.000000 1.039003E+00
44.000000 -22.000000 -2.047580E+01
44.000000 -24.000000 -2.439857E+01
44.000000 -26.000000 -1.874543E+01
44.000000 -28.000000 -2.211573E+01
44.000000 -30.000000 -2.702613E+01
44.000000 -32.000000 -2.731922E+01
44.000000 -34.000000 -2.028100E+01
44.000000 -36.000000 -1.612186E+01
44.000000 -38.000000 -1.988573E+01
44.000000 -40.000000 -4.179914E+01
46.000000 40.000000 3.994127E+01
46.000000 38.000000 1.405877E+01
46.000000 36.000000 1.412079E+00
46.000000 34.000000 8.468744E+00
46.000000 32.000000 3.520417E+01
46.000000 30.000000 5.498582E+01
46.000000 28.000000 5.563627E+01
46.000000 26.000000 4.318143E+01
46.000000 24.000000 3.261503E+01
46.000000 22.000000 2.698798E+01
46.000000 20.000000 2.802050E+01
46.000000 18.000000 3.957214E+01
46.000000 16.000000 4.260370E+01
46.000000 14.000000 3.309563E+01
46.000000 12.000000 1.597524E+01
46.000000 10.000000 1.323136E+00
46.000000 8.000000 -7.052280E+00
46.000000 6.000000 -1.153559E+01
46.000000 4.000000 -1.214046E+01
46.000000 2.000000 -1.389311E+01
46.000000 0.000000 -1.719364E+01
46.000000 -2.000000 -2.100961E+01
46.000000 -4.000000 -2.540386E+01
46.000000 -6.000000 -2.850576E+01
46.000000 -8.000000 -3.017303E+01
46.000000 -10.000000 -2.847796E+01
46.000000 -12.000000 -5.577565E+00
46.000000 -14.000000 2.795060E+01
46.000000 -16.000000 4.768246E+01
46.000000 -18.000000 3.683035E+01
46.000000 -20.000000 8.427908E+00
46.000000 -22.000000 -1.515451E+01
46.000000 -24.000000 -2.190209E+01
46.000000 -26.000000 -1.827482E+01
46.000000 -28.000000 -2.128913E+01
46.000000 -30.000000 -2.435644E+01
46.000000 -32.000000 -2.223615E+01
46.000000 -34.000000 -1.461992E+01
46.000000 -36.000000 -1.209643E+01
46.000000 -38.000000 -1.706932E+01
46.000000 -40.000000 -3.887796E+01
48.000000 40.000000 4.349112E+01
48.000000 38.000000 1.950541E+01
48.000000 36.000000 1.055329E+01
48.000000 34.000000 2.185206E+01
48.000000 32.000000 4.868273E+01
48.000000 30.000000 6.501615E+01
48.000000 28.000000 6.182728E+01
48.000000 26.000000 4.757813E+01
48.000000 24.000000 3.259165E+01
48.000000 22.000000 1.539789E+01
48.000000 20.000000 4.306253E+00
48.000000 18.000000 7.806327E+00
48.000000 16.000000 1.163205E+01
48.000000 14.000000 9.418759E+00
48.000000 12.000000 2.321388E+00
48.000000 10.000000 -4.871517E+00
48.000000 8.000000 -9.357981E+00
48.000000 6.000000 -1.307848E+01
48.000000 4.000000 -1.439935E+01
48.000000 2.000000 -1.527335E+01
48.000000 0.000000 -1.453703E+01
48.000000 -2.000000 -1.268728E+01
48.000000 -4.000000 -1.513527E+01
48.000000 -6.000000 -1.878736E+01
48.000000 -8.000000 -2.120713E+01
48.000000 -10.000000 -2.350130E+01
48.000000 -12.000000 -3.357113E+00
48.000000 -14.000000 2.790319E+01
48.000000 -16.000000 4.457152E+01
48.000000 -18.000000 3.513892E+01
48.000000 -20.000000 1.132778E+01
48.000000 -22.000000 -8.523910E+00
48.000000 -24.000000 -1.528110E+01
48.000000 -26.000000 -1.335090E+01
48.000000 -28.000000 -1.491067E+01
48.000000 -30.000000 -1.583555E+01
48.000000 -32.000000 -1.176599E+01
48.000000 -34.000000 -4.302485E+00
48.000000 -36.000000 -5.106470E+00
48.000000 -38.000000 -1.276078E+01
48.000000 -40.000000 -3.400096E+01
50.000000 40.000000 5.223523E+01
50.000000 38.000000 2.567055E+01
50.000000 36.000000 1.608149E+01
50.000000 34.000000 2.448145E+01
50.000000 32.000000 4.196753E+01
50.000000 30.000000 5.126779E+01
50.000000 28.000000 5.078538E+01
50.000000 26.000000 4.279006E+01
50.000000 24.000000 2.806739E+01
50.000000 22.000000 6.323736E+00
50.000000 20.000000 -8.793034E+00
50.000000 18.000000 -1.193154E+01
50.000000 16.000000 -8.549915E+00
50.000000 14.000000 -7.158609E+00
50.000000 12.000000 -8.860549E+00
50.000000 10.000000 -1.161178E+01
50.000000 8.000000 -1.361435E+01
50.000000 6.000000 -1.601398E+01
50.000000 4.000000 -1.762850E+01
50.000000 2.000000 -1.813549E+01
50.000000 0.000000 -1.417796E+01
50.000000 -2.000000 -7.383714E+00
50.000000 -4.000000 -5.410595E+00
50.000000 -6.000000 -6.940234E+00
50.000000 -8.000000 -9.475491E+00
50.000000 -10.000000 -1.254434E+01
50.000000 -12.000000 3.635078E+00
50.000000 -14.000000 2.893301E+01
50.000000 -16.000000 4.043271E+01
50.000000 -18.000000 3.217500E+01
50.000000 -20.000000 1.419182E+01
50.000000 -22.000000 1.795362E+00
50.000000 -24.000000 -1.680050E+00
50.000000 -26.000000 -7.090855E-02
50.000000 -28.000000 -1.291725E+00
